//X,Y,Z,Classification
11704.0,-23794.0,33799.0,1.0
11543.0,-22990.0,33452.0,1.0
11379.0,-22197.0,33092.0,1.0
11185.0,-21366.0,32644.0,1.0
11044.0,-20651.0,32344.0,1.0
10890.0,-19927.0,32002.0,1.0
10746.0,-19234.0,31683.0,1.0
10609.0,-18570.0,31383.0,1.0
4915.0,-8411.0,14591.0,0.0
4904.0,-8200.0,14604.0,0.0
4905.0,-8010.0,14653.0,0.0
4904.0,-7819.0,14698.0,0.0
4902.0,-7627.0,14737.0,0.0
4903.0,-7440.0,14785.0,0.0
4895.0,-7242.0,14807.0,0.0
4898.0,-7059.0,14859.0,0.0
4913.0,-6896.0,14951.0,0.0
5026.0,-6864.0,15339.0,0.0
6602.0,-8769.0,20207.0,0.0
6573.0,-8485.0,20178.0,0.0
6600.0,-8274.0,20319.0,0.0
6606.0,-8036.0,20396.0,0.0
6630.0,-7818.0,20526.0,0.0
6651.0,-7598.0,20651.0,0.0
6655.0,-7356.0,20719.0,0.0
6675.0,-7133.0,20841.0,0.0
6866.0,-7083.0,21492.0,0.0
9586.0,-9538.0,30087.0,1.0
9635.0,-9233.0,30323.0,1.0
9689.0,-8931.0,30575.0,1.0
9739.0,-8620.0,30816.0,1.0
9768.0,-8289.0,30989.0,1.0
9797.0,-7956.0,31160.0,1.0
9850.0,-7638.0,31409.0,1.0
9882.0,-7303.0,31594.0,1.0
9854.0,-6923.0,31584.0,1.0
9851.0,-6562.0,31654.0,1.0
9890.0,-6227.0,31861.0,1.0
9952.0,-5901.0,32141.0,1.0
10031.0,-5582.0,32478.0,1.0
10126.0,-5263.0,32865.0,1.0
10226.0,-4940.0,33277.0,1.0
10333.0,-4611.0,33704.0,1.0
10434.0,-4273.0,34118.0,1.0
1.0,-1.0,4.0,0.0
0.0,0.0,0.0,0.0
0.0,0.0,0.0,0.0
4.0,-1.0,15.0,0.0
11.0,-2.0,40.0,0.0
0.0,0.0,0.0,0.0
2.0,-1.0,10.0,0.0
5.0,0.0,22.0,0.0
2.0,0.0,10.0,0.0
4.0,0.0,16.0,0.0
6.0,0.0,24.0,0.0
6.0,0.0,24.0,0.0
7.0,0.0,27.0,0.0
9.0,0.0,32.0,0.0
12.0,1.0,43.0,0.0
9.0,1.0,30.0,0.0
11.0,2.0,38.0,0.0
10.0,2.0,35.0,0.0
11.0,2.0,38.0,0.0
13.0,4.0,47.0,0.0
18.0,7.0,65.0,0.0
19.0,7.0,66.0,0.0
18.0,9.0,65.0,0.0
15.0,7.0,57.0,0.0
18.0,9.0,65.0,0.0
18.0,10.0,66.0,0.0
19.0,13.0,70.0,0.0
20.0,14.0,73.0,0.0
22.0,16.0,80.0,0.0
21.0,17.0,79.0,0.0
23.0,19.0,83.0,0.0
26.0,22.0,95.0,0.0
26.0,24.0,94.0,0.0
28.0,26.0,101.0,0.0
27.0,27.0,99.0,0.0
24.0,25.0,89.0,0.0
28.0,31.0,104.0,0.0
27.0,31.0,101.0,0.0
29.0,35.0,107.0,0.0
25.0,30.0,92.0,0.0
26.0,33.0,94.0,0.0
28.0,38.0,106.0,0.0
28.0,39.0,104.0,0.0
22.0,32.0,84.0,0.0
22.0,34.0,85.0,0.0
22.0,36.0,86.0,0.0
25.0,41.0,95.0,0.0
22.0,38.0,87.0,0.0
21.0,37.0,81.0,0.0
21.0,38.0,81.0,0.0
22.0,41.0,86.0,0.0
21.0,41.0,83.0,0.0
22.0,43.0,86.0,0.0
23.0,46.0,89.0,0.0
21.0,44.0,82.0,0.0
21.0,46.0,82.0,0.0
21.0,48.0,86.0,0.0
20.0,46.0,80.0,0.0
22.0,50.0,85.0,0.0
22.0,53.0,87.0,0.0
20.0,52.0,83.0,0.0
22.0,55.0,84.0,0.0
22.0,58.0,88.0,0.0
22.0,57.0,86.0,0.0
22.0,58.0,85.0,0.0
22.0,62.0,88.0,0.0
23.0,68.0,94.0,0.0
21.0,63.0,85.0,0.0
22.0,67.0,88.0,0.0
21.0,66.0,86.0,0.0
23.0,73.0,92.0,0.0
23.0,77.0,95.0,0.0
22.0,74.0,89.0,0.0
23.0,81.0,95.0,0.0
23.0,84.0,98.0,0.0
22.0,81.0,93.0,0.0
23.0,85.0,95.0,0.0
23.0,90.0,97.0,0.0
24.0,97.0,102.0,0.0
25.0,101.0,105.0,0.0
24.0,100.0,102.0,0.0
23.0,103.0,102.0,0.0
25.0,107.0,104.0,0.0
26.0,114.0,109.0,0.0
25.0,114.0,106.0,0.0
25.0,115.0,105.0,0.0
43.0,-284.0,81.0,0.0
43.0,-281.0,83.0,0.0
44.0,-281.0,86.0,0.0
45.0,-283.0,91.0,0.0
46.0,-283.0,93.0,0.0
46.0,-278.0,95.0,0.0
48.0,-280.0,99.0,0.0
48.0,-276.0,101.0,0.0
49.0,-280.0,106.0,0.0
51.0,-282.0,111.0,0.0
51.0,-280.0,113.0,0.0
52.0,-278.0,115.0,0.0
52.0,-272.0,117.0,0.0
54.0,-277.0,123.0,0.0
54.0,-274.0,124.0,0.0
55.0,-277.0,130.0,0.0
56.0,-275.0,132.0,0.0
56.0,-270.0,134.0,0.0
56.0,-266.0,135.0,0.0
58.0,-272.0,142.0,0.0
57.0,-259.0,139.0,0.0
60.0,-268.0,147.0,0.0
64.0,-279.0,157.0,0.0
62.0,-269.0,156.0,0.0
59.0,-251.0,149.0,0.0
57.0,-236.0,144.0,0.0
55.0,-226.0,141.0,0.0
52.0,-213.0,136.0,0.0
51.0,-204.0,134.0,0.0
48.0,-188.0,127.0,0.0
50.0,-190.0,131.0,0.0
49.0,-184.0,130.0,0.0
46.0,-169.0,122.0,0.0
45.0,-162.0,120.0,0.0
44.0,-158.0,120.0,0.0
43.0,-152.0,117.0,0.0
37.0,-127.0,101.0,0.0
38.0,-130.0,105.0,0.0
30.0,-104.0,86.0,0.0
36.0,-117.0,98.0,0.0
29.0,-94.0,81.0,0.0
31.0,-99.0,88.0,0.0
30.0,-94.0,86.0,0.0
30.0,-92.0,85.0,0.0
29.0,-88.0,83.0,0.0
27.0,-80.0,78.0,0.0
8089.0,-23144.0,22863.0,0.0
24.0,-69.0,70.0,0.0
8059.0,-22248.0,22981.0,0.0
8061.0,-21855.0,23086.0,0.0
8046.0,-21424.0,23143.0,0.0
8039.0,-21015.0,23217.0,0.0
8025.0,-20599.0,23276.0,0.0
8018.0,-20203.0,23349.0,0.0
7503.0,-18552.0,21933.0,0.0
7516.0,-18239.0,22059.0,0.0
7637.0,-18183.0,22502.0,0.0
7839.0,-18308.0,23184.0,0.0
8072.0,-18490.0,23962.0,0.0
8312.0,-18670.0,24765.0,0.0
11511.0,-25346.0,34420.0,1.0
11328.0,-24449.0,33995.0,1.0
11137.0,-23551.0,33537.0,1.0
10990.0,-22768.0,33210.0,1.0
10808.0,-21929.0,32771.0,1.0
10664.0,-21185.0,32444.0,1.0
10503.0,-20424.0,32063.0,1.0
10372.0,-19735.0,31766.0,1.0
10224.0,-19029.0,31416.0,1.0
10082.0,-18349.0,31079.0,1.0
9977.0,-17748.0,30852.0,1.0
9849.0,-17121.0,30557.0,1.0
5001.0,-8490.0,15564.0,0.0
5071.0,-8405.0,15830.0,0.0
5015.0,-8112.0,15704.0,0.0
5014.0,-7909.0,15745.0,0.0
5017.0,-7716.0,15805.0,0.0
5034.0,-7542.0,15903.0,0.0
5028.0,-7336.0,15932.0,0.0
5070.0,-7198.0,16109.0,0.0
5155.0,-7118.0,16429.0,0.0
6340.0,-8507.0,20262.0,0.0
6350.0,-8274.0,20351.0,0.0
6349.0,-8028.0,20407.0,0.0
6376.0,-7815.0,20546.0,0.0
9131.0,-10843.0,29508.0,1.0
6397.0,-7351.0,20731.0,0.0
6426.0,-7139.0,20882.0,0.0
9229.0,-9899.0,30066.0,1.0
9282.0,-9603.0,30322.0,1.0
9322.0,-9289.0,30532.0,1.0
9367.0,-8979.0,30762.0,1.0
9421.0,-8672.0,31019.0,1.0
9458.0,-8348.0,31224.0,1.0
9478.0,-8006.0,31369.0,1.0
9505.0,-7669.0,31541.0,1.0
9557.0,-7349.0,31794.0,1.0
9574.0,-7000.0,31931.0,1.0
9549.0,-6620.0,31931.0,1.0
9569.0,-6271.0,32076.0,1.0
9616.0,-5937.0,32316.0,1.0
9672.0,-5605.0,32583.0,1.0
9700.0,-5252.0,32762.0,1.0
9773.0,-4921.0,33090.0,1.0
9863.0,-4590.0,33479.0,1.0
9968.0,-4259.0,33920.0,1.0
10065.0,-3915.0,34334.0,1.0
4.0,-2.0,16.0,0.0
1.0,-1.0,6.0,0.0
1.0,-1.0,4.0,0.0
0.0,0.0,0.0,0.0
2.0,0.0,8.0,0.0
2.0,0.0,8.0,0.0
7.0,-1.0,29.0,0.0
8.0,-1.0,32.0,0.0
6.0,0.0,25.0,0.0
6.0,0.0,25.0,0.0
8.0,0.0,32.0,0.0
8.0,0.0,30.0,0.0
11.0,1.0,44.0,0.0
8.0,0.0,32.0,0.0
14.0,2.0,52.0,0.0
15.0,3.0,54.0,0.0
13.0,3.0,49.0,0.0
15.0,4.0,56.0,0.0
14.0,4.0,53.0,0.0
18.0,7.0,67.0,0.0
17.0,7.0,62.0,0.0
18.0,9.0,69.0,0.0
21.0,11.0,78.0,0.0
17.0,9.0,66.0,0.0
22.0,14.0,83.0,0.0
21.0,14.0,82.0,0.0
22.0,15.0,85.0,0.0
26.0,20.0,98.0,0.0
24.0,19.0,92.0,0.0
27.0,23.0,103.0,0.0
26.0,23.0,97.0,0.0
27.0,26.0,103.0,0.0
28.0,27.0,105.0,0.0
25.0,26.0,96.0,0.0
27.0,29.0,103.0,0.0
29.0,33.0,111.0,0.0
26.0,31.0,99.0,0.0
29.0,35.0,111.0,0.0
27.0,34.0,103.0,0.0
26.0,35.0,102.0,0.0
28.0,38.0,107.0,0.0
26.0,37.0,100.0,0.0
27.0,40.0,104.0,0.0
26.0,40.0,102.0,0.0
25.0,40.0,99.0,0.0
24.0,39.0,93.0,0.0
23.0,40.0,91.0,0.0
26.0,45.0,102.0,0.0
24.0,42.0,93.0,0.0
22.0,42.0,89.0,0.0
24.0,47.0,95.0,0.0
21.0,44.0,87.0,0.0
23.0,47.0,91.0,0.0
21.0,45.0,85.0,0.0
20.0,45.0,84.0,0.0
23.0,51.0,90.0,0.0
23.0,53.0,91.0,0.0
22.0,53.0,90.0,0.0
20.0,51.0,84.0,0.0
21.0,53.0,86.0,0.0
23.0,60.0,95.0,0.0
23.0,62.0,95.0,0.0
23.0,62.0,93.0,0.0
23.0,65.0,96.0,0.0
23.0,69.0,97.0,0.0
23.0,69.0,96.0,0.0
23.0,70.0,96.0,0.0
24.0,76.0,102.0,0.0
22.0,71.0,92.0,0.0
23.0,78.0,98.0,0.0
24.0,81.0,101.0,0.0
24.0,86.0,104.0,0.0
24.0,89.0,106.0,0.0
25.0,93.0,108.0,0.0
25.0,97.0,110.0,0.0
24.0,93.0,104.0,0.0
25.0,100.0,109.0,0.0
23.0,97.0,104.0,0.0
24.0,105.0,109.0,0.0
24.0,105.0,107.0,0.0
23.0,106.0,106.0,0.0
24.0,112.0,110.0,0.0
24.0,116.0,111.0,0.0
24.0,119.0,111.0,0.0
26.0,126.0,115.0,0.0
38.0,-271.0,77.0,0.0
38.0,-264.0,78.0,0.0
39.0,-269.0,83.0,0.0
40.0,-266.0,85.0,0.0
41.0,-270.0,89.0,0.0
41.0,-264.0,91.0,0.0
44.0,-274.0,98.0,0.0
44.0,-273.0,101.0,0.0
44.0,-267.0,102.0,0.0
44.0,-261.0,102.0,0.0
46.0,-266.0,108.0,0.0
46.0,-265.0,110.0,0.0
48.0,-267.0,115.0,0.0
48.0,-263.0,117.0,0.0
49.0,-263.0,120.0,0.0
50.0,-264.0,124.0,0.0
50.0,-260.0,126.0,0.0
50.0,-256.0,127.0,0.0
52.0,-260.0,133.0,0.0
52.0,-257.0,135.0,0.0
51.0,-244.0,132.0,0.0
56.0,-264.0,146.0,0.0
57.0,-267.0,151.0,0.0
55.0,-250.0,145.0,0.0
53.0,-239.0,143.0,0.0
51.0,-223.0,136.0,0.0
50.0,-215.0,134.0,0.0
49.0,-205.0,131.0,0.0
47.0,-195.0,129.0,0.0
42.0,-172.0,116.0,0.0
42.0,-173.0,119.0,0.0
44.0,-172.0,122.0,0.0
44.0,-171.0,123.0,0.0
38.0,-147.0,109.0,0.0
35.0,-132.0,100.0,0.0
35.0,-129.0,100.0,0.0
34.0,-123.0,98.0,0.0
29.0,-106.0,86.0,0.0
28.0,-98.0,81.0,0.0
30.0,-103.0,87.0,0.0
28.0,-95.0,82.0,0.0
30.0,-101.0,89.0,0.0
26.0,-86.0,78.0,0.0
28.0,-88.0,82.0,0.0
19.0,-63.0,60.0,0.0
19.0,-62.0,60.0,0.0
7707.0,-23022.0,22814.0,0.0
7705.0,-22606.0,22906.0,0.0
7699.0,-22183.0,22984.0,0.0
7678.0,-21724.0,23015.0,0.0
7676.0,-21327.0,23105.0,0.0
7675.0,-20932.0,23192.0,0.0
7662.0,-20514.0,23245.0,0.0
7663.0,-20136.0,23336.0,0.0
7169.0,-18487.0,21917.0,0.0
7186.0,-18179.0,22048.0,0.0
7347.0,-18235.0,22626.0,0.0
7540.0,-18355.0,23304.0,0.0
7769.0,-18548.0,24099.0,0.0
7957.0,-18626.0,24770.0,0.0
10892.0,-24992.0,34022.0,1.0
10725.0,-24117.0,33617.0,1.0
10558.0,-23262.0,33205.0,1.0
10408.0,-22463.0,32843.0,1.0
10250.0,-21664.0,32450.0,1.0
10084.0,-20868.0,32033.0,1.0
9974.0,-20200.0,31784.0,1.0
9820.0,-19461.0,31394.0,1.0
9700.0,-18801.0,31105.0,1.0
9573.0,-18144.0,30797.0,1.0
9453.0,-17510.0,30502.0,1.0
9344.0,-16912.0,30242.0,1.0
4931.0,-8717.0,16010.0,0.0
9142.0,-15775.0,29766.0,1.0
4913.0,-8274.0,16048.0,0.0
4939.0,-8111.0,16178.0,0.0
4925.0,-7885.0,16180.0,0.0
4920.0,-7674.0,16210.0,0.0
4883.0,-7416.0,16135.0,0.0
5943.0,-8782.0,19689.0,0.0
4879.0,-7013.0,16213.0,0.0
4956.0,-6923.0,16515.0,0.0
5966.0,-8093.0,19933.0,0.0
5976.0,-7865.0,20020.0,0.0
8807.0,-11239.0,29586.0,1.0
6001.0,-7419.0,20218.0,0.0
6018.0,-7199.0,20325.0,0.0
6038.0,-6983.0,20449.0,0.0
6210.0,-6935.0,21086.0,0.0
8983.0,-9676.0,30582.0,1.0
9062.0,-9403.0,30932.0,1.0
9062.0,-9046.0,31014.0,1.0
9098.0,-8722.0,31217.0,1.0
9135.0,-8398.0,31428.0,1.0
9171.0,-8069.0,31627.0,1.0
9204.0,-7736.0,31826.0,1.0
9228.0,-7393.0,31987.0,1.0
9247.0,-7047.0,32140.0,1.0
9243.0,-6679.0,32205.0,1.0
9252.0,-6321.0,32317.0,1.0
9304.0,-5990.0,32581.0,1.0
9340.0,-5645.0,32789.0,1.0
9338.0,-5275.0,32864.0,1.0
9350.0,-4913.0,32990.0,1.0
9441.0,-4588.0,33396.0,1.0
0.0,0.0,0.0,0.0
5.0,-2.0,20.0,0.0
2.0,0.0,8.0,0.0
0.0,0.0,0.0,0.0
0.0,0.0,0.0,0.0
1.0,0.0,3.0,0.0
1.0,0.0,5.0,0.0
0.0,0.0,0.0,0.0
2.0,0.0,8.0,0.0
5.0,-1.0,19.0,0.0
3.0,0.0,14.0,0.0
1.0,0.0,6.0,0.0
2.0,0.0,10.0,0.0
9.0,0.0,34.0,0.0
8.0,0.0,31.0,0.0
8.0,0.0,32.0,0.0
10.0,1.0,39.0,0.0
7.0,1.0,28.0,0.0
10.0,2.0,42.0,0.0
9.0,3.0,36.0,0.0
15.0,6.0,60.0,0.0
12.0,4.0,48.0,0.0
18.0,8.0,72.0,0.0
14.0,7.0,57.0,0.0
16.0,9.0,63.0,0.0
16.0,9.0,63.0,0.0
15.0,9.0,61.0,0.0
21.0,15.0,84.0,0.0
20.0,15.0,79.0,0.0
17.0,13.0,69.0,0.0
19.0,15.0,76.0,0.0
21.0,19.0,87.0,0.0
20.0,18.0,81.0,0.0
25.0,24.0,97.0,0.0
22.0,23.0,92.0,0.0
21.0,23.0,85.0,0.0
25.0,28.0,98.0,0.0
23.0,28.0,94.0,0.0
25.0,30.0,98.0,0.0
26.0,34.0,105.0,0.0
22.0,30.0,92.0,0.0
26.0,35.0,103.0,0.0
25.0,36.0,100.0,0.0
22.0,35.0,94.0,0.0
20.0,32.0,84.0,0.0
22.0,37.0,93.0,0.0
20.0,34.0,84.0,0.0
20.0,36.0,86.0,0.0
17.0,31.0,73.0,0.0
20.0,38.0,85.0,0.0
20.0,38.0,84.0,0.0
19.0,38.0,81.0,0.0
18.0,39.0,79.0,0.0
19.0,42.0,84.0,0.0
16.0,37.0,71.0,0.0
17.0,38.0,73.0,0.0
18.0,44.0,81.0,0.0
17.0,43.0,76.0,0.0
18.0,45.0,80.0,0.0
17.0,46.0,78.0,0.0
18.0,49.0,82.0,0.0
19.0,52.0,84.0,0.0
18.0,50.0,80.0,0.0
18.0,54.0,83.0,0.0
19.0,57.0,85.0,0.0
17.0,54.0,80.0,0.0
18.0,58.0,85.0,0.0
18.0,61.0,85.0,0.0
17.0,58.0,80.0,0.0
20.0,65.0,87.0,0.0
20.0,70.0,90.0,0.0
21.0,73.0,93.0,0.0
21.0,76.0,94.0,0.0
20.0,75.0,92.0,0.0
20.0,76.0,90.0,0.0
20.0,79.0,92.0,0.0
21.0,85.0,96.0,0.0
20.0,85.0,94.0,0.0
21.0,89.0,96.0,0.0
20.0,88.0,94.0,0.0
21.0,95.0,100.0,0.0
21.0,95.0,97.0,0.0
22.0,103.0,102.0,0.0
22.0,105.0,104.0,0.0
22.0,109.0,105.0,0.0
22.0,112.0,105.0,0.0
22.0,115.0,106.0,0.0
37.0,-277.0,79.0,0.0
37.0,-271.0,81.0,0.0
38.0,-274.0,85.0,0.0
40.0,-276.0,89.0,0.0
40.0,-277.0,92.0,0.0
41.0,-272.0,94.0,0.0
41.0,-273.0,97.0,0.0
42.0,-271.0,101.0,0.0
43.0,-273.0,104.0,0.0
45.0,-278.0,110.0,0.0
45.0,-274.0,112.0,0.0
46.0,-271.0,114.0,0.0
47.0,-276.0,119.0,0.0
47.0,-270.0,121.0,0.0
48.0,-266.0,122.0,0.0
50.0,-272.0,128.0,0.0
50.0,-268.0,131.0,0.0
50.0,-264.0,132.0,0.0
52.0,-267.0,137.0,0.0
52.0,-262.0,138.0,0.0
52.0,-258.0,139.0,0.0
53.0,-261.0,145.0,0.0
57.0,-274.0,155.0,0.0
55.0,-259.0,152.0,0.0
55.0,-255.0,153.0,0.0
51.0,-234.0,143.0,0.0
51.0,-227.0,143.0,0.0
47.0,-209.0,134.0,0.0
44.0,-191.0,126.0,0.0
44.0,-186.0,125.0,0.0
43.0,-181.0,125.0,0.0
45.0,-184.0,130.0,0.0
42.0,-167.0,122.0,0.0
35.0,-137.0,102.0,0.0
33.0,-130.0,98.0,0.0
36.0,-138.0,107.0,0.0
33.0,-126.0,100.0,0.0
33.0,-121.0,98.0,0.0
30.0,-110.0,91.0,0.0
31.0,-109.0,93.0,0.0
29.0,-100.0,87.0,0.0
26.0,-90.0,80.0,0.0
25.0,-87.0,78.0,0.0
28.0,-92.0,86.0,0.0
22.0,-72.0,69.0,0.0
25.0,-79.0,78.0,0.0
7371.0,-23027.0,22888.0,0.0
7358.0,-22575.0,22943.0,0.0
7352.0,-22146.0,23013.0,0.0
7341.0,-21713.0,23070.0,0.0
7333.0,-21294.0,23135.0,0.0
7331.0,-20896.0,23216.0,0.0
7324.0,-20489.0,23282.0,0.0
7318.0,-20086.0,23342.0,0.0
6853.0,-18459.0,21942.0,0.0
6872.0,-18159.0,22082.0,0.0
7025.0,-18207.0,22649.0,0.0
7231.0,-18380.0,23395.0,0.0
7417.0,-18486.0,24079.0,0.0
7629.0,-18642.0,24852.0,0.0
10348.0,-24784.0,33821.0,1.0
10201.0,-23940.0,33449.0,1.0
10049.0,-23107.0,33060.0,1.0
9882.0,-22254.0,32613.0,1.0
9747.0,-21496.0,32273.0,1.0
9615.0,-20757.0,31932.0,1.0
9473.0,-20015.0,31559.0,1.0
9359.0,-19345.0,31273.0,1.0
9220.0,-18640.0,30905.0,1.0
9117.0,-18019.0,30648.0,1.0
9017.0,-17419.0,30404.0,1.0
8873.0,-16746.0,30007.0,1.0
4832.0,-8907.0,16390.0,0.0
8678.0,-15614.0,29518.0,1.0
4819.0,-8461.0,16440.0,0.0
4837.0,-8281.0,16547.0,0.0
4850.0,-8094.0,16637.0,0.0
4837.0,-7864.0,16640.0,0.0
4823.0,-7636.0,16638.0,0.0
5837.0,-8993.0,20193.0,0.0
5834.0,-8741.0,20238.0,0.0
4858.0,-7073.0,16897.0,0.0
5838.0,-8255.0,20360.0,0.0
5833.0,-8004.0,20400.0,0.0
8511.0,-11322.0,29842.0,1.0
5875.0,-7570.0,20655.0,0.0
5885.0,-7339.0,20745.0,0.0
5910.0,-7125.0,20888.0,0.0
8591.0,-10004.0,30443.0,1.0
8683.0,-9753.0,30852.0,1.0
8727.0,-9442.0,31088.0,1.0
8766.0,-9124.0,31306.0,1.0
8774.0,-8772.0,31415.0,1.0
8807.0,-8443.0,31613.0,1.0
8849.0,-8122.0,31845.0,1.0
8873.0,-7780.0,32013.0,1.0
8927.0,-7463.0,32293.0,1.0
8932.0,-7102.0,32392.0,1.0
8930.0,-6735.0,32466.0,1.0
8894.0,-6344.0,32419.0,1.0
8947.0,-6015.0,32692.0,1.0
9012.0,-5689.0,33013.0,1.0
9014.0,-5320.0,33102.0,1.0
8978.0,-4930.0,33054.0,1.0
8977.0,-4560.0,33132.0,1.0
9051.0,-4224.0,33490.0,1.0
0.0,0.0,0.0,0.0
0.0,0.0,0.0,0.0
0.0,0.0,0.0,0.0
2.0,0.0,8.0,0.0
0.0,0.0,0.0,0.0
5.0,-1.0,21.0,0.0
2.0,-1.0,10.0,0.0
9.0,-1.0,35.0,0.0
3.0,-1.0,14.0,0.0
7.0,0.0,27.0,0.0
9.0,0.0,37.0,0.0
6.0,0.0,25.0,0.0
9.0,0.0,36.0,0.0
8.0,0.0,32.0,0.0
8.0,1.0,30.0,0.0
12.0,2.0,48.0,0.0
9.0,2.0,37.0,0.0
12.0,3.0,48.0,0.0
12.0,4.0,49.0,0.0
16.0,6.0,63.0,0.0
14.0,5.0,54.0,0.0
18.0,8.0,71.0,0.0
16.0,8.0,66.0,0.0
15.0,8.0,59.0,0.0
19.0,11.0,76.0,0.0
19.0,12.0,76.0,0.0
17.0,12.0,71.0,0.0
18.0,13.0,74.0,0.0
21.0,17.0,83.0,0.0
19.0,16.0,77.0,0.0
24.0,22.0,97.0,0.0
22.0,21.0,89.0,0.0
25.0,24.0,100.0,0.0
25.0,26.0,101.0,0.0
23.0,25.0,95.0,0.0
23.0,27.0,94.0,0.0
25.0,31.0,104.0,0.0
24.0,30.0,98.0,0.0
27.0,37.0,114.0,0.0
24.0,33.0,99.0,0.0
22.0,32.0,94.0,0.0
26.0,38.0,107.0,0.0
23.0,36.0,95.0,0.0
23.0,37.0,96.0,0.0
23.0,38.0,96.0,0.0
21.0,36.0,89.0,0.0
24.0,43.0,103.0,0.0
21.0,40.0,91.0,0.0
20.0,39.0,86.0,0.0
20.0,40.0,86.0,0.0
21.0,43.0,91.0,0.0
20.0,42.0,86.0,0.0
18.0,39.0,79.0,0.0
20.0,46.0,89.0,0.0
18.0,42.0,80.0,0.0
20.0,48.0,88.0,0.0
18.0,45.0,80.0,0.0
19.0,49.0,86.0,0.0
20.0,51.0,87.0,0.0
20.0,53.0,87.0,0.0
20.0,56.0,91.0,0.0
20.0,57.0,90.0,0.0
21.0,61.0,93.0,0.0
20.0,59.0,89.0,0.0
19.0,59.0,87.0,0.0
19.0,62.0,88.0,0.0
20.0,65.0,92.0,0.0
20.0,66.0,91.0,0.0
20.0,69.0,93.0,0.0
21.0,73.0,96.0,0.0
21.0,76.0,98.0,0.0
21.0,80.0,99.0,0.0
22.0,84.0,103.0,0.0
21.0,82.0,98.0,0.0
21.0,85.0,99.0,0.0
21.0,86.0,99.0,0.0
20.0,85.0,96.0,0.0
20.0,86.0,95.0,0.0
21.0,97.0,104.0,0.0
22.0,105.0,110.0,0.0
21.0,99.0,102.0,0.0
20.0,100.0,101.0,0.0
21.0,104.0,103.0,0.0
21.0,109.0,106.0,0.0
21.0,111.0,104.0,0.0
21.0,117.0,108.0,0.0
35.0,-274.0,80.0,0.0
36.0,-280.0,84.0,0.0
37.0,-279.0,87.0,0.0
38.0,-278.0,90.0,0.0
38.0,-273.0,92.0,0.0
39.0,-278.0,97.0,0.0
40.0,-278.0,100.0,0.0
41.0,-274.0,102.0,0.0
42.0,-282.0,109.0,0.0
42.0,-272.0,108.0,0.0
43.0,-278.0,114.0,0.0
44.0,-275.0,117.0,0.0
44.0,-273.0,119.0,0.0
46.0,-277.0,125.0,0.0
46.0,-271.0,125.0,0.0
46.0,-267.0,127.0,0.0
48.0,-273.0,134.0,0.0
48.0,-269.0,135.0,0.0
48.0,-264.0,136.0,0.0
48.0,-259.0,138.0,0.0
50.0,-264.0,143.0,0.0
55.0,-282.0,157.0,0.0
54.0,-274.0,157.0,0.0
49.0,-247.0,144.0,0.0
51.0,-251.0,151.0,0.0
50.0,-235.0,145.0,0.0
47.0,-218.0,137.0,0.0
45.0,-207.0,134.0,0.0
44.0,-200.0,133.0,0.0
42.0,-186.0,127.0,0.0
39.0,-171.0,119.0,0.0
41.0,-177.0,126.0,0.0
39.0,-164.0,119.0,0.0
36.0,-152.0,113.0,0.0
36.0,-149.0,113.0,0.0
33.0,-131.0,102.0,0.0
31.0,-120.0,96.0,0.0
30.0,-113.0,92.0,0.0
30.0,-112.0,93.0,0.0
31.0,-115.0,98.0,0.0
30.0,-110.0,96.0,0.0
26.0,-93.0,83.0,0.0
24.0,-85.0,78.0,0.0
23.0,-79.0,74.0,0.0
24.0,-83.0,79.0,0.0
24.0,-79.0,78.0,0.0
24.0,-80.0,79.0,0.0
7000.0,-22509.0,22941.0,0.0
6993.0,-22076.0,23005.0,0.0
6993.0,-21670.0,23089.0,0.0
6989.0,-21256.0,23157.0,0.0
6984.0,-20845.0,23223.0,0.0
6979.0,-20444.0,23291.0,0.0
6542.0,-18801.0,21907.0,0.0
6542.0,-18443.0,21981.0,0.0
6538.0,-18080.0,22041.0,0.0
6721.0,-18229.0,22734.0,0.0
6909.0,-18374.0,23445.0,0.0
7108.0,-18535.0,24201.0,0.0
9929.0,-25375.0,33909.0,1.0
9803.0,-24556.0,33590.0,1.0
9654.0,-23694.0,33182.0,1.0
9525.0,-22899.0,32838.0,1.0
9375.0,-22073.0,32420.0,1.0
9249.0,-21321.0,32080.0,1.0
9104.0,-20543.0,31672.0,1.0
8995.0,-19862.0,31384.0,1.0
8877.0,-19175.0,31064.0,1.0
8732.0,-18447.0,30646.0,1.0
8655.0,-17875.0,30462.0,1.0
8528.0,-17213.0,30103.0,1.0
8442.0,-16645.0,29882.0,1.0
4713.0,-9076.0,16733.0,0.0
8232.0,-15473.0,29303.0,1.0
5677.0,-10412.0,20266.0,0.0
5655.0,-10112.0,20239.0,0.0
4727.0,-8240.0,16966.0,0.0
4749.0,-8064.0,17089.0,0.0
5581.0,-9229.0,20142.0,0.0
5587.0,-8989.0,20213.0,0.0
5578.0,-8729.0,20239.0,0.0
4691.0,-7133.0,17064.0,0.0
4771.0,-7046.0,17402.0,0.0
5593.0,-8014.0,20451.0,0.0
8193.0,-11383.0,30039.0,1.0
5698.0,-7669.0,20949.0,0.0
5642.0,-7349.0,20795.0,0.0
5654.0,-7120.0,20891.0,0.0
5800.0,-7055.0,21489.0,0.0
8339.0,-9783.0,30972.0,1.0
8389.0,-9482.0,31242.0,1.0
8424.0,-9161.0,31451.0,1.0
8464.0,-8841.0,31680.0,1.0
8481.0,-8496.0,31823.0,1.0
8515.0,-8167.0,32033.0,1.0
8542.0,-7827.0,32216.0,1.0
8586.0,-7502.0,32465.0,1.0
8596.0,-7145.0,32586.0,1.0
8611.0,-6790.0,32723.0,1.0
8524.0,-6358.0,32475.0,1.0
8567.0,-6023.0,32718.0,1.0
8657.0,-5717.0,33150.0,1.0
8680.0,-5361.0,33320.0,1.0
8631.0,-4962.0,33218.0,1.0
8571.0,-4559.0,33069.0,1.0
8624.0,-4217.0,33355.0,1.0
8703.0,-3881.0,33749.0,1.0
2.0,0.0,8.0,0.0
3.0,-1.0,11.0,0.0
3.0,-1.0,13.0,0.0
2.0,0.0,7.0,0.0
1.0,0.0,6.0,0.0
2.0,-1.0,9.0,0.0
2.0,0.0,8.0,0.0
6.0,-1.0,23.0,0.0
5.0,0.0,19.0,0.0
7.0,0.0,27.0,0.0
8.0,0.0,33.0,0.0
15.0,0.0,57.0,0.0
9.0,1.0,36.0,0.0
7.0,0.0,28.0,0.0
9.0,1.0,35.0,0.0
11.0,2.0,43.0,0.0
14.0,3.0,56.0,0.0
15.0,5.0,60.0,0.0
14.0,5.0,57.0,0.0
18.0,7.0,71.0,0.0
19.0,8.0,76.0,0.0
17.0,9.0,68.0,0.0
16.0,9.0,64.0,0.0
18.0,11.0,73.0,0.0
19.0,12.0,77.0,0.0
19.0,12.0,76.0,0.0
20.0,15.0,83.0,0.0
21.0,17.0,88.0,0.0
22.0,20.0,93.0,0.0
24.0,21.0,100.0,0.0
23.0,22.0,96.0,0.0
25.0,26.0,106.0,0.0
23.0,25.0,97.0,0.0
24.0,28.0,104.0,0.0
23.0,28.0,100.0,0.0
24.0,30.0,101.0,0.0
25.0,32.0,107.0,0.0
24.0,33.0,105.0,0.0
25.0,36.0,109.0,0.0
23.0,34.0,101.0,0.0
26.0,39.0,111.0,0.0
24.0,39.0,105.0,0.0
25.0,41.0,109.0,0.0
22.0,39.0,98.0,0.0
22.0,39.0,98.0,0.0
22.0,41.0,99.0,0.0
21.0,40.0,94.0,0.0
23.0,46.0,104.0,0.0
19.0,40.0,88.0,0.0
21.0,44.0,94.0,0.0
20.0,45.0,93.0,0.0
19.0,44.0,88.0,0.0
19.0,45.0,87.0,0.0
17.0,40.0,76.0,0.0
19.0,48.0,90.0,0.0
18.0,46.0,83.0,0.0
20.0,53.0,92.0,0.0
19.0,53.0,91.0,0.0
18.0,51.0,85.0,0.0
20.0,57.0,93.0,0.0
19.0,58.0,92.0,0.0
18.0,57.0,88.0,0.0
20.0,63.0,94.0,0.0
19.0,62.0,92.0,0.0
20.0,68.0,98.0,0.0
20.0,68.0,95.0,0.0
19.0,67.0,92.0,0.0
19.0,71.0,95.0,0.0
20.0,74.0,97.0,0.0
19.0,75.0,95.0,0.0
22.0,84.0,107.0,0.0
20.0,82.0,100.0,0.0
22.0,89.0,108.0,0.0
21.0,89.0,105.0,0.0
20.0,87.0,99.0,0.0
21.0,94.0,106.0,0.0
21.0,97.0,107.0,0.0
22.0,105.0,112.0,0.0
22.0,105.0,111.0,0.0
21.0,106.0,109.0,0.0
22.0,112.0,113.0,0.0
22.0,116.0,115.0,0.0
22.0,119.0,114.0,0.0
20.0,115.0,108.0,0.0
20.0,117.0,108.0,0.0
29.0,-276.0,81.0,0.0
30.0,-275.0,84.0,0.0
30.0,-273.0,86.0,0.0
32.0,-277.0,92.0,0.0
33.0,-277.0,95.0,0.0
33.0,-273.0,96.0,0.0
33.0,-271.0,99.0,0.0
34.0,-270.0,102.0,0.0
36.0,-274.0,107.0,0.0
37.0,-276.0,110.0,0.0
37.0,-271.0,113.0,0.0
39.0,-278.0,119.0,0.0
39.0,-273.0,120.0,0.0
40.0,-270.0,123.0,0.0
40.0,-267.0,124.0,0.0
41.0,-270.0,129.0,0.0
42.0,-267.0,131.0,0.0
42.0,-264.0,133.0,0.0
43.0,-268.0,139.0,0.0
43.0,-266.0,142.0,0.0
48.0,-283.0,156.0,0.0
48.0,-279.0,157.0,0.0
45.0,-259.0,149.0,0.0
43.0,-241.0,143.0,0.0
43.0,-235.0,142.0,0.0
41.0,-219.0,136.0,0.0
39.0,-205.0,130.0,0.0
39.0,-203.0,132.0,0.0
36.0,-180.0,120.0,0.0
35.0,-174.0,119.0,0.0
34.0,-168.0,117.0,0.0
32.0,-156.0,112.0,0.0
33.0,-156.0,114.0,0.0
30.0,-137.0,103.0,0.0
28.0,-128.0,98.0,0.0
32.0,-140.0,109.0,0.0
28.0,-125.0,101.0,0.0
26.0,-110.0,90.0,0.0
23.0,-96.0,81.0,0.0
25.0,-103.0,88.0,0.0
23.0,-96.0,84.0,0.0
22.0,-88.0,79.0,0.0
23.0,-92.0,84.0,0.0
22.0,-84.0,79.0,0.0
6300.0,-23712.0,22742.0,0.0
6291.0,-23241.0,22788.0,0.0
6291.0,-22807.0,22863.0,0.0
6290.0,-22376.0,22931.0,0.0
6288.0,-21950.0,22997.0,0.0
6291.0,-21545.0,23079.0,0.0
6291.0,-21137.0,23150.0,0.0
6292.0,-20741.0,23226.0,0.0
6290.0,-20336.0,23287.0,0.0
5902.0,-18715.0,21916.0,0.0
5910.0,-18377.0,22009.0,0.0
5939.0,-18110.0,22184.0,0.0
6118.0,-18289.0,22917.0,0.0
6289.0,-18429.0,23626.0,0.0
6470.0,-18581.0,24373.0,0.0
8846.0,-24896.0,33420.0,1.0
8719.0,-24041.0,33032.0,1.0
8600.0,-23228.0,32672.0,1.0
8493.0,-22464.0,32354.0,1.0
8368.0,-21671.0,31965.0,1.0
8267.0,-20955.0,31661.0,1.0
8196.0,-20332.0,31475.0,1.0
8085.0,-19624.0,31135.0,1.0
7987.0,-18960.0,30836.0,1.0
7876.0,-18280.0,30488.0,1.0
7770.0,-17627.0,30155.0,1.0
7650.0,-16958.0,29767.0,1.0
7559.0,-16368.0,29492.0,1.0
7407.0,-15660.0,28972.0,1.0
7369.0,-15205.0,28897.0,1.0
4372.0,-8802.0,17191.0,0.0
4385.0,-8609.0,17287.0,0.0
4381.0,-8380.0,17309.0,0.0
4380.0,-8163.0,17352.0,0.0
4379.0,-7945.0,17393.0,0.0
4376.0,-7724.0,17421.0,0.0
4392.0,-7541.0,17533.0,0.0
4371.0,-7290.0,17488.0,0.0
5276.0,-8547.0,21166.0,0.0
4372.0,-6873.0,17582.0,0.0
5276.0,-8041.0,21270.0,0.0
7519.0,-11101.0,30388.0,1.0
7546.0,-10784.0,30579.0,1.0
7559.0,-10443.0,30702.0,1.0
7616.0,-10163.0,31013.0,1.0
7667.0,-9870.0,31301.0,1.0
7716.0,-9570.0,31578.0,1.0
7753.0,-9252.0,31807.0,1.0
7794.0,-8936.0,32055.0,1.0
7817.0,-8597.0,32229.0,1.0
7836.0,-8252.0,32389.0,1.0
7868.0,-7918.0,32601.0,1.0
7888.0,-7571.0,32767.0,1.0
7909.0,-7223.0,32938.0,1.0
7881.0,-6831.0,32903.0,1.0
7760.0,-6364.0,32482.0,1.0
7828.0,-6055.0,32849.0,1.0
7925.0,-5760.0,33340.0,1.0
7940.0,-5399.0,33489.0,1.0
7899.0,-5003.0,33400.0,1.0
7841.0,-4599.0,33241.0,1.0
7769.0,-4191.0,33018.0,1.0
7842.0,-3863.0,33418.0,1.0
7893.0,-3516.0,33725.0,1.0
0.0,0.0,2.0,0.0
1.0,-1.0,4.0,0.0
1.0,0.0,6.0,0.0
0.0,0.0,0.0,0.0
0.0,0.0,0.0,0.0
7.0,-1.0,30.0,0.0
6.0,-1.0,29.0,0.0
7.0,-1.0,28.0,0.0
6.0,0.0,23.0,0.0
7.0,0.0,28.0,0.0
9.0,0.0,42.0,0.0
7.0,0.0,34.0,0.0
6.0,0.0,25.0,0.0
9.0,1.0,42.0,0.0
11.0,2.0,49.0,0.0
11.0,3.0,49.0,0.0
13.0,4.0,61.0,0.0
11.0,4.0,47.0,0.0
12.0,5.0,50.0,0.0
12.0,6.0,58.0,0.0
14.0,8.0,64.0,0.0
13.0,8.0,60.0,0.0
17.0,11.0,77.0,0.0
17.0,12.0,76.0,0.0
14.0,11.0,66.0,0.0
16.0,12.0,71.0,0.0
18.0,16.0,82.0,0.0
19.0,17.0,85.0,0.0
19.0,19.0,84.0,0.0
21.0,22.0,99.0,0.0
23.0,26.0,106.0,0.0
20.0,24.0,94.0,0.0
21.0,26.0,100.0,0.0
22.0,28.0,102.0,0.0
23.0,31.0,108.0,0.0
24.0,34.0,113.0,0.0
21.0,32.0,101.0,0.0
23.0,35.0,108.0,0.0
22.0,36.0,104.0,0.0
21.0,35.0,101.0,0.0
20.0,35.0,96.0,0.0
22.0,40.0,106.0,0.0
20.0,38.0,98.0,0.0
20.0,39.0,98.0,0.0
20.0,40.0,97.0,0.0
20.0,42.0,98.0,0.0
17.0,36.0,82.0,0.0
17.0,39.0,86.0,0.0
17.0,39.0,83.0,0.0
16.0,37.0,77.0,0.0
16.0,42.0,85.0,0.0
16.0,42.0,84.0,0.0
16.0,44.0,84.0,0.0
17.0,48.0,88.0,0.0
17.0,48.0,87.0,0.0
16.0,49.0,86.0,0.0
17.0,53.0,91.0,0.0
17.0,53.0,88.0,0.0
19.0,60.0,98.0,0.0
16.0,54.0,87.0,0.0
17.0,58.0,91.0,0.0
17.0,61.0,92.0,0.0
16.0,58.0,86.0,0.0
17.0,62.0,90.0,0.0
15.0,60.0,85.0,0.0
16.0,64.0,88.0,0.0
17.0,71.0,95.0,0.0
18.0,77.0,100.0,0.0
17.0,74.0,95.0,0.0
18.0,77.0,98.0,0.0
19.0,84.0,103.0,0.0
18.0,84.0,102.0,0.0
18.0,89.0,105.0,0.0
17.0,88.0,102.0,0.0
17.0,92.0,104.0,0.0
17.0,90.0,99.0,0.0
18.0,100.0,109.0,0.0
18.0,101.0,107.0,0.0
18.0,108.0,112.0,0.0
16.0,101.0,102.0,0.0
18.0,111.0,110.0,0.0
18.0,114.0,111.0,0.0
17.0,115.0,109.0,0.0
18.0,121.0,112.0,0.0
24.0,-277.0,82.0,0.0
25.0,-273.0,85.0,0.0
26.0,-275.0,88.0,0.0
25.0,-268.0,89.0,0.0
27.0,-268.0,93.0,0.0
29.0,-277.0,99.0,0.0
29.0,-273.0,101.0,0.0
30.0,-274.0,104.0,0.0
30.0,-267.0,105.0,0.0
32.0,-280.0,113.0,0.0
32.0,-276.0,115.0,0.0
32.0,-271.0,117.0,0.0
32.0,-266.0,118.0,0.0
33.0,-264.0,121.0,0.0
34.0,-269.0,126.0,0.0
34.0,-263.0,128.0,0.0
37.0,-270.0,134.0,0.0
37.0,-265.0,135.0,0.0
37.0,-261.0,137.0,0.0
40.0,-277.0,150.0,0.0
41.0,-278.0,153.0,0.0
40.0,-267.0,151.0,0.0
40.0,-258.0,150.0,0.0
37.0,-234.0,140.0,0.0
35.0,-216.0,132.0,0.0
32.0,-202.0,126.0,0.0
33.0,-202.0,130.0,0.0
33.0,-198.0,130.0,0.0
32.0,-185.0,125.0,0.0
31.0,-177.0,122.0,0.0
32.0,-179.0,126.0,0.0
29.0,-160.0,116.0,0.0
31.0,-165.0,122.0,0.0
27.0,-137.0,104.0,0.0
27.0,-139.0,107.0,0.0
27.0,-136.0,107.0,0.0
25.0,-123.0,99.0,0.0
22.0,-102.0,84.0,0.0
21.0,-101.0,86.0,0.0
20.0,-93.0,81.0,0.0
21.0,-94.0,83.0,0.0
20.0,-88.0,79.0,0.0
20.0,-87.0,81.0,0.0
15.0,-68.0,64.0,0.0
19.0,-79.0,76.0,0.0
5588.0,-23126.0,22795.0,0.0
5595.0,-22710.0,22883.0,0.0
5599.0,-22284.0,22954.0,0.0
5603.0,-21871.0,23030.0,0.0
5607.0,-21461.0,23103.0,0.0
5609.0,-21053.0,23170.0,0.0
5607.0,-20633.0,23218.0,0.0
5615.0,-20260.0,23310.0,0.0
5264.0,-18617.0,21903.0,0.0
5273.0,-18282.0,21997.0,0.0
5341.0,-18147.0,22331.0,0.0
5500.0,-18312.0,23049.0,0.0
5652.0,-18439.0,23744.0,0.0
5830.0,-18632.0,24547.0,0.0
7841.0,-24546.0,33091.0,1.0
7736.0,-23719.0,32727.0,1.0
7626.0,-22894.0,32335.0,1.0
7551.0,-22194.0,32095.0,1.0
7445.0,-21417.0,31717.0,1.0
7374.0,-20758.0,31487.0,1.0
7299.0,-20102.0,31239.0,1.0
7226.0,-19465.0,30998.0,1.0
7149.0,-18831.0,30740.0,1.0
7031.0,-18102.0,30299.0,1.0
6917.0,-17403.0,29878.0,1.0
6837.0,-16804.0,29599.0,1.0
6728.0,-16148.0,29193.0,1.0
4231.0,-9915.0,18405.0,0.0
6570.0,-15021.0,28640.0,1.0
4875.0,-10871.0,21299.0,0.0
4229.0,-9196.0,18522.0,0.0
4257.0,-9021.0,18689.0,0.0
6689.0,-13805.0,29431.0,1.0
6663.0,-13386.0,29382.0,1.0
4258.0,-8322.0,18820.0,0.0
4236.0,-8051.0,18767.0,0.0
6566.0,-12127.0,29161.0,1.0
6585.0,-11809.0,29310.0,1.0
4245.0,-7387.0,18942.0,0.0
6702.0,-11307.0,29974.0,1.0
6732.0,-11000.0,30175.0,1.0
6755.0,-10684.0,30353.0,1.0
5018.0,-7674.0,22603.0,0.0
6869.0,-10147.0,31014.0,1.0
6936.0,-9883.0,31389.0,1.0
6972.0,-9573.0,31631.0,1.0
7024.0,-9280.0,31942.0,1.0
7058.0,-8960.0,32175.0,1.0
7092.0,-8637.0,32408.0,1.0
7131.0,-8318.0,32669.0,1.0
7154.0,-7977.0,32854.0,1.0
7151.0,-7606.0,32923.0,1.0
7139.0,-7226.0,32946.0,1.0
7085.0,-6808.0,32785.0,1.0
7029.0,-6393.0,32608.0,1.0
7035.0,-6038.0,32718.0,1.0
7056.0,-5693.0,32899.0,1.0
7083.0,-5349.0,33107.0,1.0
7097.0,-4994.0,33262.0,1.0
7058.0,-4603.0,33166.0,1.0
6998.0,-4202.0,32971.0,1.0
6985.0,-3832.0,32998.0,1.0
7051.0,-3502.0,33397.0,1.0
7121.0,-3167.0,33826.0,1.0
7217.0,-2831.0,34368.0,1.0
2.0,-1.0,9.0,0.0
0.0,0.0,0.0,0.0
4.0,-1.0,21.0,0.0
6.0,-1.0,28.0,0.0
3.0,-1.0,18.0,0.0
6.0,0.0,29.0,0.0
8.0,0.0,40.0,0.0
7.0,0.0,36.0,0.0
4.0,0.0,22.0,0.0
2.0,0.0,9.0,0.0
6.0,0.0,29.0,0.0
6.0,1.0,29.0,0.0
10.0,3.0,49.0,0.0
11.0,3.0,57.0,0.0
11.0,4.0,50.0,0.0
12.0,6.0,60.0,0.0
10.0,5.0,54.0,0.0
13.0,7.0,63.0,0.0
11.0,6.0,57.0,0.0
15.0,9.0,75.0,0.0
13.0,10.0,65.0,0.0
13.0,10.0,70.0,0.0
14.0,12.0,70.0,0.0
17.0,16.0,88.0,0.0
14.0,14.0,73.0,0.0
15.0,16.0,77.0,0.0
17.0,19.0,87.0,0.0
17.0,19.0,86.0,0.0
17.0,21.0,87.0,0.0
20.0,27.0,107.0,0.0
18.0,25.0,94.0,0.0
21.0,30.0,110.0,0.0
20.0,30.0,103.0,0.0
18.0,29.0,97.0,0.0
19.0,31.0,101.0,0.0
21.0,37.0,113.0,0.0
18.0,32.0,97.0,0.0
21.0,40.0,114.0,0.0
18.0,36.0,99.0,0.0
19.0,39.0,104.0,0.0
17.0,35.0,92.0,0.0
17.0,39.0,96.0,0.0
18.0,40.0,97.0,0.0
16.0,39.0,91.0,0.0
16.0,38.0,89.0,0.0
17.0,44.0,96.0,0.0
16.0,43.0,91.0,0.0
15.0,41.0,86.0,0.0
15.0,41.0,84.0,0.0
14.0,43.0,86.0,0.0
15.0,44.0,83.0,0.0
12.0,39.0,73.0,0.0
14.0,45.0,81.0,0.0
14.0,47.0,85.0,0.0
14.0,49.0,85.0,0.0
14.0,50.0,83.0,0.0
14.0,53.0,88.0,0.0
14.0,51.0,82.0,0.0
14.0,55.0,86.0,0.0
14.0,59.0,89.0,0.0
14.0,57.0,86.0,0.0
14.0,61.0,90.0,0.0
15.0,65.0,92.0,0.0
13.0,59.0,82.0,0.0
14.0,66.0,90.0,0.0
14.0,67.0,89.0,0.0
15.0,73.0,95.0,0.0
15.0,73.0,93.0,0.0
15.0,81.0,100.0,0.0
15.0,80.0,98.0,0.0
16.0,88.0,105.0,0.0
15.0,88.0,103.0,0.0
15.0,88.0,101.0,0.0
14.0,89.0,99.0,0.0
15.0,99.0,108.0,0.0
15.0,97.0,104.0,0.0
15.0,100.0,104.0,0.0
15.0,103.0,105.0,0.0
14.0,105.0,106.0,0.0
14.0,110.0,108.0,0.0
14.0,109.0,105.0,0.0
14.0,116.0,109.0,0.0
22.0,-284.0,85.0,0.0
23.0,-273.0,85.0,0.0
23.0,-275.0,89.0,0.0
25.0,-283.0,94.0,0.0
26.0,-285.0,99.0,0.0
25.0,-273.0,98.0,0.0
27.0,-281.0,104.0,0.0
28.0,-278.0,106.0,0.0
28.0,-272.0,108.0,0.0
28.0,-277.0,113.0,0.0
30.0,-281.0,119.0,0.0
30.0,-279.0,121.0,0.0
30.0,-272.0,122.0,0.0
32.0,-280.0,128.0,0.0
32.0,-274.0,129.0,0.0
33.0,-278.0,135.0,0.0
33.0,-268.0,134.0,0.0
34.0,-270.0,138.0,0.0
35.0,-266.0,140.0,0.0
38.0,-281.0,152.0,0.0
39.0,-287.0,159.0,0.0
39.0,-283.0,160.0,0.0
37.0,-261.0,152.0,0.0
35.0,-241.0,144.0,0.0
36.0,-238.0,146.0,0.0
33.0,-218.0,137.0,0.0
32.0,-204.0,131.0,0.0
33.0,-203.0,134.0,0.0
31.0,-193.0,129.0,0.0
30.0,-182.0,126.0,0.0
30.0,-177.0,125.0,0.0
27.0,-156.0,112.0,0.0
26.0,-149.0,110.0,0.0
25.0,-139.0,105.0,0.0
25.0,-139.0,108.0,0.0
23.0,-126.0,100.0,0.0
23.0,-121.0,98.0,0.0
23.0,-117.0,96.0,0.0
20.0,-103.0,87.0,0.0
22.0,-105.0,91.0,0.0
21.0,-100.0,89.0,0.0
22.0,-103.0,93.0,0.0
18.0,-86.0,79.0,0.0
17.0,-80.0,75.0,0.0
16.0,-74.0,71.0,0.0
17.0,-78.0,77.0,0.0
5253.0,-22676.0,22905.0,0.0
5258.0,-22258.0,22982.0,0.0
5258.0,-21816.0,23028.0,0.0
5267.0,-21422.0,23115.0,0.0
5269.0,-21005.0,23171.0,0.0
5275.0,-20612.0,23246.0,0.0
5284.0,-20236.0,23335.0,0.0
4949.0,-18572.0,21899.0,0.0
4967.0,-18266.0,22025.0,0.0
5038.0,-18156.0,22390.0,0.0
5190.0,-18320.0,23109.0,0.0
5341.0,-18472.0,23834.0,0.0
5509.0,-18660.0,24633.0,0.0
7342.0,-24353.0,32897.0,1.0
7256.0,-23568.0,32583.0,1.0
7176.0,-22813.0,32285.0,1.0
7073.0,-22011.0,31891.0,1.0
7007.0,-21337.0,31657.0,1.0
6930.0,-20647.0,31375.0,1.0
6861.0,-19996.0,31130.0,1.0
6802.0,-19388.0,30930.0,1.0
6724.0,-18735.0,30636.0,1.0
6622.0,-18034.0,30237.0,1.0
6519.0,-17344.0,29826.0,1.0
6400.0,-16632.0,29345.0,1.0
6310.0,-16014.0,28996.0,1.0
3916.0,-9701.0,18035.0,0.0
3924.0,-9484.0,18111.0,0.0
3923.0,-9247.0,18145.0,0.0
3928.0,-9025.0,18205.0,0.0
3927.0,-8792.0,18240.0,0.0
3926.0,-8561.0,18277.0,0.0
3914.0,-8308.0,18262.0,0.0
3930.0,-8114.0,18372.0,0.0
6202.0,-12453.0,29066.0,1.0
6155.0,-12008.0,28908.0,1.0
6226.0,-11792.0,29304.0,1.0
6274.0,-11531.0,29601.0,1.0
6311.0,-11246.0,29843.0,1.0
3919.0,-6764.0,18573.0,0.0
4079.0,-6813.0,19374.0,0.0
4348.0,-7023.0,20701.0,0.0
6480.0,-10108.0,30924.0,1.0
6545.0,-9850.0,31309.0,1.0
6589.0,-9557.0,31596.0,1.0
6622.0,-9243.0,31831.0,1.0
6660.0,-8932.0,32089.0,1.0
6707.0,-8630.0,32393.0,1.0
6734.0,-8298.0,32599.0,1.0
6742.0,-7942.0,32721.0,1.0
6732.0,-7565.0,32753.0,1.0
6705.0,-7173.0,32703.0,1.0
6674.0,-6778.0,32635.0,1.0
6631.0,-6376.0,32506.0,1.0
6593.0,-5982.0,32401.0,1.0
6616.0,-5644.0,32597.0,1.0
6650.0,-5313.0,32855.0,1.0
6677.0,-4973.0,33074.0,1.0
6642.0,-4584.0,32985.0,1.0
6589.0,-4190.0,32816.0,1.0
6581.0,-3825.0,32860.0,1.0
6660.0,-3507.0,33346.0,1.0
6744.0,-3180.0,33862.0,1.0
6823.0,-2842.0,34356.0,1.0
3.0,0.0,13.0,0.0
6958.0,-2129.0,35234.0,1.0
6.0,-1.0,30.0,0.0
4.0,-1.0,20.0,0.0
6.0,-1.0,30.0,0.0
2.0,0.0,15.0,0.0
5.0,0.0,25.0,0.0
8.0,0.0,40.0,0.0
6.0,0.0,34.0,0.0
9.0,0.0,42.0,0.0
7.0,1.0,35.0,0.0
10.0,2.0,50.0,0.0
9.0,3.0,49.0,0.0
13.0,4.0,68.0,0.0
10.0,4.0,53.0,0.0
10.0,4.0,54.0,0.0
11.0,6.0,60.0,0.0
14.0,8.0,77.0,0.0
12.0,8.0,65.0,0.0
12.0,9.0,65.0,0.0
13.0,9.0,67.0,0.0
13.0,10.0,70.0,0.0
17.0,15.0,92.0,0.0
16.0,15.0,85.0,0.0
17.0,17.0,89.0,0.0
16.0,17.0,86.0,0.0
16.0,18.0,84.0,0.0
18.0,22.0,100.0,0.0
18.0,23.0,97.0,0.0
18.0,25.0,101.0,0.0
18.0,26.0,98.0,0.0
20.0,31.0,112.0,0.0
21.0,33.0,116.0,0.0
18.0,31.0,105.0,0.0
19.0,33.0,107.0,0.0
20.0,38.0,118.0,0.0
20.0,39.0,115.0,0.0
19.0,38.0,109.0,0.0
19.0,40.0,111.0,0.0
18.0,39.0,105.0,0.0
18.0,41.0,105.0,0.0
17.0,39.0,98.0,0.0
18.0,44.0,107.0,0.0
17.0,44.0,103.0,0.0
15.0,40.0,92.0,0.0
17.0,47.0,104.0,0.0
16.0,47.0,101.0,0.0
16.0,46.0,98.0,0.0
17.0,48.0,99.0,0.0
15.0,46.0,90.0,0.0
14.0,46.0,90.0,0.0
15.0,49.0,91.0,0.0
15.0,51.0,93.0,0.0
16.0,55.0,97.0,0.0
14.0,52.0,91.0,0.0
15.0,55.0,95.0,0.0
13.0,51.0,86.0,0.0
15.0,62.0,100.0,0.0
14.0,58.0,91.0,0.0
13.0,58.0,89.0,0.0
14.0,61.0,92.0,0.0
14.0,66.0,96.0,0.0
14.0,68.0,98.0,0.0
14.0,67.0,93.0,0.0
13.0,70.0,95.0,0.0
14.0,74.0,98.0,0.0
15.0,77.0,102.0,0.0
13.0,75.0,96.0,0.0
14.0,85.0,107.0,0.0
15.0,85.0,104.0,0.0
14.0,89.0,105.0,0.0
14.0,92.0,108.0,0.0
14.0,90.0,103.0,0.0
14.0,94.0,106.0,0.0
14.0,101.0,110.0,0.0
15.0,105.0,112.0,0.0
14.0,105.0,110.0,0.0
14.0,108.0,111.0,0.0
14.0,116.0,117.0,0.0
14.0,117.0,116.0,0.0
13.0,119.0,114.0,0.0
14.0,124.0,117.0,0.0
17.0,-282.0,85.0,0.0
18.0,-280.0,88.0,0.0
19.0,-288.0,94.0,0.0
19.0,-285.0,96.0,0.0
20.0,-287.0,100.0,0.0
21.0,-285.0,103.0,0.0
21.0,-281.0,105.0,0.0
22.0,-283.0,109.0,0.0
23.0,-280.0,111.0,0.0
24.0,-286.0,117.0,0.0
24.0,-282.0,120.0,0.0
26.0,-288.0,126.0,0.0
26.0,-284.0,128.0,0.0
26.0,-271.0,125.0,0.0
27.0,-278.0,132.0,0.0
28.0,-282.0,138.0,0.0
28.0,-278.0,140.0,0.0
28.0,-274.0,142.0,0.0
29.0,-274.0,145.0,0.0
32.0,-288.0,157.0,0.0
32.0,-282.0,158.0,0.0
31.0,-267.0,152.0,0.0
31.0,-257.0,150.0,0.0
29.0,-236.0,142.0,0.0
29.0,-230.0,142.0,0.0
27.0,-213.0,135.0,0.0
27.0,-209.0,135.0,0.0
26.0,-196.0,130.0,0.0
26.0,-190.0,129.0,0.0
25.0,-179.0,124.0,0.0
26.0,-183.0,130.0,0.0
25.0,-167.0,121.0,0.0
23.0,-156.0,116.0,0.0
22.0,-147.0,112.0,0.0
22.0,-138.0,108.0,0.0
20.0,-125.0,99.0,0.0
19.0,-114.0,93.0,0.0
22.0,-129.0,107.0,0.0
20.0,-117.0,99.0,0.0
18.0,-104.0,90.0,0.0
16.0,-91.0,81.0,0.0
19.0,-106.0,97.0,0.0
17.0,-90.0,83.0,0.0
16.0,-86.0,82.0,0.0
15.0,-75.0,74.0,0.0
4554.0,-23002.0,22837.0,0.0
4564.0,-22582.0,22917.0,0.0
4574.0,-22167.0,22993.0,0.0
4588.0,-21777.0,23090.0,0.0
4592.0,-21346.0,23135.0,0.0
4600.0,-20942.0,23203.0,0.0
4610.0,-20558.0,23285.0,0.0
4314.0,-18840.0,21817.0,0.0
4321.0,-18479.0,21880.0,0.0
4352.0,-18224.0,22064.0,0.0
4429.0,-18162.0,22488.0,0.0
4569.0,-18339.0,23225.0,0.0
4701.0,-18474.0,23932.0,0.0
4849.0,-18653.0,24719.0,0.0
6425.0,-24190.0,32801.0,1.0
6333.0,-23334.0,32380.0,1.0
6278.0,-22633.0,32147.0,1.0
6195.0,-21851.0,31773.0,1.0
6117.0,-21099.0,31415.0,1.0
6049.0,-20409.0,31121.0,1.0
6010.0,-19826.0,30971.0,1.0
5951.0,-19187.0,30712.0,1.0
5894.0,-18572.0,30469.0,1.0
5814.0,-17895.0,30101.0,1.0
5733.0,-17238.0,29738.0,1.0
5640.0,-16559.0,29305.0,1.0
5559.0,-15929.0,28930.0,1.0
3666.0,-10250.0,19114.0,0.0
3664.0,-9994.0,19139.0,0.0
4039.0,-10742.0,21136.0,0.0
5457.0,-14144.0,28608.0,1.0
5475.0,-13824.0,28756.0,1.0
5485.0,-13486.0,28864.0,1.0
5487.0,-13130.0,28930.0,1.0
5482.0,-12760.0,28961.0,1.0
5462.0,-12357.0,28910.0,1.0
5429.0,-11932.0,28791.0,1.0
5475.0,-11684.0,29098.0,1.0
5523.0,-11433.0,29408.0,1.0
3686.0,-7398.0,19671.0,0.0
3689.0,-7172.0,19730.0,0.0
3790.0,-7130.0,20309.0,0.0
4122.0,-7497.0,22136.0,0.0
5758.0,-10117.0,30995.0,1.0
5801.0,-9833.0,31295.0,1.0
5832.0,-9526.0,31534.0,1.0
5863.0,-9216.0,31773.0,1.0
5872.0,-8871.0,31898.0,1.0
5875.0,-8514.0,31984.0,1.0
5877.0,-8159.0,32072.0,1.0
5869.0,-7791.0,32107.0,1.0
5877.0,-7444.0,32227.0,1.0
5881.0,-7093.0,32330.0,1.0
5859.0,-6710.0,32293.0,1.0
5815.0,-6307.0,32131.0,1.0
5767.0,-5905.0,31954.0,1.0
5810.0,-5596.0,32272.0,1.0
5849.0,-5278.0,32577.0,1.0
5873.0,-4942.0,32800.0,1.0
5879.0,-4589.0,32919.0,1.0
5851.0,-4210.0,32855.0,1.0
5818.0,-3829.0,32760.0,1.0
5882.0,-3511.0,33215.0,1.0
5953.0,-3187.0,33714.0,1.0
6029.0,-2857.0,34252.0,1.0
4.0,-2.0,25.0,0.0
5.0,-2.0,28.0,0.0
4.0,-1.0,23.0,0.0
7.0,-1.0,39.0,0.0
3.0,-1.0,18.0,0.0
3.0,0.0,17.0,0.0
6.0,0.0,36.0,0.0
5.0,0.0,34.0,0.0
5.0,0.0,28.0,0.0
9.0,1.0,50.0,0.0
9.0,1.0,51.0,0.0
9.0,2.0,50.0,0.0
11.0,3.0,64.0,0.0
9.0,3.0,56.0,0.0
10.0,4.0,61.0,0.0
11.0,5.0,63.0,0.0
13.0,7.0,75.0,0.0
11.0,7.0,68.0,0.0
13.0,9.0,77.0,0.0
14.0,11.0,84.0,0.0
15.0,13.0,93.0,0.0
14.0,14.0,91.0,0.0
15.0,15.0,88.0,0.0
14.0,15.0,84.0,0.0
16.0,19.0,99.0,0.0
15.0,19.0,93.0,0.0
14.0,19.0,92.0,0.0
17.0,24.0,107.0,0.0
16.0,24.0,104.0,0.0
17.0,26.0,106.0,0.0
17.0,28.0,109.0,0.0
18.0,31.0,115.0,0.0
18.0,33.0,116.0,0.0
16.0,31.0,105.0,0.0
17.0,34.0,109.0,0.0
17.0,37.0,114.0,0.0
19.0,42.0,124.0,0.0
17.0,38.0,109.0,0.0
18.0,43.0,119.0,0.0
17.0,42.0,115.0,0.0
17.0,43.0,114.0,0.0
17.0,43.0,109.0,0.0
16.0,43.0,107.0,0.0
15.0,44.0,104.0,0.0
15.0,42.0,98.0,0.0
17.0,52.0,117.0,0.0
13.0,45.0,98.0,0.0
16.0,51.0,108.0,0.0
14.0,48.0,96.0,0.0
14.0,51.0,101.0,0.0
13.0,48.0,94.0,0.0
12.0,47.0,90.0,0.0
13.0,50.0,92.0,0.0
13.0,52.0,92.0,0.0
12.0,52.0,91.0,0.0
12.0,53.0,91.0,0.0
14.0,62.0,103.0,0.0
12.0,60.0,97.0,0.0
12.0,60.0,95.0,0.0
13.0,66.0,102.0,0.0
11.0,62.0,94.0,0.0
13.0,67.0,100.0,0.0
13.0,70.0,101.0,0.0
12.0,70.0,98.0,0.0
12.0,75.0,104.0,0.0
13.0,79.0,107.0,0.0
12.0,80.0,104.0,0.0
12.0,82.0,105.0,0.0
12.0,88.0,110.0,0.0
12.0,85.0,104.0,0.0
12.0,89.0,106.0,0.0
12.0,96.0,113.0,0.0
13.0,99.0,114.0,0.0
11.0,95.0,108.0,0.0
12.0,104.0,115.0,0.0
11.0,104.0,112.0,0.0
11.0,107.0,112.0,0.0
12.0,118.0,122.0,0.0
12.0,118.0,120.0,0.0
11.0,118.0,117.0,0.0
12.0,125.0,121.0,0.0
11.0,124.0,117.0,0.0
14.0,-282.0,86.0,0.0
15.0,-280.0,89.0,0.0
15.0,-277.0,91.0,0.0
16.0,-275.0,94.0,0.0
17.0,-277.0,98.0,0.0
17.0,-276.0,100.0,0.0
19.0,-278.0,104.0,0.0
19.0,-276.0,107.0,0.0
19.0,-276.0,110.0,0.0
20.0,-272.0,113.0,0.0
21.0,-279.0,118.0,0.0
21.0,-274.0,119.0,0.0
22.0,-278.0,126.0,0.0
23.0,-275.0,127.0,0.0
23.0,-273.0,131.0,0.0
25.0,-276.0,135.0,0.0
24.0,-263.0,133.0,0.0
26.0,-270.0,140.0,0.0
26.0,-274.0,146.0,0.0
28.0,-280.0,153.0,0.0
29.0,-282.0,158.0,0.0
29.0,-273.0,156.0,0.0
28.0,-256.0,150.0,0.0
26.0,-234.0,141.0,0.0
24.0,-219.0,135.0,0.0
24.0,-204.0,130.0,0.0
24.0,-200.0,130.0,0.0
23.0,-194.0,129.0,0.0
23.0,-186.0,127.0,0.0
22.0,-169.0,118.0,0.0
22.0,-170.0,121.0,0.0
20.0,-150.0,109.0,0.0
21.0,-153.0,113.0,0.0
21.0,-150.0,114.0,0.0
21.0,-143.0,111.0,0.0
21.0,-141.0,113.0,0.0
17.0,-111.0,91.0,0.0
18.0,-118.0,98.0,0.0
16.0,-101.0,86.0,0.0
17.0,-107.0,94.0,0.0
16.0,-94.0,83.0,0.0
13.0,-74.0,67.0,0.0
15.0,-83.0,78.0,0.0
14.0,-78.0,75.0,0.0
14.0,-78.0,77.0,0.0
13.0,-68.0,69.0,0.0
4225.0,-22550.0,22933.0,0.0
4235.0,-22121.0,22995.0,0.0
4243.0,-21695.0,23051.0,0.0
4252.0,-21288.0,23120.0,0.0
4262.0,-20890.0,23192.0,0.0
4269.0,-20482.0,23245.0,0.0
4217.0,-19806.0,22982.0,0.0
4017.0,-18467.0,21909.0,0.0
4040.0,-18180.0,22054.0,0.0
4131.0,-18188.0,22563.0,0.0
4261.0,-18364.0,23300.0,0.0
4386.0,-18496.0,24004.0,0.0
4520.0,-18655.0,24768.0,0.0
5955.0,-24048.0,32667.0,1.0
5896.0,-23292.0,32378.0,1.0
5822.0,-22496.0,32008.0,1.0
5764.0,-21781.0,31725.0,1.0
5689.0,-21020.0,31349.0,1.0
5636.0,-20360.0,31098.0,1.0
5594.0,-19752.0,30906.0,1.0
5540.0,-19115.0,30647.0,1.0
5471.0,-18445.0,30310.0,1.0
5407.0,-17803.0,29992.0,1.0
5329.0,-17135.0,29603.0,1.0
5243.0,-16457.0,29168.0,1.0
5169.0,-15834.0,28800.0,1.0
3497.0,-10449.0,19511.0,0.0
3495.0,-10187.0,19535.0,0.0
3496.0,-9933.0,19571.0,0.0
5150.0,-14260.0,28880.0,1.0
5162.0,-13922.0,28997.0,1.0
5169.0,-13571.0,29081.0,1.0
5164.0,-13193.0,29104.0,1.0
5166.0,-12837.0,29171.0,1.0
5124.0,-12374.0,28981.0,1.0
5098.0,-11961.0,28893.0,1.0
5127.0,-11678.0,29111.0,1.0
5187.0,-11460.0,29508.0,1.0
3520.0,-7539.0,20065.0,0.0
3528.0,-7320.0,20155.0,0.0
3736.0,-7502.0,21387.0,0.0
3965.0,-7695.0,22739.0,0.0
5410.0,-10142.0,31093.0,1.0
5447.0,-9852.0,31378.0,1.0
5481.0,-9553.0,31639.0,1.0
5508.0,-9238.0,31864.0,1.0
5535.0,-8923.0,32097.0,1.0
5536.0,-8563.0,32176.0,1.0
5540.0,-8208.0,32275.0,1.0
5532.0,-7838.0,32305.0,1.0
5532.0,-7480.0,32384.0,1.0
5510.0,-7094.0,32337.0,1.0
5484.0,-6706.0,32266.0,1.0
5444.0,-6306.0,32114.0,1.0
5430.0,-5939.0,32118.0,1.0
5462.0,-5620.0,32392.0,1.0
5492.0,-5295.0,32656.0,1.0
5523.0,-4967.0,32930.0,1.0
5540.0,-4623.0,33124.0,1.0
5509.0,-4239.0,33027.0,1.0
5468.0,-3851.0,32882.0,1.0
5521.0,-3528.0,33297.0,1.0
4.0,-2.0,24.0,0.0
5636.0,-2862.0,34196.0,1.0
1.0,0.0,6.0,0.0
2.0,0.0,8.0,0.0
5.0,-1.0,31.0,0.0
3.0,0.0,22.0,0.0
0.0,0.0,0.0,0.0
3.0,0.0,17.0,0.0
5.0,0.0,27.0,0.0
5.0,0.0,27.0,0.0
8.0,0.0,47.0,0.0
8.0,1.0,54.0,0.0
7.0,0.0,38.0,0.0
7.0,1.0,42.0,0.0
8.0,2.0,47.0,0.0
7.0,3.0,45.0,0.0
10.0,4.0,65.0,0.0
10.0,5.0,58.0,0.0
11.0,7.0,69.0,0.0
10.0,7.0,64.0,0.0
12.0,9.0,78.0,0.0
12.0,10.0,81.0,0.0
13.0,11.0,79.0,0.0
10.0,11.0,70.0,0.0
14.0,15.0,92.0,0.0
12.0,14.0,82.0,0.0
15.0,19.0,98.0,0.0
13.0,17.0,87.0,0.0
13.0,20.0,92.0,0.0
15.0,23.0,99.0,0.0
15.0,24.0,102.0,0.0
13.0,23.0,93.0,0.0
15.0,27.0,105.0,0.0
14.0,26.0,96.0,0.0
16.0,31.0,111.0,0.0
16.0,34.0,114.0,0.0
16.0,34.0,109.0,0.0
14.0,31.0,98.0,0.0
18.0,41.0,125.0,0.0
17.0,41.0,117.0,0.0
16.0,41.0,114.0,0.0
14.0,38.0,104.0,0.0
15.0,42.0,112.0,0.0
14.0,42.0,108.0,0.0
15.0,45.0,110.0,0.0
12.0,39.0,93.0,0.0
14.0,44.0,102.0,0.0
12.0,40.0,92.0,0.0
11.0,40.0,88.0,0.0
12.0,46.0,98.0,0.0
11.0,44.0,90.0,0.0
11.0,43.0,88.0,0.0
11.0,46.0,89.0,0.0
10.0,46.0,86.0,0.0
11.0,52.0,96.0,0.0
11.0,50.0,90.0,0.0
11.0,51.0,90.0,0.0
12.0,55.0,93.0,0.0
11.0,55.0,91.0,0.0
10.0,53.0,87.0,0.0
11.0,56.0,90.0,0.0
10.0,60.0,94.0,0.0
11.0,59.0,90.0,0.0
11.0,66.0,98.0,0.0
11.0,69.0,100.0,0.0
11.0,71.0,99.0,0.0
10.0,68.0,93.0,0.0
11.0,78.0,105.0,0.0
10.0,77.0,102.0,0.0
11.0,82.0,106.0,0.0
11.0,84.0,105.0,0.0
11.0,86.0,107.0,0.0
10.0,86.0,104.0,0.0
11.0,94.0,111.0,0.0
10.0,91.0,105.0,0.0
10.0,95.0,107.0,0.0
10.0,99.0,109.0,0.0
10.0,106.0,115.0,0.0
9.0,102.0,107.0,0.0
9.0,109.0,112.0,0.0
10.0,111.0,114.0,0.0
9.0,119.0,118.0,0.0
9.0,116.0,113.0,0.0
8.0,114.0,109.0,0.0
12.0,-281.0,86.0,0.0
13.0,-287.0,91.0,0.0
13.0,-285.0,94.0,0.0
14.0,-280.0,96.0,0.0
14.0,-280.0,99.0,0.0
15.0,-277.0,101.0,0.0
16.0,-289.0,109.0,0.0
16.0,-282.0,111.0,0.0
16.0,-277.0,112.0,0.0
17.0,-276.0,114.0,0.0
18.0,-285.0,121.0,0.0
19.0,-280.0,123.0,0.0
20.0,-277.0,125.0,0.0
21.0,-282.0,132.0,0.0
20.0,-274.0,131.0,0.0
22.0,-276.0,136.0,0.0
22.0,-271.0,137.0,0.0
23.0,-275.0,143.0,0.0
24.0,-279.0,149.0,0.0
26.0,-295.0,161.0,0.0
27.0,-294.0,166.0,0.0
25.0,-273.0,158.0,0.0
26.0,-261.0,154.0,0.0
25.0,-251.0,152.0,0.0
23.0,-232.0,144.0,0.0
22.0,-215.0,136.0,0.0
23.0,-214.0,140.0,0.0
23.0,-207.0,138.0,0.0
23.0,-200.0,137.0,0.0
23.0,-192.0,134.0,0.0
22.0,-182.0,130.0,0.0
20.0,-166.0,120.0,0.0
20.0,-160.0,120.0,0.0
19.0,-151.0,115.0,0.0
18.0,-130.0,102.0,0.0
20.0,-143.0,114.0,0.0
19.0,-133.0,109.0,0.0
17.0,-123.0,102.0,0.0
17.0,-118.0,101.0,0.0
16.0,-105.0,92.0,0.0
15.0,-99.0,89.0,0.0
15.0,-98.0,90.0,0.0
13.0,-85.0,80.0,0.0
13.0,-79.0,75.0,0.0
11.0,-69.0,68.0,0.0
13.0,-73.0,73.0,0.0
3886.0,-22510.0,22940.0,0.0
3901.0,-22107.0,23028.0,0.0
3912.0,-21692.0,23094.0,0.0
3919.0,-21260.0,23136.0,0.0
3936.0,-20886.0,23233.0,0.0
3942.0,-20468.0,23275.0,0.0
3956.0,-20095.0,23361.0,0.0
3708.0,-18423.0,21898.0,0.0
3742.0,-18193.0,22111.0,0.0
3823.0,-18183.0,22598.0,0.0
3937.0,-18313.0,23277.0,0.0
4067.0,-18506.0,24061.0,0.0
4181.0,-18613.0,24754.0,0.0
5515.0,-24005.0,32665.0,1.0
5466.0,-23266.0,32397.0,1.0
5404.0,-22490.0,32053.0,1.0
5352.0,-21774.0,31768.0,1.0
5293.0,-21052.0,31447.0,1.0
5235.0,-20349.0,31131.0,1.0
5200.0,-19753.0,30956.0,1.0
5138.0,-19067.0,30616.0,1.0
5060.0,-18339.0,30180.0,1.0
4993.0,-17673.0,29816.0,1.0
4934.0,-17046.0,29492.0,1.0
4870.0,-16424.0,29150.0,1.0
4788.0,-15754.0,28695.0,1.0
3165.0,-10157.0,18990.0,0.0
3159.0,-9884.0,18980.0,0.0
3177.0,-9688.0,19114.0,0.0
3172.0,-9425.0,19111.0,0.0
3180.0,-9202.0,19189.0,0.0
3178.0,-8950.0,19203.0,0.0
3180.0,-8718.0,19254.0,0.0
3184.0,-8483.0,19298.0,0.0
3184.0,-8248.0,19337.0,0.0
3183.0,-8008.0,19363.0,0.0
3187.0,-7783.0,19422.0,0.0
3185.0,-7545.0,19445.0,0.0
3181.0,-7304.0,19457.0,0.0
3179.0,-7070.0,19481.0,0.0
3233.0,-6956.0,19848.0,0.0
3503.0,-7288.0,21552.0,0.0
5063.0,-10173.0,31208.0,1.0
5097.0,-9880.0,31481.0,1.0
5117.0,-9558.0,31674.0,1.0
5143.0,-9246.0,31909.0,1.0
5172.0,-8935.0,32155.0,1.0
5194.0,-8612.0,32371.0,1.0
5202.0,-8261.0,32490.0,1.0
5194.0,-7889.0,32521.0,1.0
5183.0,-7513.0,32532.0,1.0
5166.0,-7132.0,32506.0,1.0
5143.0,-6743.0,32438.0,1.0
5102.0,-6337.0,32264.0,1.0
5084.0,-5962.0,32231.0,1.0
5113.0,-5645.0,32509.0,1.0
5139.0,-5317.0,32758.0,1.0
5159.0,-4981.0,32986.0,1.0
5181.0,-4642.0,33214.0,1.0
5167.0,-4271.0,33227.0,1.0
5115.0,-3871.0,32989.0,1.0
4.0,-2.0,22.0,0.0
5197.0,-3207.0,33721.0,1.0
5237.0,-2864.0,34091.0,1.0
1.0,-1.0,5.0,0.0
5.0,-2.0,30.0,0.0
2.0,-1.0,14.0,0.0
5.0,-2.0,32.0,0.0
2.0,0.0,18.0,0.0
5.0,-1.0,37.0,0.0
4.0,0.0,26.0,0.0
6.0,0.0,38.0,0.0
8.0,0.0,57.0,0.0
6.0,0.0,38.0,0.0
9.0,2.0,64.0,0.0
8.0,2.0,54.0,0.0
10.0,3.0,66.0,0.0
8.0,3.0,57.0,0.0
8.0,4.0,55.0,0.0
9.0,5.0,59.0,0.0
11.0,7.0,75.0,0.0
13.0,10.0,87.0,0.0
10.0,8.0,73.0,0.0
8.0,7.0,58.0,0.0
12.0,12.0,87.0,0.0
13.0,14.0,91.0,0.0
14.0,17.0,101.0,0.0
13.0,15.0,89.0,0.0
14.0,18.0,96.0,0.0
14.0,20.0,102.0,0.0
12.0,19.0,88.0,0.0
14.0,24.0,108.0,0.0
14.0,25.0,104.0,0.0
15.0,26.0,106.0,0.0
16.0,29.0,114.0,0.0
14.0,29.0,110.0,0.0
15.0,32.0,114.0,0.0
14.0,32.0,109.0,0.0
16.0,37.0,121.0,0.0
14.0,35.0,108.0,0.0
15.0,37.0,113.0,0.0
15.0,41.0,119.0,0.0
14.0,41.0,116.0,0.0
15.0,44.0,121.0,0.0
15.0,45.0,118.0,0.0
14.0,44.0,113.0,0.0
13.0,42.0,104.0,0.0
12.0,41.0,99.0,0.0
12.0,41.0,98.0,0.0
13.0,46.0,103.0,0.0
12.0,43.0,95.0,0.0
13.0,50.0,108.0,0.0
12.0,49.0,100.0,0.0
11.0,48.0,97.0,0.0
10.0,49.0,95.0,0.0
11.0,51.0,98.0,0.0
11.0,51.0,94.0,0.0
10.0,53.0,96.0,0.0
10.0,55.0,97.0,0.0
11.0,55.0,93.0,0.0
10.0,55.0,94.0,0.0
10.0,57.0,92.0,0.0
10.0,60.0,96.0,0.0
10.0,64.0,99.0,0.0
10.0,67.0,102.0,0.0
10.0,70.0,103.0,0.0
9.0,65.0,94.0,0.0
9.0,71.0,101.0,0.0
10.0,75.0,103.0,0.0
9.0,73.0,98.0,0.0
11.0,84.0,112.0,0.0
9.0,80.0,103.0,0.0
10.0,86.0,109.0,0.0
10.0,91.0,111.0,0.0
9.0,94.0,113.0,0.0
10.0,93.0,110.0,0.0
9.0,96.0,111.0,0.0
10.0,102.0,116.0,0.0
9.0,103.0,114.0,0.0
9.0,104.0,112.0,0.0
9.0,107.0,113.0,0.0
9.0,113.0,119.0,0.0
8.0,114.0,116.0,0.0
8.0,117.0,117.0,0.0
8.0,122.0,119.0,0.0
7.0,120.0,114.0,0.0
7.0,-294.0,90.0,0.0
7.0,-284.0,91.0,0.0
8.0,-282.0,94.0,0.0
9.0,-289.0,99.0,0.0
9.0,-278.0,99.0,0.0
10.0,-276.0,102.0,0.0
10.0,-280.0,107.0,0.0
10.0,-276.0,108.0,0.0
11.0,-281.0,114.0,0.0
12.0,-277.0,116.0,0.0
13.0,-274.0,118.0,0.0
13.0,-272.0,120.0,0.0
14.0,-280.0,128.0,0.0
15.0,-276.0,129.0,0.0
16.0,-282.0,136.0,0.0
15.0,-273.0,136.0,0.0
16.0,-271.0,139.0,0.0
17.0,-271.0,142.0,0.0
17.0,-269.0,144.0,0.0
20.0,-290.0,160.0,0.0
20.0,-285.0,161.0,0.0
20.0,-282.0,164.0,0.0
20.0,-270.0,160.0,0.0
19.0,-248.0,151.0,0.0
19.0,-238.0,148.0,0.0
19.0,-233.0,149.0,0.0
17.0,-210.0,138.0,0.0
19.0,-212.0,142.0,0.0
17.0,-194.0,133.0,0.0
17.0,-181.0,127.0,0.0
17.0,-182.0,130.0,0.0
18.0,-184.0,135.0,0.0
17.0,-170.0,128.0,0.0
16.0,-153.0,117.0,0.0
15.0,-148.0,117.0,0.0
15.0,-137.0,110.0,0.0
14.0,-129.0,106.0,0.0
16.0,-134.0,113.0,0.0
14.0,-119.0,103.0,0.0
13.0,-108.0,95.0,0.0
14.0,-116.0,104.0,0.0
11.0,-86.0,78.0,0.0
12.0,-95.0,88.0,0.0
11.0,-85.0,82.0,0.0
10.0,-75.0,73.0,0.0
3190.0,-22832.0,22858.0,0.0
3206.0,-22412.0,22930.0,0.0
3222.0,-21994.0,22998.0,0.0
3239.0,-21592.0,23076.0,0.0
3259.0,-21218.0,23177.0,0.0
3269.0,-20792.0,23215.0,0.0
3287.0,-20425.0,23311.0,0.0
3094.0,-18781.0,21912.0,0.0
3110.0,-18446.0,22002.0,0.0
3124.0,-18109.0,22085.0,0.0
3219.0,-18228.0,22732.0,0.0
3325.0,-18393.0,23458.0,0.0
3432.0,-18549.0,24197.0,0.0
4681.0,-24716.0,32980.0,1.0
4638.0,-23926.0,32663.0,1.0
4589.0,-23129.0,32308.0,1.0
4547.0,-22384.0,32001.0,1.0
4513.0,-21701.0,31758.0,1.0
4475.0,-21014.0,31486.0,1.0
4416.0,-20245.0,31063.0,1.0
4373.0,-19577.0,30770.0,1.0
4321.0,-18882.0,30405.0,1.0
4261.0,-18173.0,29991.0,1.0
4214.0,-17539.0,29672.0,1.0
4159.0,-16889.0,29299.0,1.0
4114.0,-16292.0,28991.0,1.0
4067.0,-15704.0,28677.0,1.0
4044.0,-15227.0,28542.0,1.0
2786.0,-10222.0,19676.0,0.0
2795.0,-9989.0,19755.0,0.0
2790.0,-9710.0,19737.0,0.0
2800.0,-9486.0,19826.0,0.0
2798.0,-9224.0,19834.0,0.0
2806.0,-8995.0,19908.0,0.0
2809.0,-8753.0,19954.0,0.0
2809.0,-8503.0,19978.0,0.0
2809.0,-8259.0,20007.0,0.0
2807.0,-8007.0,20018.0,0.0
2816.0,-7791.0,20113.0,0.0
2812.0,-7539.0,20116.0,0.0
2816.0,-7313.0,20184.0,0.0
2891.0,-7262.0,20748.0,0.0
3106.0,-7541.0,22330.0,0.0
4339.0,-10174.0,31253.0,1.0
