//X,Y,Z,Classification
-5674.0,14186.0,21769.0,0.0
-5790.0,14100.0,22164.0,0.0
-5913.0,14021.0,22586.0,0.0
-6032.0,13921.0,22986.0,0.0
-6150.0,13814.0,23388.0,0.0
-6317.0,13801.0,23965.0,0.0
-6237.0,13253.0,23613.0,0.0
-6336.0,13087.0,23933.0,0.0
-6350.0,12748.0,23937.0,0.0
-8833.0,17222.0,33222.0,0.0
-8821.0,16700.0,33107.0,0.0
-8822.0,16207.0,33039.0,0.0
-8800.0,15683.0,32887.0,0.0
-8793.0,15192.0,32790.0,0.0
-8809.0,14747.0,32780.0,0.0
-8231.0,13344.0,30568.0,0.0
-8234.0,12918.0,30515.0,0.0
-8239.0,12501.0,30472.0,0.0
-8260.0,12111.0,30487.0,0.0
-8652.0,12249.0,31864.0,0.0
-8757.0,11961.0,32188.0,0.0
-8759.0,11533.0,32129.0,0.0
-8752.0,11096.0,32034.0,0.0
0.0,0.0,0.0,0.0
0.0,0.0,0.0,0.0
0.0,0.0,0.0,0.0
0.0,0.0,0.0,0.0
-8635.0,8908.0,31289.0,0.0
-8655.0,8532.0,31297.0,0.0
-8975.0,8440.0,32389.0,0.0
-7123.0,6379.0,25656.0,0.0
-7735.0,6581.0,27800.0,0.0
-7928.0,6395.0,28438.0,0.0
-8092.0,6173.0,28969.0,0.0
-8070.0,5804.0,28831.0,0.0
-8056.0,5446.0,28722.0,0.0
-8041.0,5092.0,28611.0,0.0
-8035.0,4747.0,28534.0,0.0
-8040.0,4409.0,28492.0,0.0
-8009.0,4057.0,28323.0,0.0
-7997.0,3718.0,28224.0,0.0
-7992.0,3385.0,28147.0,0.0
-7971.0,3048.0,28018.0,0.0
-7959.0,2718.0,27918.0,0.0
-5499.0,1655.0,19252.0,0.0
-5480.0,1427.0,19145.0,0.0
-5500.0,1211.0,19173.0,0.0
-5498.0,991.0,19126.0,0.0
-5498.0,773.0,19087.0,0.0
-5492.0,554.0,19024.0,0.0
-5496.0,339.0,19000.0,0.0
-5489.0,122.0,18938.0,0.0
-5482.0,-91.0,18874.0,0.0
-5483.0,-305.0,18836.0,0.0
-5477.0,-517.0,18771.0,0.0
-5470.0,-727.0,18707.0,0.0
-5466.0,-938.0,18656.0,0.0
-5468.0,-1148.0,18623.0,0.0
-5458.0,-1356.0,18545.0,0.0
-5453.0,-1562.0,18490.0,0.0
-5447.0,-1769.0,18429.0,0.0
-5442.0,-1974.0,18372.0,0.0
-5445.0,-2181.0,18340.0,0.0
-5444.0,-2387.0,18293.0,0.0
-5433.0,-2588.0,18214.0,0.0
-5435.0,-2794.0,18180.0,0.0
-5426.0,-2995.0,18112.0,0.0
-5429.0,-3201.0,18078.0,0.0
-5429.0,-3405.0,18033.0,0.0
-5422.0,-3605.0,17970.0,0.0
-5412.0,-3802.0,17894.0,0.0
-5413.0,-4007.0,17855.0,0.0
-5412.0,-4210.0,17808.0,0.0
-5420.0,-4421.0,17794.0,0.0
-5411.0,-4615.0,17719.0,0.0
-5413.0,-4821.0,17681.0,0.0
-5406.0,-5018.0,17614.0,0.0
-5406.0,-5222.0,17569.0,0.0
-5402.0,-5422.0,17511.0,0.0
-5403.0,-5628.0,17471.0,0.0
-5401.0,-5830.0,17418.0,0.0
-5409.0,-6046.0,17401.0,0.0
-5403.0,-6243.0,17334.0,0.0
-5406.0,-6454.0,17299.0,0.0
-5404.0,-6657.0,17243.0,0.0
-5395.0,-6854.0,17170.0,0.0
-5398.0,-7065.0,17131.0,0.0
-5401.0,-7277.0,17094.0,0.0
-5398.0,-7482.0,17036.0,0.0
-5399.0,-7694.0,16991.0,0.0
-5401.0,-7907.0,16950.0,0.0
-5394.0,-8108.0,16878.0,0.0
-5395.0,-8322.0,16832.0,0.0
-5398.0,-8539.0,16789.0,0.0
-5402.0,-8759.0,16751.0,0.0
-5396.0,-8965.0,16682.0,0.0
-5400.0,-9188.0,16644.0,0.0
-5398.0,-9401.0,16583.0,0.0
-5392.0,-9609.0,16513.0,0.0
-5401.0,-9846.0,16487.0,0.0
-5400.0,-10064.0,16428.0,0.0
-5404.0,-10295.0,16389.0,0.0
-5400.0,-10511.0,16321.0,0.0
-5406.0,-10747.0,16281.0,0.0
-5404.0,-10971.0,16220.0,0.0
-5408.0,-11207.0,16173.0,0.0
-5410.0,-11443.0,16122.0,0.0
-5407.0,-11667.0,16054.0,0.0
-5408.0,-11903.0,15997.0,0.0
-5413.0,-12154.0,15955.0,0.0
-5415.0,-12395.0,15898.0,0.0
-5414.0,-12634.0,15835.0,0.0
-5419.0,-12887.0,15785.0,0.0
-5418.0,-13129.0,15718.0,0.0
-5417.0,-13374.0,15651.0,0.0
-5418.0,-13626.0,15590.0,0.0
-5416.0,-13873.0,15518.0,0.0
-5426.0,-14155.0,15480.0,0.0
-5420.0,-14395.0,15395.0,0.0
-5429.0,-14679.0,15350.0,0.0
-5426.0,-14934.0,15271.0,0.0
-5430.0,-15213.0,15213.0,0.0
-5435.0,-15493.0,15150.0,0.0
-5437.0,-15775.0,15086.0,0.0
-5435.0,-16044.0,15005.0,0.0
-31.0,-95.0,87.0,0.0
-30.0,-93.0,84.0,0.0
-33.0,-105.0,92.0,0.0
-35.0,-114.0,97.0,0.0
-30.0,-100.0,84.0,0.0
-33.0,-108.0,88.0,0.0
-31.0,-106.0,85.0,0.0
-33.0,-113.0,89.0,0.0
-33.0,-115.0,88.0,0.0
-34.0,-123.0,91.0,0.0
-34.0,-125.0,91.0,0.0
-39.0,-143.0,102.0,0.0
-38.0,-141.0,98.0,0.0
-40.0,-153.0,105.0,0.0
-42.0,-160.0,107.0,0.0
-42.0,-163.0,106.0,0.0
-43.0,-173.0,109.0,0.0
-42.0,-169.0,104.0,0.0
-42.0,-172.0,103.0,0.0
-40.0,-166.0,97.0,0.0
-45.0,-189.0,108.0,0.0
-45.0,-195.0,108.0,0.0
-41.0,-184.0,101.0,0.0
-44.0,-197.0,104.0,0.0
-47.0,-214.0,111.0,0.0
-44.0,-204.0,102.0,0.0
-43.0,-203.0,99.0,0.0
-44.0,-214.0,101.0,0.0
-47.0,-230.0,106.0,0.0
-44.0,-222.0,100.0,0.0
-46.0,-231.0,100.0,0.0
-44.0,-229.0,97.0,0.0
-46.0,-239.0,98.0,0.0
-45.0,-243.0,96.0,0.0
-45.0,-245.0,95.0,0.0
-54.0,-301.0,112.0,0.0
-56.0,-316.0,113.0,0.0
-56.0,-321.0,112.0,0.0
-54.0,-316.0,106.0,0.0
-53.0,-321.0,104.0,0.0
-53.0,-324.0,101.0,0.0
-53.0,-328.0,98.0,0.0
-51.0,-322.0,93.0,0.0
-50.0,-327.0,91.0,0.0
-3371.0,15756.0,14561.0,0.0
-3442.0,15691.0,14815.0,0.0
-3518.0,15639.0,15085.0,0.0
-3593.0,15583.0,15357.0,0.0
-3670.0,15524.0,15631.0,0.0
-3747.0,15459.0,15905.0,0.0
-3828.0,15404.0,16191.0,0.0
-3905.0,15328.0,16465.0,0.0
-3985.0,15259.0,16749.0,0.0
-4062.0,15174.0,17021.0,0.0
-4043.0,14728.0,16885.0,0.0
-4103.0,14579.0,17083.0,0.0
-4106.0,14230.0,17046.0,0.0
-4418.0,14932.0,18287.0,0.0
-4512.0,14873.0,18623.0,0.0
-4602.0,14789.0,18938.0,0.0
-4692.0,14702.0,19254.0,0.0
-4776.0,14589.0,19544.0,0.0
-4860.0,14471.0,19833.0,0.0
-4843.0,14055.0,19711.0,0.0
-4838.0,13681.0,19638.0,0.0
-5193.0,14306.0,21021.0,0.0
-5307.0,14240.0,21425.0,0.0
-5415.0,14151.0,21805.0,0.0
-5533.0,14079.0,22225.0,0.0
-5649.0,13991.0,22633.0,0.0
-5765.0,13895.0,23039.0,0.0
-5889.0,13808.0,23475.0,0.0
-5994.0,13669.0,23836.0,0.0
-6136.0,13604.0,24342.0,0.0
-6144.0,13238.0,24312.0,0.0
-6132.0,12837.0,24209.0,0.0
-6519.0,13251.0,25672.0,0.0
-8423.0,16624.0,33098.0,0.0
-7055.0,13509.0,27656.0,0.0
-8411.0,15618.0,32895.0,0.0
-8416.0,15147.0,32837.0,0.0
-8434.0,14704.0,32830.0,0.0
-7799.0,13166.0,30293.0,0.0
-7817.0,12767.0,30293.0,0.0
-7914.0,12497.0,30600.0,0.0
-8124.0,12394.0,31341.0,0.0
-8202.0,12081.0,31575.0,0.0
-8384.0,11911.0,32202.0,0.0
0.0,0.0,0.0,0.0
0.0,0.0,0.0,0.0
0.0,0.0,0.0,0.0
0.0,0.0,0.0,0.0
0.0,0.0,0.0,0.0
0.0,0.0,0.0,0.0
-8284.0,8877.0,31336.0,0.0
-8362.0,8561.0,31564.0,0.0
-8578.0,8376.0,32310.0,0.0
-6857.0,6373.0,25773.0,0.0
-7470.0,6595.0,28015.0,0.0
-7651.0,6402.0,28634.0,0.0
-7733.0,6117.0,28879.0,0.0
-7731.0,5766.0,28810.0,0.0
-7719.0,5409.0,28703.0,0.0
-7714.0,5062.0,28627.0,0.0
-7690.0,4705.0,28476.0,0.0
-7693.0,4370.0,28426.0,0.0
-7681.0,4028.0,28322.0,0.0
-7654.0,3682.0,28161.0,0.0
-7660.0,3355.0,28124.0,0.0
-7639.0,3020.0,27989.0,0.0
-7628.0,2691.0,27890.0,0.0
-5223.0,1621.0,19059.0,0.0
-5209.0,1399.0,18964.0,0.0
-5207.0,1181.0,18917.0,0.0
-5210.0,964.0,18887.0,0.0
-5211.0,749.0,18851.0,0.0
-5206.0,534.0,18795.0,0.0
-5212.0,322.0,18774.0,0.0
-5206.0,109.0,18709.0,0.0
-5208.0,-101.0,18680.0,0.0
-5204.0,-312.0,18624.0,0.0
-5202.0,-521.0,18576.0,0.0
-5203.0,-731.0,18538.0,0.0
-5199.0,-938.0,18484.0,0.0
-5200.0,-1146.0,18447.0,0.0
-5195.0,-1351.0,18388.0,0.0
-5202.0,-1559.0,18372.0,0.0
-5203.0,-1766.0,18338.0,0.0
-5196.0,-1969.0,18271.0,0.0
-5202.0,-2176.0,18249.0,0.0
-5194.0,-2377.0,18180.0,0.0
-5198.0,-2582.0,18153.0,0.0
-5199.0,-2787.0,18115.0,0.0
-5203.0,-2993.0,18087.0,0.0
-5210.0,-3201.0,18070.0,0.0
-5204.0,-3401.0,18006.0,0.0
-5207.0,-3607.0,17974.0,0.0
-5207.0,-3810.0,17934.0,0.0
-5216.0,-4021.0,17923.0,0.0
-5208.0,-4218.0,17852.0,0.0
-5211.0,-4424.0,17817.0,0.0
-5206.0,-4624.0,17762.0,0.0
-5207.0,-4827.0,17717.0,0.0
-5212.0,-5036.0,17691.0,0.0
-5210.0,-5239.0,17642.0,0.0
-5207.0,-5441.0,17589.0,0.0
-5213.0,-5653.0,17564.0,0.0
-5214.0,-5859.0,17523.0,0.0
-5218.0,-6069.0,17489.0,0.0
-5213.0,-6269.0,17429.0,0.0
-5217.0,-6482.0,17396.0,0.0
-5219.0,-6692.0,17359.0,0.0
-5219.0,-6900.0,17311.0,0.0
-5213.0,-7101.0,17246.0,0.0
-5221.0,-7321.0,17223.0,0.0
-5215.0,-7523.0,17158.0,0.0
-5215.0,-7734.0,17111.0,0.0
-5222.0,-7955.0,17083.0,0.0
-5215.0,-8158.0,17014.0,0.0
-5222.0,-8383.0,16988.0,0.0
-5218.0,-8590.0,16925.0,0.0
-5218.0,-8807.0,16877.0,0.0
-5220.0,-9027.0,16832.0,0.0
-5215.0,-9236.0,16765.0,0.0
-5219.0,-9462.0,16726.0,0.0
-5215.0,-9677.0,16665.0,0.0
-5222.0,-9910.0,16632.0,0.0
-5218.0,-10125.0,16566.0,0.0
-5221.0,-10356.0,16522.0,0.0
-5222.0,-10584.0,16472.0,0.0
-5222.0,-10812.0,16418.0,0.0
-5223.0,-11045.0,16368.0,0.0
-5224.0,-11278.0,16314.0,0.0
-5221.0,-11502.0,16246.0,0.0
-5219.0,-11734.0,16184.0,0.0
-5223.0,-11980.0,16141.0,0.0
-5229.0,-12231.0,16099.0,0.0
-5227.0,-12467.0,16033.0,0.0
-5231.0,-12720.0,15986.0,0.0
-5228.0,-12960.0,15918.0,0.0
-5227.0,-13206.0,15853.0,0.0
-5229.0,-13461.0,15798.0,0.0
-5234.0,-13726.0,15748.0,0.0
-5228.0,-13968.0,15668.0,0.0
-5230.0,-14230.0,15609.0,0.0
-5230.0,-14489.0,15541.0,0.0
-5229.0,-14750.0,15471.0,0.0
-5234.0,-15034.0,15422.0,0.0
-5232.0,-15297.0,15345.0,0.0
-5237.0,-15586.0,15291.0,0.0
-26.0,-83.0,79.0,0.0
-26.0,-85.0,80.0,0.0
-25.0,-83.0,76.0,0.0
-26.0,-86.0,78.0,0.0
-32.0,-108.0,95.0,0.0
-30.0,-100.0,86.0,0.0
-29.0,-98.0,82.0,0.0
-29.0,-102.0,84.0,0.0
-30.0,-108.0,87.0,0.0
-27.0,-98.0,77.0,0.0
-34.0,-123.0,95.0,0.0
-34.0,-124.0,93.0,0.0
-35.0,-132.0,97.0,0.0
-34.0,-131.0,94.0,0.0
-34.0,-135.0,94.0,0.0
-33.0,-132.0,90.0,0.0
-36.0,-148.0,99.0,0.0
-36.0,-150.0,99.0,0.0
-39.0,-161.0,102.0,0.0
-36.0,-158.0,98.0,0.0
-37.0,-162.0,98.0,0.0
-38.0,-168.0,99.0,0.0
-39.0,-177.0,102.0,0.0
-36.0,-168.0,94.0,0.0
-40.0,-185.0,101.0,0.0
-39.0,-183.0,97.0,0.0
-38.0,-186.0,96.0,0.0
-40.0,-196.0,99.0,0.0
-39.0,-194.0,95.0,0.0
-38.0,-196.0,94.0,0.0
-39.0,-204.0,95.0,0.0
-41.0,-214.0,96.0,0.0
-40.0,-215.0,94.0,0.0
-39.0,-213.0,91.0,0.0
-40.0,-221.0,91.0,0.0
-41.0,-234.0,93.0,0.0
-41.0,-235.0,91.0,0.0
-47.0,-281.0,105.0,0.0
-52.0,-313.0,114.0,0.0
-52.0,-320.0,112.0,0.0
-51.0,-317.0,107.0,0.0
-50.0,-318.0,104.0,0.0
-50.0,-322.0,102.0,0.0
-48.0,-318.0,96.0,0.0
-47.0,-319.0,93.0,0.0
-47.0,-325.0,91.0,0.0
-3181.0,15739.0,14606.0,0.0
-3253.0,15688.0,14872.0,0.0
-3326.0,15635.0,15143.0,0.0
-3399.0,15574.0,15411.0,0.0
-3472.0,15509.0,15680.0,0.0
-3551.0,15465.0,15974.0,0.0
-3628.0,15402.0,16256.0,0.0
-3683.0,15246.0,16441.0,0.0
-3780.0,15251.0,16807.0,0.0
-3716.0,14620.0,16465.0,0.0
-3908.0,14988.0,17252.0,0.0
-3932.0,14704.0,17299.0,0.0
-3918.0,14281.0,17176.0,0.0
-4187.0,14878.0,18293.0,0.0
-4287.0,14854.0,18673.0,0.0
-4375.0,14773.0,18992.0,0.0
-4436.0,14599.0,19195.0,0.0
-4533.0,14538.0,19553.0,0.0
-4419.0,13807.0,18999.0,0.0
-4570.0,13910.0,19586.0,0.0
-4646.0,13775.0,19852.0,0.0
-4947.0,14288.0,21080.0,0.0
-5061.0,14231.0,21497.0,0.0
-5167.0,14146.0,21885.0,0.0
-5279.0,14065.0,22294.0,0.0
-5387.0,13968.0,22686.0,0.0
-5509.0,13896.0,23135.0,0.0
-5621.0,13790.0,23541.0,0.0
-5716.0,13634.0,23873.0,0.0
-5840.0,13540.0,24324.0,0.0
-5798.0,13062.0,24088.0,0.0
-5889.0,12885.0,24399.0,0.0
-5941.0,12620.0,24550.0,0.0
-6387.0,13166.0,26324.0,0.0
-6533.0,13063.0,26856.0,0.0
-6671.0,12934.0,27357.0,0.0
-8020.0,15065.0,32800.0,0.0
-6929.0,12607.0,28270.0,0.0
-7418.0,13064.0,30190.0,0.0
-7437.0,12670.0,30195.0,0.0
-7613.0,12536.0,30832.0,0.0
-7778.0,12371.0,31420.0,0.0
-7865.0,12075.0,31701.0,0.0
-7998.0,11841.0,32155.0,0.0
-7990.0,11397.0,32047.0,0.0
0.0,0.0,0.0,0.0
0.0,0.0,0.0,0.0
0.0,0.0,0.0,0.0
-8006.0,9740.0,31814.0,0.0
0.0,0.0,0.0,0.0
-7935.0,8847.0,31384.0,0.0
-8014.0,8534.0,31626.0,0.0
-8203.0,8329.0,32297.0,0.0
-8412.0,8129.0,33045.0,0.0
-6695.0,6145.0,26244.0,0.0
-7366.0,6406.0,28812.0,0.0
-7306.0,6005.0,28509.0,0.0
-7390.0,5724.0,28771.0,0.0
-7336.0,5339.0,28501.0,0.0
-7072.0,4817.0,27409.0,0.0
-7205.0,4575.0,27866.0,0.0
-7316.0,4311.0,28233.0,0.0
-7347.0,3995.0,28289.0,0.0
-7343.0,3662.0,28213.0,0.0
-7330.0,3326.0,28100.0,0.0
-7317.0,2995.0,27991.0,0.0
-7308.0,2667.0,27895.0,0.0
-7306.0,2344.0,27822.0,0.0
-5053.0,1401.0,19202.0,0.0
-5051.0,1180.0,19154.0,0.0
-5046.0,961.0,19094.0,0.0
-5041.0,743.0,19031.0,0.0
-5044.0,527.0,18999.0,0.0
-5044.0,313.0,18958.0,0.0
-5042.0,99.0,18910.0,0.0
-5038.0,-113.0,18854.0,0.0
-5039.0,-325.0,18817.0,0.0
-5039.0,-537.0,18772.0,0.0
-5033.0,-746.0,18708.0,0.0
-5034.0,-956.0,18674.0,0.0
-5033.0,-1165.0,18624.0,0.0
-5031.0,-1372.0,18581.0,0.0
-5034.0,-1581.0,18548.0,0.0
-5024.0,-1785.0,18472.0,0.0
-5029.0,-1993.0,18447.0,0.0
-5028.0,-2199.0,18402.0,0.0
-5027.0,-2403.0,18355.0,0.0
-5026.0,-2608.0,18307.0,0.0
-5026.0,-2813.0,18268.0,0.0
-5025.0,-3018.0,18225.0,0.0
-5020.0,-3219.0,18164.0,0.0
-5023.0,-3425.0,18130.0,0.0
-5013.0,-3623.0,18054.0,0.0
-5010.0,-3825.0,18001.0,0.0
-5014.0,-4031.0,17972.0,0.0
-5014.0,-4235.0,17930.0,0.0
-5014.0,-4440.0,17887.0,0.0
-5010.0,-4638.0,17827.0,0.0
-5009.0,-4842.0,17784.0,0.0
-5007.0,-5044.0,17733.0,0.0
-5005.0,-5246.0,17681.0,0.0
-5005.0,-5452.0,17640.0,0.0
-5007.0,-5658.0,17601.0,0.0
-5005.0,-5861.0,17550.0,0.0
-5007.0,-6069.0,17511.0,0.0
-5002.0,-6269.0,17449.0,0.0
-5007.0,-6483.0,17423.0,0.0
-4998.0,-6679.0,17350.0,0.0
-5002.0,-6893.0,17317.0,0.0
-5002.0,-7100.0,17270.0,0.0
-5000.0,-7309.0,17221.0,0.0
-5000.0,-7518.0,17174.0,0.0
-4997.0,-7724.0,17117.0,0.0
-4996.0,-7934.0,17065.0,0.0
-5000.0,-8152.0,17032.0,0.0
-4987.0,-8345.0,16941.0,0.0
-4993.0,-8570.0,16915.0,0.0
-4991.0,-8782.0,16860.0,0.0
-4989.0,-8995.0,16803.0,0.0
-4991.0,-9216.0,16762.0,0.0
-4990.0,-9431.0,16707.0,0.0
-4992.0,-9656.0,16663.0,0.0
-4989.0,-9873.0,16605.0,0.0
-4990.0,-10100.0,16559.0,0.0
-4993.0,-10330.0,16518.0,0.0
-4989.0,-10547.0,16452.0,0.0
-4991.0,-10780.0,16406.0,0.0
-4994.0,-11015.0,16362.0,0.0
-4987.0,-11231.0,16286.0,0.0
-4994.0,-11481.0,16256.0,0.0
-4986.0,-11699.0,16176.0,0.0
-4989.0,-11943.0,16132.0,0.0
-4985.0,-12172.0,16062.0,0.0
-4991.0,-12428.0,16024.0,0.0
-4988.0,-12666.0,15958.0,0.0
-4993.0,-12924.0,15917.0,0.0
-4989.0,-13163.0,15846.0,0.0
-4991.0,-13420.0,15793.0,0.0
-4991.0,-13673.0,15731.0,0.0
-4991.0,-13928.0,15669.0,0.0
-4990.0,-14187.0,15605.0,0.0
-4992.0,-14455.0,15550.0,0.0
-5001.0,-14746.0,15512.0,0.0
-4993.0,-14994.0,15426.0,0.0
-4994.0,-15269.0,15364.0,0.0
-28.0,-90.0,89.0,0.0
-30.0,-96.0,93.0,0.0
-33.0,-108.0,102.0,0.0
-26.0,-90.0,83.0,0.0
-28.0,-97.0,88.0,0.0
-33.0,-115.0,101.0,0.0
-31.0,-108.0,93.0,0.0
-30.0,-107.0,91.0,0.0
-30.0,-109.0,89.0,0.0
-29.0,-108.0,88.0,0.0
-29.0,-108.0,85.0,0.0
-32.0,-125.0,96.0,0.0
-32.0,-127.0,96.0,0.0
-32.0,-130.0,95.0,0.0
-30.0,-120.0,86.0,0.0
-33.0,-136.0,96.0,0.0
-33.0,-139.0,95.0,0.0
-33.0,-144.0,96.0,0.0
-33.0,-145.0,94.0,0.0
-37.0,-163.0,105.0,0.0
-34.0,-153.0,96.0,0.0
-37.0,-168.0,102.0,0.0
-38.0,-174.0,104.0,0.0
-38.0,-182.0,105.0,0.0
-36.0,-174.0,98.0,0.0
-38.0,-189.0,103.0,0.0
-37.0,-184.0,98.0,0.0
-36.0,-185.0,96.0,0.0
-40.0,-210.0,107.0,0.0
-39.0,-207.0,103.0,0.0
-36.0,-196.0,94.0,0.0
-38.0,-209.0,97.0,0.0
-39.0,-219.0,100.0,0.0
-38.0,-219.0,97.0,0.0
-38.0,-221.0,94.0,0.0
-38.0,-227.0,94.0,0.0
-38.0,-230.0,92.0,0.0
-39.0,-237.0,92.0,0.0
-42.0,-263.0,100.0,0.0
-49.0,-310.0,114.0,0.0
-49.0,-316.0,111.0,0.0
-47.0,-312.0,107.0,0.0
-47.0,-314.0,104.0,0.0
-46.0,-318.0,101.0,0.0
-46.0,-320.0,98.0,0.0
-44.0,-317.0,93.0,0.0
-44.0,-319.0,90.0,0.0
-2989.0,15715.0,14641.0,0.0
-3060.0,15667.0,14911.0,0.0
-3130.0,15611.0,15180.0,0.0
-3199.0,15546.0,15443.0,0.0
-3266.0,15458.0,15688.0,0.0
-3337.0,15390.0,15959.0,0.0
-3418.0,15357.0,16271.0,0.0
-3495.0,15301.0,16566.0,0.0
-3558.0,15179.0,16793.0,0.0
-3609.0,15004.0,16963.0,0.0
-3617.0,14651.0,16928.0,0.0
-3677.0,14514.0,17142.0,0.0
-3730.0,14347.0,17321.0,0.0
-3956.0,14824.0,18298.0,0.0
-4066.0,14844.0,18734.0,0.0
-4152.0,14770.0,19061.0,0.0
-4239.0,14690.0,19389.0,0.0
-4328.0,14609.0,19725.0,0.0
-4398.0,14459.0,19973.0,0.0
-4443.0,14223.0,20104.0,0.0
-4446.0,13862.0,20053.0,0.0
-4475.0,13581.0,20113.0,0.0
-4808.0,14205.0,21543.0,0.0
-4911.0,14121.0,21932.0,0.0
-5021.0,14045.0,22348.0,0.0
-5127.0,13952.0,22749.0,0.0
-5241.0,13868.0,23179.0,0.0
-5353.0,13773.0,23604.0,0.0
-5469.0,13676.0,24041.0,0.0
-5580.0,13559.0,24456.0,0.0
-5689.0,13429.0,24862.0,0.0
-5667.0,12988.0,24694.0,0.0
-5687.0,12650.0,24708.0,0.0
-6093.0,13150.0,26399.0,0.0
-6231.0,13041.0,26919.0,0.0
-6361.0,12905.0,27405.0,0.0
-6517.0,12807.0,27997.0,0.0
-6613.0,12583.0,28333.0,0.0
-6718.0,12369.0,28704.0,0.0
-7066.0,12582.0,30111.0,0.0
-7239.0,12457.0,30766.0,0.0
-7430.0,12347.0,31494.0,0.0
-7532.0,12077.0,31841.0,0.0
-7624.0,11787.0,32147.0,0.0
-7614.0,11340.0,32025.0,0.0
0.0,0.0,0.0,0.0
0.0,0.0,0.0,0.0
0.0,0.0,0.0,0.0
0.0,0.0,0.0,0.0
-7568.0,9198.0,31437.0,0.0
-7581.0,8813.0,31416.0,0.0
-7650.0,8491.0,31623.0,0.0
-7864.0,8321.0,32429.0,0.0
-8076.0,8132.0,33224.0,0.0
-6418.0,6135.0,26338.0,0.0
-7047.0,6381.0,28851.0,0.0
-7067.0,6047.0,28866.0,0.0
-7056.0,5688.0,28753.0,0.0
-6834.0,5174.0,27783.0,0.0
-7014.0,4970.0,28449.0,0.0
-7015.0,4632.0,28386.0,0.0
-6990.0,4280.0,28218.0,0.0
-7013.0,3962.0,28250.0,0.0
-7002.0,3626.0,28136.0,0.0
-6999.0,3297.0,28063.0,0.0
-6983.0,2964.0,27935.0,0.0
-6973.0,2638.0,27833.0,0.0
-4861.0,1615.0,19358.0,0.0
-4845.0,1390.0,19251.0,0.0
-4847.0,1170.0,19217.0,0.0
-4855.0,953.0,19205.0,0.0
-4854.0,735.0,19154.0,0.0
-4861.0,519.0,19137.0,0.0
-4844.0,302.0,19030.0,0.0
-4848.0,88.0,19007.0,0.0
-4860.0,-124.0,19006.0,0.0
-4854.0,-337.0,18943.0,0.0
-4859.0,-551.0,18917.0,0.0
-4852.0,-760.0,18845.0,0.0
-4852.0,-971.0,18809.0,0.0
-4866.0,-1184.0,18817.0,0.0
-4861.0,-1392.0,18759.0,0.0
-4864.0,-1603.0,18726.0,0.0
-4859.0,-1810.0,18663.0,0.0
-4861.0,-2018.0,18627.0,0.0
-4858.0,-2223.0,18575.0,0.0
-4865.0,-2435.0,18561.0,0.0
-4860.0,-2639.0,18496.0,0.0
-4868.0,-2850.0,18488.0,0.0
-4874.0,-3061.0,18469.0,0.0
-4868.0,-3264.0,18403.0,0.0
-4872.0,-3472.0,18373.0,0.0
-4874.0,-3681.0,18339.0,0.0
-4883.0,-3894.0,18329.0,0.0
-4883.0,-4100.0,18284.0,0.0
-4872.0,-4298.0,18202.0,0.0
-4886.0,-4518.0,18211.0,0.0
-4882.0,-4720.0,18155.0,0.0
-4884.0,-4930.0,18119.0,0.0
-4882.0,-5136.0,18067.0,0.0
-4882.0,-5344.0,18025.0,0.0
-4883.0,-5551.0,17982.0,0.0
-4885.0,-5764.0,17949.0,0.0
-4889.0,-5979.0,17921.0,0.0
-4888.0,-6186.0,17869.0,0.0
-4891.0,-6400.0,17835.0,0.0
-4887.0,-6607.0,17778.0,0.0
-4888.0,-6819.0,17739.0,0.0
-4890.0,-7034.0,17697.0,0.0
-4895.0,-7255.0,17673.0,0.0
-4897.0,-7471.0,17631.0,0.0
-4891.0,-7677.0,17564.0,0.0
-4899.0,-7904.0,17546.0,0.0
-4892.0,-8110.0,17476.0,0.0
-4899.0,-8342.0,17459.0,0.0
-4897.0,-8557.0,17401.0,0.0
-4901.0,-8785.0,17371.0,0.0
-4898.0,-8998.0,17308.0,0.0
-4904.0,-9231.0,17280.0,0.0
-4911.0,-9472.0,17261.0,0.0
-4914.0,-9702.0,17220.0,0.0
-4912.0,-9925.0,17163.0,0.0
-4910.0,-10151.0,17107.0,0.0
-4913.0,-10387.0,17067.0,0.0
-4918.0,-10631.0,17035.0,0.0
-4910.0,-10848.0,16957.0,0.0
-4911.0,-11083.0,16906.0,0.0
-4918.0,-11337.0,16878.0,0.0
-4915.0,-11571.0,16818.0,0.0
-4915.0,-11814.0,16766.0,0.0
-4921.0,-12072.0,16732.0,0.0
-4920.0,-12315.0,16674.0,0.0
-4920.0,-12563.0,16618.0,0.0
-4924.0,-12824.0,16575.0,0.0
-4917.0,-13057.0,16494.0,0.0
-4922.0,-13328.0,16456.0,0.0
-4920.0,-13581.0,16391.0,0.0
-4924.0,-13855.0,16349.0,0.0
-4930.0,-14137.0,16308.0,0.0
-4933.0,-14414.0,16260.0,0.0
-4926.0,-14665.0,16177.0,0.0
-4939.0,-14977.0,16157.0,0.0
-4935.0,-15244.0,16082.0,0.0
-4944.0,-15553.0,16047.0,0.0
-4945.0,-15842.0,15988.0,0.0
-25.0,-84.0,83.0,0.0
-26.0,-90.0,87.0,0.0
-28.0,-96.0,91.0,0.0
-26.0,-93.0,86.0,0.0
-26.0,-94.0,85.0,0.0
-29.0,-107.0,94.0,0.0
-31.0,-115.0,100.0,0.0
-29.0,-112.0,95.0,0.0
-26.0,-101.0,84.0,0.0
-24.0,-95.0,76.0,0.0
-26.0,-104.0,82.0,0.0
-31.0,-129.0,100.0,0.0
-29.0,-119.0,90.0,0.0
-29.0,-123.0,91.0,0.0
-32.0,-141.0,101.0,0.0
-31.0,-139.0,98.0,0.0
-35.0,-155.0,106.0,0.0
-30.0,-136.0,91.0,0.0
-34.0,-154.0,101.0,0.0
-33.0,-153.0,99.0,0.0
-34.0,-159.0,99.0,0.0
-33.0,-156.0,95.0,0.0
-34.0,-166.0,99.0,0.0
-35.0,-172.0,100.0,0.0
-36.0,-185.0,105.0,0.0
-36.0,-184.0,102.0,0.0
-33.0,-176.0,94.0,0.0
-35.0,-190.0,100.0,0.0
-33.0,-183.0,93.0,0.0
-36.0,-204.0,101.0,0.0
-35.0,-200.0,97.0,0.0
-36.0,-208.0,98.0,0.0
-35.0,-210.0,95.0,0.0
-36.0,-218.0,97.0,0.0
-34.0,-210.0,89.0,0.0
-36.0,-227.0,94.0,0.0
-34.0,-217.0,88.0,0.0
-35.0,-230.0,91.0,0.0
-38.0,-254.0,96.0,0.0
-45.0,-306.0,112.0,0.0
-45.0,-312.0,111.0,0.0
-44.0,-310.0,106.0,0.0
-44.0,-313.0,104.0,0.0
-43.0,-318.0,101.0,0.0
-42.0,-319.0,98.0,0.0
-42.0,-324.0,96.0,0.0
-41.0,-317.0,90.0,0.0
-2801.0,15714.0,14696.0,0.0
-2869.0,15665.0,14967.0,0.0
-2936.0,15603.0,15229.0,0.0
-3007.0,15549.0,15505.0,0.0
-3077.0,15494.0,15785.0,0.0
-3149.0,15438.0,16069.0,0.0
-3220.0,15369.0,16346.0,0.0
-3293.0,15304.0,16630.0,0.0
-3348.0,15150.0,16823.0,0.0
-3440.0,15162.0,17207.0,0.0
-3509.0,15062.0,17470.0,0.0
-3518.0,14704.0,17431.0,0.0
-3548.0,14441.0,17501.0,0.0
-3575.0,14172.0,17558.0,0.0
-3834.0,14801.0,18749.0,0.0
-3925.0,14754.0,19110.0,0.0
-4013.0,14690.0,19461.0,0.0
-4078.0,14534.0,19697.0,0.0
-4173.0,14478.0,20074.0,0.0
-4264.0,14401.0,20430.0,0.0
-4225.0,13887.0,20165.0,0.0
-4243.0,13572.0,20175.0,0.0
-4557.0,14183.0,21589.0,0.0
-4659.0,14106.0,21991.0,0.0
-4768.0,14039.0,22424.0,0.0
-4865.0,13932.0,22803.0,0.0
-4976.0,13851.0,23237.0,0.0
-5083.0,13753.0,23660.0,0.0
-5198.0,13663.0,24109.0,0.0
-5278.0,13479.0,24403.0,0.0
-5402.0,13395.0,24896.0,0.0
-5443.0,13099.0,25001.0,0.0
-5431.0,12684.0,24870.0,0.0
-5803.0,13144.0,26488.0,0.0
-5935.0,13031.0,27004.0,0.0
-6063.0,12900.0,27505.0,0.0
-6203.0,12781.0,28051.0,0.0
-6323.0,12613.0,28514.0,0.0
-6438.0,12421.0,28940.0,0.0
-6540.0,12200.0,29315.0,0.0
-6724.0,12118.0,30054.0,0.0
-6909.0,12023.0,30792.0,0.0
-7165.0,12027.0,31843.0,0.0
-7262.0,11752.0,32187.0,0.0
0.0,0.0,0.0,0.0
0.0,0.0,0.0,0.0
0.0,0.0,0.0,0.0
0.0,0.0,0.0,0.0
0.0,0.0,0.0,0.0
-7187.0,9128.0,31341.0,0.0
-7200.0,8744.0,31314.0,0.0
-7307.0,8472.0,31700.0,0.0
-7513.0,8303.0,32511.0,0.0
-7730.0,8126.0,33363.0,0.0
-6157.0,6144.0,26510.0,0.0
-6733.0,6362.0,28912.0,0.0
-6737.0,6013.0,28856.0,0.0
-6726.0,5655.0,28741.0,0.0
-6514.0,5142.0,27765.0,0.0
-6698.0,4947.0,28481.0,0.0
-6558.0,4511.0,27816.0,0.0
-6657.0,4247.0,28169.0,0.0
-6697.0,3940.0,28271.0,0.0
-6687.0,3603.0,28161.0,0.0
-6677.0,3271.0,28051.0,0.0
-6672.0,2944.0,27963.0,0.0
-6668.0,2620.0,27880.0,0.0
-6651.0,2294.0,27746.0,0.0
-6646.0,1976.0,27659.0,0.0
-4803.0,1200.0,19940.0,0.0
-4802.0,974.0,19893.0,0.0
-4802.0,749.0,19846.0,0.0
-4808.0,525.0,19828.0,0.0
-4802.0,301.0,19755.0,0.0
-4808.0,80.0,19735.0,0.0
-4805.0,-140.0,19677.0,0.0
-4811.0,-360.0,19655.0,0.0
-4804.0,-578.0,19584.0,0.0
-4819.0,-799.0,19597.0,0.0
-4804.0,-1015.0,19494.0,0.0
-4812.0,-1233.0,19481.0,0.0
-4822.0,-1453.0,19477.0,0.0
-4812.0,-1665.0,19391.0,0.0
-4809.0,-1879.0,19333.0,0.0
-4820.0,-2099.0,19333.0,0.0
-4822.0,-2316.0,19300.0,0.0
-4822.0,-2530.0,19255.0,0.0
-4816.0,-2740.0,19185.0,0.0
-4824.0,-2959.0,19172.0,0.0
-4822.0,-3171.0,19122.0,0.0
-4817.0,-3381.0,19060.0,0.0
-4821.0,-3597.0,19029.0,0.0
-4834.0,-3821.0,19038.0,0.0
-4828.0,-4030.0,18972.0,0.0
-4829.0,-4245.0,18931.0,0.0
-4823.0,-4453.0,18863.0,0.0
-4831.0,-4674.0,18848.0,0.0
-4829.0,-4885.0,18797.0,0.0
-4832.0,-5103.0,18767.0,0.0
-4837.0,-5323.0,18740.0,0.0
-4840.0,-5542.0,18707.0,0.0
-4834.0,-5749.0,18640.0,0.0
-4832.0,-5964.0,18590.0,0.0
-4840.0,-6189.0,18573.0,0.0
-4837.0,-6404.0,18520.0,0.0
-4841.0,-6626.0,18487.0,0.0
-4842.0,-6846.0,18446.0,0.0
-4840.0,-7061.0,18390.0,0.0
-4839.0,-7280.0,18341.0,0.0
-4842.0,-7504.0,18306.0,0.0
-4841.0,-7725.0,18257.0,0.0
-4844.0,-7952.0,18224.0,0.0
-4845.0,-8178.0,18180.0,0.0
-4844.0,-8402.0,18132.0,0.0
-4839.0,-8618.0,18067.0,0.0
-4851.0,-8867.0,18065.0,0.0
-4845.0,-9085.0,17996.0,0.0
-4854.0,-9332.0,17982.0,0.0
-4854.0,-9562.0,17931.0,0.0
-4851.0,-9790.0,17874.0,0.0
-4858.0,-10039.0,17851.0,0.0
-4857.0,-10273.0,17799.0,0.0
-4863.0,-10523.0,17771.0,0.0
-4855.0,-10746.0,17693.0,0.0
-4858.0,-10993.0,17653.0,0.0
-4867.0,-11255.0,17631.0,0.0
-4863.0,-11493.0,17569.0,0.0
-4862.0,-11739.0,17514.0,0.0
-4867.0,-11999.0,17478.0,0.0
-4868.0,-12255.0,17430.0,0.0
-4871.0,-12516.0,17388.0,0.0
-4874.0,-12783.0,17348.0,0.0
-4865.0,-13018.0,17261.0,0.0
-4864.0,-13278.0,17204.0,0.0
-4866.0,-13549.0,17157.0,0.0
-4873.0,-13838.0,17127.0,0.0
-4873.0,-14107.0,17070.0,0.0
-4873.0,-14380.0,17010.0,0.0
-4875.0,-14663.0,16960.0,0.0
-4879.0,-14956.0,16915.0,0.0
-4892.0,-15283.0,16904.0,0.0
-4885.0,-15549.0,16819.0,0.0
-4889.0,-15852.0,16771.0,0.0
-4881.0,-16124.0,16684.0,0.0
-22.0,-74.0,75.0,0.0
-24.0,-85.0,84.0,0.0
-25.0,-90.0,87.0,0.0
-26.0,-96.0,91.0,0.0
-29.0,-106.0,98.0,0.0
-29.0,-107.0,98.0,0.0
-29.0,-112.0,99.0,0.0
-30.0,-116.0,100.0,0.0
-29.0,-114.0,97.0,0.0
-27.0,-108.0,89.0,0.0
-28.0,-115.0,93.0,0.0
-28.0,-117.0,92.0,0.0
-28.0,-121.0,93.0,0.0
-26.0,-111.0,84.0,0.0
-30.0,-131.0,97.0,0.0
-32.0,-143.0,104.0,0.0
-29.0,-134.0,95.0,0.0
-33.0,-152.0,105.0,0.0
-34.0,-160.0,108.0,0.0
-35.0,-167.0,110.0,0.0
-32.0,-156.0,100.0,0.0
-33.0,-167.0,105.0,0.0
-32.0,-165.0,101.0,0.0
-33.0,-171.0,102.0,0.0
-35.0,-187.0,109.0,0.0
-34.0,-185.0,105.0,0.0
-34.0,-184.0,102.0,0.0
-36.0,-201.0,108.0,0.0
-33.0,-190.0,100.0,0.0
-36.0,-207.0,106.0,0.0
-37.0,-218.0,109.0,0.0
-34.0,-208.0,101.0,0.0
-35.0,-214.0,100.0,0.0
-34.0,-214.0,98.0,0.0
-34.0,-216.0,96.0,0.0
-33.0,-215.0,93.0,0.0
-33.0,-222.0,93.0,0.0
-33.0,-226.0,92.0,0.0
-34.0,-235.0,93.0,0.0
-35.0,-249.0,95.0,0.0
-43.0,-310.0,115.0,0.0
-42.0,-310.0,111.0,0.0
-42.0,-315.0,109.0,0.0
-40.0,-310.0,103.0,0.0
-40.0,-314.0,100.0,0.0
-39.0,-317.0,98.0,0.0
-39.0,-320.0,95.0,0.0
-37.0,-313.0,89.0,0.0
-2616.0,15730.0,14765.0,0.0
-2663.0,15568.0,14929.0,0.0
-4002.0,22751.0,22287.0,0.0
-4062.0,22454.0,22473.0,0.0
-2989.0,16077.0,16437.0,0.0
-2962.0,15496.0,16188.0,0.0
-3025.0,15397.0,16434.0,0.0
-3089.0,15298.0,16685.0,0.0
-3155.0,15204.0,16945.0,0.0
-3230.0,15148.0,17252.0,0.0
-3224.0,14713.0,17126.0,0.0
-3365.0,14946.0,17782.0,0.0
-3370.0,14568.0,17717.0,0.0
-3373.0,14192.0,17645.0,0.0
-3616.0,14809.0,18825.0,0.0
-3700.0,14744.0,19167.0,0.0
-3782.0,14669.0,19503.0,0.0
-3856.0,14554.0,19793.0,0.0
-3955.0,14525.0,20212.0,0.0
-3901.0,13939.0,19847.0,0.0
-4034.0,14024.0,20438.0,0.0
-4055.0,13709.0,20454.0,0.0
-4284.0,14087.0,21519.0,0.0
-4407.0,14091.0,22047.0,0.0
-4506.0,14010.0,22457.0,0.0
-4610.0,13930.0,22883.0,0.0
-4714.0,13842.0,23309.0,0.0
-4819.0,13747.0,23736.0,0.0
-4927.0,13650.0,24174.0,0.0
-5032.0,13538.0,24601.0,0.0
-5146.0,13437.0,25068.0,0.0
-5191.0,13155.0,25200.0,0.0
-5211.0,12807.0,25205.0,0.0
-5244.0,12496.0,25279.0,0.0
-5632.0,13007.0,27056.0,0.0
-5763.0,12894.0,27597.0,0.0
-5896.0,12769.0,28135.0,0.0
-6011.0,12599.0,28591.0,0.0
-6098.0,12361.0,28914.0,0.0
-6222.0,12190.0,29408.0,0.0
-6349.0,12016.0,29916.0,0.0
-6684.0,12208.0,31395.0,0.0
-6735.0,11864.0,31537.0,0.0
-6881.0,11681.0,32127.0,0.0
0.0,0.0,0.0,0.0
0.0,0.0,0.0,0.0
0.0,0.0,0.0,0.0
0.0,0.0,0.0,0.0
0.0,0.0,0.0,0.0
-6834.0,9090.0,31350.0,0.0
-6865.0,8730.0,31405.0,0.0
-6964.0,8453.0,31775.0,0.0
-7164.0,8287.0,32598.0,0.0
-7359.0,8094.0,33390.0,0.0
-5884.0,6140.0,26625.0,0.0
-6389.0,6314.0,28835.0,0.0
-6386.0,5960.0,28748.0,0.0
-6378.0,5604.0,28634.0,0.0
-6256.0,5159.0,28011.0,0.0
-6294.0,4855.0,28111.0,0.0
-6292.0,4519.0,28026.0,0.0
-6305.0,4198.0,28017.0,0.0
-6349.0,3896.0,28138.0,0.0
-6354.0,3570.0,28092.0,0.0
-6340.0,3237.0,27960.0,0.0
-6345.0,2916.0,27913.0,0.0
-6343.0,2595.0,27840.0,0.0
-6332.0,2271.0,27718.0,0.0
-6321.0,1953.0,27608.0,0.0
-6305.0,1634.0,27465.0,0.0
-4762.0,999.0,20693.0,0.0
-4763.0,766.0,20649.0,0.0
-4765.0,534.0,20608.0,0.0
-4759.0,303.0,20532.0,0.0
-4757.0,72.0,20478.0,0.0
-4765.0,-155.0,20463.0,0.0
-4769.0,-385.0,20431.0,0.0
-4767.0,-611.0,20377.0,0.0
-4772.0,-839.0,20352.0,0.0
-4769.0,-1064.0,20291.0,0.0
-4768.0,-1289.0,20239.0,0.0
-4774.0,-1515.0,20216.0,0.0
-4777.0,-1740.0,20182.0,0.0
-4770.0,-1960.0,20109.0,0.0
-4770.0,-2183.0,20063.0,0.0
-4772.0,-2406.0,20020.0,0.0
-4780.0,-2633.0,20012.0,0.0
-4779.0,-2854.0,19960.0,0.0
-4772.0,-3071.0,19884.0,0.0
-4784.0,-3300.0,19888.0,0.0
-4782.0,-3522.0,19838.0,0.0
-4793.0,-3750.0,19832.0,0.0
-4785.0,-3965.0,19757.0,0.0
-4791.0,-4192.0,19736.0,0.0
-4783.0,-4407.0,19658.0,0.0
-4795.0,-4639.0,19658.0,0.0
-4793.0,-4859.0,19605.0,0.0
-4783.0,-5071.0,19523.0,0.0
-4796.0,-5307.0,19532.0,0.0
-4784.0,-5515.0,19433.0,0.0
-4786.0,-5742.0,19400.0,0.0
-4793.0,-5973.0,19380.0,0.0
-4795.0,-6200.0,19342.0,0.0
-4792.0,-6420.0,19283.0,0.0
-4791.0,-6645.0,19238.0,0.0
-4797.0,-6878.0,19213.0,0.0
-4798.0,-7107.0,19172.0,0.0
-4795.0,-7329.0,19113.0,0.0
-4799.0,-7566.0,19087.0,0.0
-4803.0,-7799.0,19053.0,0.0
-4793.0,-8013.0,18966.0,0.0
-4800.0,-8257.0,18950.0,0.0
-4802.0,-8492.0,18910.0,0.0
-4803.0,-8730.0,18871.0,0.0
-4805.0,-8967.0,18829.0,0.0
-4806.0,-9206.0,18787.0,0.0
-4805.0,-9443.0,18736.0,0.0
-4805.0,-9683.0,18691.0,0.0
-4805.0,-9923.0,18641.0,0.0
-4809.0,-10174.0,18609.0,0.0
-4812.0,-10423.0,18569.0,0.0
-4815.0,-10678.0,18536.0,0.0
-4808.0,-10910.0,18460.0,0.0
-4813.0,-11171.0,18430.0,0.0
-4812.0,-11421.0,18377.0,0.0
-4818.0,-11690.0,18351.0,0.0
-4820.0,-11952.0,18309.0,0.0
-4816.0,-12201.0,18243.0,0.0
-4816.0,-12462.0,18192.0,0.0
-4824.0,-12747.0,18171.0,0.0
-4824.0,-13014.0,18120.0,0.0
-4824.0,-13281.0,18064.0,0.0
-4827.0,-13563.0,18025.0,0.0
-4822.0,-13825.0,17955.0,0.0
-4825.0,-14112.0,17913.0,0.0
-4822.0,-14384.0,17847.0,0.0
-4823.0,-14674.0,17798.0,0.0
-4830.0,-14980.0,17765.0,0.0
-4829.0,-15269.0,17706.0,0.0
-4832.0,-15576.0,17661.0,0.0
-4839.0,-15896.0,17628.0,0.0
-4830.0,-16169.0,17536.0,0.0
-4838.0,-16507.0,17510.0,0.0
-4847.0,-16849.0,17481.0,0.0
-4833.0,-17116.0,17370.0,0.0
-4828.0,-17422.0,17294.0,0.0
-23.0,-86.0,84.0,0.0
-27.0,-99.0,95.0,0.0
-31.0,-118.0,110.0,0.0
-30.0,-115.0,104.0,0.0
-28.0,-111.0,99.0,0.0
-27.0,-108.0,94.0,0.0
-28.0,-115.0,98.0,0.0
-26.0,-109.0,90.0,0.0
-27.0,-115.0,93.0,0.0
-24.0,-105.0,83.0,0.0
-28.0,-123.0,96.0,0.0
-32.0,-141.0,106.0,0.0
-28.0,-126.0,93.0,0.0
-31.0,-143.0,104.0,0.0
-32.0,-150.0,107.0,0.0
-32.0,-151.0,105.0,0.0
-29.0,-140.0,95.0,0.0
-32.0,-158.0,104.0,0.0
-33.0,-167.0,108.0,0.0
-30.0,-156.0,98.0,0.0
-33.0,-173.0,106.0,0.0
-31.0,-167.0,100.0,0.0
-33.0,-179.0,104.0,0.0
-33.0,-180.0,103.0,0.0
-35.0,-195.0,108.0,0.0
-33.0,-193.0,104.0,0.0
-35.0,-210.0,110.0,0.0
-34.0,-207.0,106.0,0.0
-33.0,-210.0,105.0,0.0
-33.0,-208.0,101.0,0.0
-33.0,-215.0,102.0,0.0
-32.0,-215.0,99.0,0.0
-31.0,-214.0,95.0,0.0
-32.0,-223.0,97.0,0.0
-32.0,-228.0,96.0,0.0
-32.0,-232.0,95.0,0.0
-31.0,-231.0,91.0,0.0
-32.0,-242.0,93.0,0.0
-42.0,-314.0,117.0,0.0
-41.0,-317.0,114.0,0.0
-41.0,-323.0,112.0,0.0
-40.0,-326.0,109.0,0.0
-39.0,-321.0,103.0,0.0
-39.0,-334.0,103.0,0.0
-38.0,-328.0,98.0,0.0
-37.0,-331.0,95.0,0.0
-2409.0,15616.0,14709.0,0.0
-2456.0,15461.0,14878.0,0.0
-2497.0,15263.0,15004.0,0.0
-5464.0,32461.0,32601.0,0.0
-2994.0,17287.0,17738.0,0.0
-3058.0,17160.0,17989.0,0.0
-3056.0,16667.0,17852.0,0.0
-3111.0,16496.0,18054.0,0.0
-3248.0,16747.0,18729.0,0.0
-3268.0,16388.0,18730.0,0.0
-3316.0,16166.0,18883.0,0.0
-3383.0,16040.0,19150.0,0.0
-3120.0,14391.0,17563.0,0.0
-3184.0,14282.0,17818.0,0.0
0.0,0.0,0.0,0.0
-3472.0,14732.0,19217.0,0.0
-3547.0,14639.0,19531.0,0.0
-3629.0,14564.0,19876.0,0.0
-3703.0,14454.0,20182.0,0.0
-3787.0,14371.0,20534.0,0.0
-3834.0,14145.0,20685.0,0.0
-3852.0,13820.0,20690.0,0.0
-3866.0,13480.0,20664.0,0.0
-4159.0,14097.0,22134.0,0.0
-4253.0,14008.0,22533.0,0.0
-4348.0,13914.0,22936.0,0.0
-4449.0,13828.0,23367.0,0.0
-4551.0,13735.0,23797.0,0.0
-4646.0,13615.0,24199.0,0.0
-4749.0,13508.0,24636.0,0.0
-4844.0,13368.0,25027.0,0.0
-4963.0,13284.0,25540.0,0.0
-5003.0,12985.0,25648.0,0.0
-5004.0,12587.0,25554.0,0.0
-5329.0,12986.0,27114.0,0.0
-5457.0,12876.0,27660.0,0.0
-5580.0,12744.0,28183.0,0.0
-5707.0,12608.0,28719.0,0.0
-5772.0,12330.0,28948.0,0.0
-5906.0,12191.0,29519.0,0.0
-6020.0,11996.0,29982.0,0.0
-6349.0,12209.0,31518.0,0.0
-6442.0,11943.0,31870.0,0.0
-6534.0,11668.0,32217.0,0.0
-6531.0,11226.0,32100.0,0.0
0.0,0.0,0.0,0.0
0.0,0.0,0.0,0.0
0.0,0.0,0.0,0.0
-6548.0,9558.0,31780.0,0.0
-6474.0,9047.0,31330.0,0.0
-6524.0,8713.0,31480.0,0.0
-6632.0,8451.0,31904.0,0.0
-6805.0,8260.0,32642.0,0.0
-6990.0,8066.0,33431.0,0.0
-5623.0,6155.0,26814.0,0.0
-6081.0,6301.0,28916.0,0.0
-6083.0,5950.0,28846.0,0.0
-6076.0,5596.0,28732.0,0.0
-6066.0,5241.0,28604.0,0.0
-6066.0,4899.0,28524.0,0.0
-6065.0,4561.0,28449.0,0.0
-6052.0,4216.0,28309.0,0.0
-6052.0,3885.0,28232.0,0.0
-6039.0,3548.0,28099.0,0.0
-6046.0,3226.0,28062.0,0.0
-6037.0,2899.0,27943.0,0.0
-6032.0,2575.0,27851.0,0.0
-6027.0,2255.0,27758.0,0.0
-6025.0,1939.0,27672.0,0.0
-6010.0,1621.0,27539.0,0.0
-4678.0,1019.0,21381.0,0.0
-4699.0,782.0,21423.0,0.0
-4698.0,542.0,21369.0,0.0
-4696.0,301.0,21307.0,0.0
-4700.0,64.0,21274.0,0.0
-4695.0,-172.0,21200.0,0.0
-4702.0,-408.0,21179.0,0.0
-4705.0,-643.0,21139.0,0.0
-4699.0,-877.0,21060.0,0.0
-4717.0,-1114.0,21089.0,0.0
-4710.0,-1345.0,21011.0,0.0
-4710.0,-1578.0,20963.0,0.0
-4706.0,-1807.0,20897.0,0.0
-4709.0,-2040.0,20861.0,0.0
-4714.0,-2272.0,20834.0,0.0
-4717.0,-2503.0,20795.0,0.0
-4726.0,-2740.0,20790.0,0.0
-4710.0,-2958.0,20668.0,0.0
-4715.0,-3192.0,20646.0,0.0
-4714.0,-3420.0,20597.0,0.0
-4723.0,-3655.0,20584.0,0.0
-4723.0,-3885.0,20538.0,0.0
-4721.0,-4112.0,20481.0,0.0
-4720.0,-4339.0,20429.0,0.0
-4730.0,-4578.0,20427.0,0.0
-4715.0,-4793.0,20317.0,0.0
-4717.0,-5024.0,20279.0,0.0
-4728.0,-5264.0,20280.0,0.0
-4734.0,-5501.0,20257.0,0.0
-4729.0,-5727.0,20191.0,0.0
-4733.0,-5963.0,20163.0,0.0
-4727.0,-6186.0,20090.0,0.0
-4736.0,-6430.0,20083.0,0.0
-4734.0,-6662.0,20030.0,0.0
-4736.0,-6897.0,19990.0,0.0
-4738.0,-7136.0,19955.0,0.0
-4738.0,-7372.0,19911.0,0.0
-4736.0,-7604.0,19854.0,0.0
-4734.0,-7836.0,19797.0,0.0
-4729.0,-8067.0,19733.0,0.0
-4738.0,-8321.0,19723.0,0.0
-4740.0,-8564.0,19683.0,0.0
-4741.0,-8809.0,19643.0,0.0
-4746.0,-9059.0,19614.0,0.0
-4746.0,-9307.0,19574.0,0.0
-4747.0,-9553.0,19525.0,0.0
-4744.0,-9795.0,19470.0,0.0
-4744.0,-10044.0,19421.0,0.0
-4751.0,-10311.0,19405.0,0.0
-4738.0,-10534.0,19303.0,0.0
-4748.0,-10811.0,19295.0,0.0
-4751.0,-11077.0,19263.0,0.0
-4745.0,-11320.0,19189.0,0.0
-4746.0,-11584.0,19148.0,0.0
-4751.0,-11858.0,19117.0,0.0
-4745.0,-12110.0,19047.0,0.0
-4751.0,-12392.0,19021.0,0.0
-4750.0,-12659.0,18968.0,0.0
-4745.0,-12921.0,18902.0,0.0
-4751.0,-13212.0,18875.0,0.0
-4751.0,-13490.0,18824.0,0.0
-4752.0,-13776.0,18780.0,0.0
-4756.0,-14073.0,18744.0,0.0
-4761.0,-14374.0,18711.0,0.0
-4762.0,-14668.0,18662.0,0.0
-4761.0,-14960.0,18605.0,0.0
-4758.0,-15250.0,18541.0,0.0
-4771.0,-15596.0,18540.0,0.0
-4759.0,-15866.0,18442.0,0.0
-4766.0,-16200.0,18415.0,0.0
-4768.0,-16523.0,18369.0,0.0
-4757.0,-16803.0,18270.0,0.0
-4767.0,-17164.0,18254.0,0.0
-4762.0,-17475.0,18178.0,0.0
-5588.0,-20894.0,21260.0,0.0
-5521.0,-21036.0,20938.0,0.0
-21.0,-82.0,80.0,0.0
-28.0,-112.0,108.0,0.0
-27.0,-110.0,103.0,0.0
-28.0,-117.0,107.0,0.0
-28.0,-117.0,105.0,0.0
-26.0,-109.0,95.0,0.0
-25.0,-107.0,91.0,0.0
-26.0,-114.0,94.0,0.0
-25.0,-110.0,89.0,0.0
-24.0,-109.0,87.0,0.0
-25.0,-116.0,91.0,0.0
-26.0,-123.0,94.0,0.0
-26.0,-127.0,95.0,0.0
-29.0,-142.0,103.0,0.0
-27.0,-139.0,98.0,0.0
-27.0,-141.0,98.0,0.0
-31.0,-159.0,108.0,0.0
-32.0,-169.0,112.0,0.0
-31.0,-166.0,107.0,0.0
-30.0,-166.0,105.0,0.0
-29.0,-164.0,101.0,0.0
-31.0,-176.0,105.0,0.0
-31.0,-184.0,108.0,0.0
-31.0,-190.0,108.0,0.0
-32.0,-199.0,111.0,0.0
-31.0,-196.0,107.0,0.0
-31.0,-197.0,104.0,0.0
-32.0,-207.0,107.0,0.0
-33.0,-218.0,110.0,0.0
-33.0,-223.0,109.0,0.0
-32.0,-221.0,105.0,0.0
-32.0,-227.0,105.0,0.0
-32.0,-229.0,102.0,0.0
-31.0,-228.0,100.0,0.0
-30.0,-227.0,96.0,0.0
-31.0,-235.0,97.0,0.0
-29.0,-228.0,91.0,0.0
-31.0,-245.0,94.0,0.0
-38.0,-306.0,114.0,0.0
-37.0,-313.0,113.0,0.0
-37.0,-318.0,111.0,0.0
-36.0,-323.0,109.0,0.0
-35.0,-325.0,106.0,0.0
-36.0,-327.0,102.0,0.0
-34.0,-324.0,98.0,0.0
-34.0,-327.0,94.0,0.0
-5677.0,39910.0,37723.0,0.0
-2240.0,15280.0,14754.0,0.0
-2280.0,15087.0,14882.0,0.0
-5030.0,32300.0,32549.0,0.0
-2774.0,17291.0,17802.0,0.0
-2816.0,17041.0,17925.0,0.0
-2810.0,16515.0,17749.0,0.0
-2991.0,17073.0,18748.0,0.0
-3033.0,16817.0,18871.0,0.0
-2779.0,14967.0,17163.0,0.0
-3072.0,16076.0,18840.0,0.0
-2796.0,14221.0,17033.0,0.0
-2966.0,14663.0,17954.0,0.0
-2992.0,14372.0,17991.0,0.0
-3020.0,14099.0,18046.0,0.0
-3575.0,16223.0,21234.0,0.0
-3563.0,15712.0,21033.0,0.0
-3631.0,15562.0,21310.0,0.0
-3672.0,15296.0,21429.0,0.0
-3521.0,14250.0,20429.0,0.0
-3503.0,13781.0,20221.0,0.0
-3539.0,13527.0,20318.0,0.0
-3627.0,13466.0,20714.0,0.0
-3676.0,13256.0,20883.0,0.0
-4022.0,14085.0,22734.0,0.0
-4110.0,13979.0,23122.0,0.0
-4185.0,13817.0,23426.0,0.0
-4272.0,13691.0,23803.0,0.0
-4371.0,13595.0,24245.0,0.0
-4468.0,13480.0,24670.0,0.0
-4567.0,13363.0,25103.0,0.0
-4675.0,13262.0,25587.0,0.0
-4660.0,12814.0,25399.0,0.0
-4735.0,12613.0,25696.0,0.0
-4784.0,12342.0,25859.0,0.0
-5143.0,12841.0,27682.0,0.0
-5253.0,12691.0,28165.0,0.0
-5386.0,12581.0,28762.0,0.0
-5445.0,12293.0,28967.0,0.0
-5578.0,12165.0,29565.0,0.0
-5675.0,11947.0,29968.0,0.0
-6015.0,12213.0,31645.0,0.0
-6121.0,11979.0,32088.0,0.0
-6156.0,11602.0,32156.0,0.0
0.0,0.0,0.0,0.0
0.0,0.0,0.0,0.0
0.0,0.0,0.0,0.0
0.0,0.0,0.0,0.0
-6161.0,9477.0,31635.0,0.0
-6107.0,8988.0,31258.0,0.0
-6162.0,8664.0,31436.0,0.0
-6282.0,8426.0,31946.0,0.0
-6438.0,8222.0,32635.0,0.0
-6623.0,8040.0,33469.0,0.0
-5605.0,6453.0,28241.0,0.0
-5419.0,5905.0,27222.0,0.0
-5756.0,5919.0,28826.0,0.0
-5750.0,5564.0,28710.0,0.0
-5744.0,5215.0,28600.0,0.0
-5745.0,4873.0,28522.0,0.0
-5736.0,4528.0,28395.0,0.0
-5732.0,4190.0,28293.0,0.0
-5730.0,3859.0,28209.0,0.0
-5713.0,3520.0,28049.0,0.0
-5715.0,3196.0,27982.0,0.0
-5570.0,2801.0,27195.0,0.0
-5666.0,2532.0,27591.0,0.0
-5671.0,2219.0,27539.0,0.0
-5702.0,1917.0,27617.0,0.0
-5696.0,1602.0,27515.0,0.0
-5695.0,1291.0,27439.0,0.0
-4631.0,799.0,22258.0,0.0
-4637.0,551.0,22232.0,0.0
-4638.0,303.0,22174.0,0.0
-4634.0,55.0,22101.0,0.0
-4639.0,-189.0,22071.0,0.0
-4640.0,-434.0,22022.0,0.0
-4638.0,-677.0,21955.0,0.0
-4643.0,-921.0,21927.0,0.0
-4643.0,-1163.0,21875.0,0.0
-4648.0,-1406.0,21847.0,0.0
-4650.0,-1647.0,21802.0,0.0
-4651.0,-1888.0,21753.0,0.0
-4636.0,-2121.0,21634.0,0.0
-4645.0,-2363.0,21622.0,0.0
-4657.0,-2609.0,21626.0,0.0
-4659.0,-2848.0,21584.0,0.0
-4647.0,-3079.0,21482.0,0.0
-4663.0,-3328.0,21509.0,0.0
-4652.0,-3556.0,21406.0,0.0
-4651.0,-3793.0,21353.0,0.0
-4664.0,-4041.0,21365.0,0.0
-4662.0,-4277.0,21305.0,0.0
-4663.0,-4515.0,21260.0,0.0
-4658.0,-4748.0,21190.0,0.0
-4662.0,-4990.0,21161.0,0.0
-4671.0,-5237.0,21151.0,0.0
-4669.0,-5474.0,21099.0,0.0
-4668.0,-5712.0,21046.0,0.0
-4681.0,-5967.0,21055.0,0.0
-4677.0,-6202.0,20991.0,0.0
-4679.0,-6446.0,20951.0,0.0
-4676.0,-6684.0,20896.0,0.0
-4680.0,-6931.0,20865.0,0.0
-4679.0,-7172.0,20810.0,0.0
-4685.0,-7425.0,20790.0,0.0
-4683.0,-7668.0,20737.0,0.0
-4675.0,-7901.0,20656.0,0.0
-4678.0,-8152.0,20621.0,0.0
-4683.0,-8409.0,20597.0,0.0
-4677.0,-8649.0,20527.0,0.0
-4683.0,-8910.0,20508.0,0.0
-4684.0,-9165.0,20467.0,0.0
-4691.0,-9432.0,20451.0,0.0
-4686.0,-9676.0,20382.0,0.0
-4687.0,-9937.0,20344.0,0.0
-4675.0,-10168.0,20240.0,0.0
-4689.0,-10458.0,20255.0,0.0
-4681.0,-10704.0,20179.0,0.0
-4690.0,-10988.0,20169.0,0.0
-4685.0,-11243.0,20102.0,0.0
-4685.0,-11513.0,20057.0,0.0
-4679.0,-11768.0,19985.0,0.0
-4683.0,-12048.0,19953.0,0.0
-4694.0,-12353.0,19953.0,0.0
-4697.0,-12640.0,19919.0,0.0
-4682.0,-12881.0,19810.0,0.0
-4686.0,-13173.0,19777.0,0.0
-4693.0,-13479.0,19759.0,0.0
-4678.0,-13729.0,19652.0,0.0
-4679.0,-14021.0,19606.0,0.0
-4688.0,-14346.0,19597.0,0.0
-4687.0,-14640.0,19542.0,0.0
-4683.0,-14933.0,19481.0,0.0
-4694.0,-15274.0,19476.0,0.0
-4705.0,-15624.0,19475.0,0.0
-4696.0,-15910.0,19387.0,0.0
-4697.0,-16233.0,19342.0,0.0
-4700.0,-16565.0,19301.0,0.0
-4704.0,-16910.0,19268.0,0.0
-4702.0,-17236.0,19208.0,0.0
-4705.0,-17586.0,19169.0,0.0
-5509.0,-20994.0,22384.0,0.0
-5350.0,-20789.0,21680.0,0.0
-5273.0,-20887.0,21308.0,0.0
-5191.0,-20961.0,20918.0,0.0
-22.0,-87.0,85.0,0.0
-19.0,-78.0,76.0,0.0
-22.0,-97.0,90.0,0.0
-24.0,-104.0,94.0,0.0
-24.0,-107.0,96.0,0.0
-25.0,-111.0,97.0,0.0
-22.0,-98.0,85.0,0.0
-22.0,-104.0,87.0,0.0
-24.0,-116.0,95.0,0.0
-22.0,-108.0,86.0,0.0
-22.0,-111.0,88.0,0.0
-22.0,-114.0,87.0,0.0
-22.0,-114.0,85.0,0.0
-25.0,-131.0,96.0,0.0
-25.0,-138.0,98.0,0.0
-25.0,-142.0,98.0,0.0
-25.0,-139.0,94.0,0.0
-27.0,-156.0,104.0,0.0
-28.0,-161.0,104.0,0.0
-25.0,-150.0,95.0,0.0
-26.0,-160.0,99.0,0.0
-28.0,-173.0,104.0,0.0
-28.0,-181.0,107.0,0.0
-28.0,-178.0,102.0,0.0
-29.0,-190.0,106.0,0.0
-28.0,-187.0,102.0,0.0
-28.0,-194.0,103.0,0.0
-29.0,-201.0,105.0,0.0
-29.0,-205.0,104.0,0.0
-28.0,-203.0,99.0,0.0
-28.0,-209.0,100.0,0.0
-28.0,-211.0,97.0,0.0
-28.0,-220.0,99.0,0.0
-27.0,-216.0,95.0,0.0
-26.0,-214.0,91.0,0.0
-27.0,-226.0,93.0,0.0
-26.0,-224.0,89.0,0.0
-27.0,-234.0,91.0,0.0
-32.0,-291.0,109.0,0.0
-34.0,-313.0,114.0,0.0
-33.0,-317.0,111.0,0.0
-33.0,-320.0,109.0,0.0
-32.0,-323.0,106.0,0.0
-32.0,-319.0,100.0,0.0
-31.0,-322.0,97.0,0.0
-31.0,-326.0,95.0,0.0
-1999.0,15361.0,14567.0,0.0
-2040.0,15179.0,14704.0,0.0
-2074.0,14955.0,14799.0,0.0
-4608.0,32205.0,32560.0,0.0
-2549.0,17267.0,17834.0,0.0
-4733.0,31102.0,32820.0,0.0
-4716.0,30054.0,32402.0,0.0
-2765.0,17091.0,18828.0,0.0
-2780.0,16678.0,18775.0,0.0
-2738.0,15943.0,18341.0,0.0
-2827.0,15975.0,18782.0,0.0
-2691.0,14764.0,17740.0,0.0
-2741.0,14602.0,17936.0,0.0
-2762.0,14281.0,17935.0,0.0
-2793.0,14028.0,18013.0,0.0
-3367.0,16423.0,21563.0,0.0
-3384.0,16025.0,21520.0,0.0
-3394.0,15608.0,21441.0,0.0
-3394.0,15161.0,21308.0,0.0
-3409.0,14790.0,21270.0,0.0
-3208.0,13510.0,19886.0,0.0
-3253.0,13306.0,20052.0,0.0
-3421.0,13585.0,20965.0,0.0
-3451.0,13302.0,21025.0,0.0
-4972.0,18599.0,30116.0,0.0
-5086.0,18467.0,30646.0,0.0
-5147.0,18133.0,30844.0,0.0
-4506.0,15397.0,26857.0,0.0
-4621.0,15317.0,27407.0,0.0
-4695.0,15088.0,27705.0,0.0
-4725.0,14720.0,27744.0,0.0
-4716.0,14236.0,27557.0,0.0
-4449.0,13012.0,25880.0,0.0
-4512.0,12779.0,26125.0,0.0
-4506.0,12353.0,25970.0,0.0
-4840.0,12837.0,27768.0,0.0
-4935.0,12658.0,28189.0,0.0
-5071.0,12573.0,28843.0,0.0
-5122.0,12270.0,29013.0,0.0
-5251.0,12143.0,29615.0,0.0
-5336.0,11906.0,29972.0,0.0
-5751.0,12373.0,32177.0,0.0
-5769.0,11959.0,32150.0,0.0
0.0,0.0,0.0,0.0
0.0,0.0,0.0,0.0
0.0,0.0,0.0,0.0
-5797.0,10266.0,31823.0,0.0
0.0,0.0,0.0,0.0
0.0,0.0,0.0,0.0
-5752.0,8945.0,31232.0,0.0
-5822.0,8647.0,31500.0,0.0
-5942.0,8418.0,32046.0,0.0
-6102.0,8228.0,32794.0,0.0
-6261.0,8022.0,33538.0,0.0
-5280.0,6415.0,28195.0,0.0
-5145.0,5913.0,27382.0,0.0
-5417.0,5873.0,28738.0,0.0
-5423.0,5531.0,28676.0,0.0
-5423.0,5186.0,28587.0,0.0
-5422.0,4844.0,28495.0,0.0
-5417.0,4503.0,28385.0,0.0
-5414.0,4166.0,28288.0,0.0
-5419.0,3839.0,28225.0,0.0
-5408.0,3504.0,28088.0,0.0
-5406.0,3177.0,27994.0,0.0
-5091.0,2689.0,26290.0,0.0
-5143.0,2412.0,26487.0,0.0
-5228.0,2145.0,26846.0,0.0
-5393.0,1899.0,27619.0,0.0
-5386.0,1585.0,27509.0,0.0
-5389.0,1276.0,27445.0,0.0
-5380.0,967.0,27330.0,0.0
-4578.0,562.0,23189.0,0.0
-4572.0,304.0,23102.0,0.0
-4580.0,47.0,23081.0,0.0
-4567.0,-207.0,22957.0,0.0
-4582.0,-463.0,22972.0,0.0
-4575.0,-716.0,22882.0,0.0
-4576.0,-968.0,22827.0,0.0
-4582.0,-1221.0,22800.0,0.0
-4579.0,-1470.0,22730.0,0.0
-4584.0,-1722.0,22701.0,0.0
-4583.0,-1970.0,22636.0,0.0
-4583.0,-2220.0,22587.0,0.0
-4583.0,-2468.0,22531.0,0.0
-4587.0,-2717.0,22497.0,0.0
-4578.0,-2959.0,22400.0,0.0
-4586.0,-3211.0,22385.0,0.0
-4587.0,-3458.0,22341.0,0.0
-4594.0,-3710.0,22321.0,0.0
-4591.0,-3955.0,22258.0,0.0
-4600.0,-4209.0,22252.0,0.0
-4589.0,-4446.0,22148.0,0.0
-4595.0,-4698.0,22125.0,0.0
-4591.0,-4941.0,22059.0,0.0
-4587.0,-5183.0,21988.0,0.0
-4603.0,-5450.0,22017.0,0.0
-4598.0,-5689.0,21941.0,0.0
-4598.0,-5939.0,21896.0,0.0
-4600.0,-6189.0,21854.0,0.0
-4599.0,-6438.0,21804.0,0.0
-4604.0,-6695.0,21782.0,0.0
-4597.0,-6936.0,21703.0,0.0
-4616.0,-7216.0,21743.0,0.0
-4603.0,-7449.0,21636.0,0.0
-4611.0,-7715.0,21625.0,0.0
-4597.0,-7948.0,21517.0,0.0
-4607.0,-8219.0,21513.0,0.0
-4604.0,-8470.0,21453.0,0.0
-4600.0,-8722.0,21391.0,0.0
-4604.0,-8989.0,21362.0,0.0
-4612.0,-9264.0,21352.0,0.0
-4614.0,-9532.0,21318.0,0.0
-4620.0,-9811.0,21303.0,0.0
-4614.0,-10063.0,21226.0,0.0
-4616.0,-10334.0,21189.0,0.0
-4609.0,-10589.0,21114.0,0.0
-4607.0,-10855.0,21058.0,0.0
-4617.0,-11156.0,21065.0,0.0
-4622.0,-11443.0,21039.0,0.0
-4613.0,-11698.0,20952.0,0.0
-4618.0,-11995.0,20934.0,0.0
-4621.0,-12286.0,20902.0,0.0
-4613.0,-12550.0,20820.0,0.0
-4624.0,-12869.0,20825.0,0.0
-4625.0,-13163.0,20783.0,0.0
-4623.0,-13453.0,20731.0,0.0
-4616.0,-13733.0,20657.0,0.0
-4619.0,-14041.0,20622.0,0.0
-4623.0,-14359.0,20597.0,0.0
-4625.0,-14676.0,20564.0,0.0
-4629.0,-14999.0,20533.0,0.0
-4632.0,-15324.0,20498.0,0.0
-4621.0,-15610.0,20406.0,0.0
-4623.0,-15942.0,20371.0,0.0
-4620.0,-16260.0,20311.0,0.0
-4618.0,-16587.0,20259.0,0.0
-4607.0,-16882.0,20160.0,0.0
-4607.0,-17225.0,20116.0,0.0
-4610.0,-17583.0,20083.0,0.0
-4619.0,-17971.0,20074.0,0.0
-5181.0,-20559.0,22463.0,0.0
-5176.0,-20949.0,22390.0,0.0
-5029.0,-20759.0,21704.0,0.0
-5017.0,-21117.0,21596.0,0.0
-5054.0,-21696.0,21706.0,0.0
-5166.0,-22614.0,22133.0,0.0
-19.0,-88.0,84.0,0.0
-20.0,-87.0,82.0,0.0
-23.0,-105.0,96.0,0.0
-21.0,-98.0,88.0,0.0
-22.0,-104.0,91.0,0.0
-23.0,-110.0,95.0,0.0
-21.0,-105.0,87.0,0.0
-23.0,-113.0,93.0,0.0
-22.0,-113.0,91.0,0.0
-22.0,-119.0,93.0,0.0
-24.0,-131.0,100.0,0.0
-25.0,-134.0,100.0,0.0
-25.0,-141.0,103.0,0.0
-23.0,-133.0,96.0,0.0
-24.0,-137.0,96.0,0.0
-24.0,-146.0,100.0,0.0
-27.0,-163.0,108.0,0.0
-27.0,-164.0,107.0,0.0
-27.0,-169.0,108.0,0.0
-27.0,-179.0,111.0,0.0
-27.0,-178.0,108.0,0.0
-29.0,-196.0,116.0,0.0
-27.0,-187.0,108.0,0.0
-28.0,-197.0,110.0,0.0
-27.0,-193.0,105.0,0.0
-27.0,-196.0,104.0,0.0
-28.0,-206.0,107.0,0.0
-27.0,-206.0,104.0,0.0
-26.0,-204.0,100.0,0.0
-27.0,-223.0,107.0,0.0
-27.0,-223.0,103.0,0.0
-26.0,-222.0,100.0,0.0
-26.0,-220.0,97.0,0.0
-25.0,-218.0,93.0,0.0
-25.0,-229.0,95.0,0.0
-26.0,-239.0,96.0,0.0
-24.0,-229.0,89.0,0.0
-29.0,-284.0,107.0,0.0
-31.0,-315.0,115.0,0.0
-30.0,-314.0,111.0,0.0
-29.0,-318.0,108.0,0.0
-29.0,-320.0,105.0,0.0
-28.0,-322.0,102.0,0.0
-28.0,-318.0,97.0,0.0
-27.0,-322.0,95.0,0.0
0.0,0.0,0.0,0.0
-1835.0,15036.0,14612.0,0.0
-1874.0,14860.0,14752.0,0.0
-4180.0,32058.0,32511.0,0.0
-4169.0,30950.0,32066.0,0.0
-4246.0,30521.0,32308.0,0.0
-4206.0,29284.0,31669.0,0.0
-2530.0,17067.0,18859.0,0.0
-2555.0,16703.0,18860.0,0.0
-2563.0,16239.0,18739.0,0.0
-2576.0,15824.0,18661.0,0.0
-2592.0,15438.0,18609.0,0.0
-2605.0,15044.0,18537.0,0.0
-2611.0,14631.0,18431.0,0.0
-2627.0,14278.0,18390.0,0.0
-2642.0,13928.0,18344.0,0.0
-3116.0,15945.0,21479.0,0.0
-3132.0,15548.0,21424.0,0.0
-3139.0,15118.0,21314.0,0.0
-3152.0,14728.0,21249.0,0.0
-2972.0,13478.0,19901.0,0.0
-3023.0,13299.0,20105.0,0.0
-3169.0,13526.0,20936.0,0.0
-3202.0,13259.0,21021.0,0.0
-4651.0,18679.0,30341.0,0.0
-4729.0,18419.0,30660.0,0.0
-4783.0,18061.0,30820.0,0.0
-5234.0,19162.0,33529.0,0.0
-5251.0,18634.0,33449.0,0.0
-4401.0,15134.0,27876.0,0.0
-4412.0,14699.0,27792.0,0.0
-4419.0,14259.0,27690.0,0.0
-4189.0,13087.0,26109.0,0.0
-4215.0,12744.0,26137.0,0.0
-4267.0,12481.0,26324.0,0.0
-4296.0,12153.0,26375.0,0.0
-4616.0,12624.0,28206.0,0.0
-4768.0,12597.0,28996.0,0.0
-4937.0,12595.0,29882.0,0.0
-5015.0,12345.0,30210.0,0.0
-5226.0,12409.0,31344.0,0.0
-5296.0,12119.0,31623.0,0.0
-5391.0,11883.0,32058.0,0.0
0.0,0.0,0.0,0.0
0.0,0.0,0.0,0.0
0.0,0.0,0.0,0.0
0.0,0.0,0.0,0.0
-5472.0,9860.0,31876.0,0.0
0.0,0.0,0.0,0.0
-5412.0,8928.0,31290.0,0.0
-5471.0,8615.0,31507.0,0.0
-5589.0,8392.0,32074.0,0.0
-5751.0,8215.0,32877.0,0.0
-5904.0,8012.0,33636.0,0.0
-4979.0,6404.0,28263.0,0.0
-4844.0,5891.0,27403.0,0.0
-4938.0,5665.0,27841.0,0.0
-5094.0,5495.0,28620.0,0.0
-5104.0,5162.0,28583.0,0.0
-5105.0,4820.0,28494.0,0.0
-5098.0,4477.0,28362.0,0.0
-5100.0,4145.0,28285.0,0.0
-5096.0,3811.0,28177.0,0.0
-5093.0,3481.0,28070.0,0.0
-5093.0,3157.0,27984.0,0.0
-4926.0,2742.0,26988.0,0.0
-4949.0,2445.0,27035.0,0.0
-4924.0,2126.0,26820.0,0.0
-5084.0,1882.0,27610.0,0.0
-5080.0,1570.0,27507.0,0.0
-5079.0,1260.0,27427.0,0.0
-5074.0,952.0,27324.0,0.0
-4551.0,580.0,24437.0,0.0
-4510.0,306.0,24151.0,0.0
-4504.0,38.0,24056.0,0.0
-4506.0,-227.0,23998.0,0.0
-4501.0,-492.0,23912.0,0.0
-4498.0,-754.0,23839.0,0.0
-4506.0,-1018.0,23814.0,0.0
-4501.0,-1278.0,23730.0,0.0
-4507.0,-1540.0,23698.0,0.0
-4507.0,-1801.0,23643.0,0.0
-4503.0,-2057.0,23563.0,0.0
-4504.0,-2316.0,23509.0,0.0
-4510.0,-2577.0,23487.0,0.0
-4500.0,-2828.0,23374.0,0.0
-4504.0,-3087.0,23341.0,0.0
-4512.0,-3349.0,23326.0,0.0
-4511.0,-3604.0,23266.0,0.0
-4512.0,-3862.0,23220.0,0.0
-4513.0,-4119.0,23171.0,0.0
-4508.0,-4370.0,23096.0,0.0
-4505.0,-4623.0,23026.0,0.0
-4507.0,-4879.0,22981.0,0.0
-4578.0,-5217.0,23293.0,0.0
-4549.0,-5443.0,23100.0,0.0
-4576.0,-5735.0,23183.0,0.0
-4585.0,-6007.0,23179.0,0.0
-4583.0,-6265.0,23115.0,0.0
-4600.0,-6552.0,23152.0,0.0
-4578.0,-6784.0,22992.0,0.0
-4627.0,-7122.0,23187.0,0.0
-4573.0,-7305.0,22874.0,0.0
-4698.0,-7775.0,23448.0,0.0
-4713.0,-8074.0,23474.0,0.0
-4708.0,-8339.0,23399.0,0.0
-4698.0,-8597.0,23302.0,0.0
-4709.0,-8895.0,23308.0,0.0
-4703.0,-9162.0,23234.0,0.0
-4710.0,-9456.0,23218.0,0.0
-4704.0,-9725.0,23143.0,0.0
-4706.0,-10012.0,23106.0,0.0
-4706.0,-10297.0,23059.0,0.0
-4681.0,-10529.0,22893.0,0.0
-4693.0,-10843.0,22907.0,0.0
-4689.0,-11126.0,22845.0,0.0
