//X,Y,Z,Classification
1137.0,-11041.0,22531.0,0.0
1160.0,-11397.0,22635.0,0.0
1177.0,-11682.0,22594.0,0.0
1192.0,-11959.0,22533.0,0.0
1209.0,-12236.0,22467.0,0.0
1211.0,-12356.0,22116.0,0.0
1244.0,-12797.0,22335.0,0.0
1263.0,-13078.0,22267.0,0.0
1280.0,-13349.0,22178.0,0.0
1298.0,-13614.0,22078.0,0.0
1299.0,-13691.0,21675.0,0.0
1300.0,-13767.0,21284.0,0.0
1326.0,-14097.0,21287.0,0.0
1346.0,-14360.0,21185.0,0.0
1368.0,-14633.0,21097.0,0.0
1391.0,-14921.0,21023.0,0.0
1417.0,-15224.0,20968.0,0.0
1441.0,-15509.0,20883.0,0.0
1469.0,-15829.0,20843.0,0.0
1493.0,-16097.0,20727.0,0.0
1525.0,-16444.0,20709.0,0.0
1544.0,-16654.0,20515.0,0.0
1520.0,-16387.0,19749.0,0.0
1543.0,-16614.0,19588.0,0.0
1573.0,-16917.0,19516.0,0.0
1604.0,-17227.0,19446.0,0.0
1634.0,-17516.0,19347.0,0.0
1666.0,-17828.0,19269.0,0.0
1703.0,-18172.0,19222.0,0.0
1738.0,-18506.0,19157.0,0.0
1774.0,-18830.0,19078.0,0.0
1812.0,-19175.0,19012.0,0.0
1851.0,-19517.0,18939.0,0.0
1892.0,-19887.0,18887.0,0.0
8.0,-99.0,91.0,0.0
1974.0,-20572.0,18711.0,0.0
10.0,-112.0,100.0,0.0
10.0,-102.0,90.0,0.0
10.0,-115.0,98.0,0.0
11.0,-124.0,103.0,0.0
10.0,-115.0,93.0,0.0
11.0,-125.0,99.0,0.0
12.0,-130.0,100.0,0.0
12.0,-130.0,99.0,0.0
12.0,-135.0,101.0,0.0
15.0,-151.0,110.0,0.0
13.0,-139.0,98.0,0.0
15.0,-158.0,109.0,0.0
14.0,-145.0,98.0,0.0
16.0,-163.0,108.0,0.0
16.0,-167.0,108.0,0.0
17.0,-168.0,107.0,0.0
18.0,-176.0,108.0,0.0
20.0,-191.0,115.0,0.0
19.0,-190.0,112.0,0.0
20.0,-191.0,109.0,0.0
21.0,-199.0,112.0,0.0
22.0,-205.0,112.0,0.0
22.0,-207.0,110.0,0.0
24.0,-225.0,117.0,0.0
25.0,-236.0,119.0,0.0
26.0,-237.0,116.0,0.0
26.0,-236.0,112.0,0.0
27.0,-242.0,113.0,0.0
28.0,-249.0,113.0,0.0
28.0,-249.0,110.0,0.0
30.0,-262.0,112.0,0.0
29.0,-259.0,107.0,0.0
31.0,-271.0,109.0,0.0
32.0,-269.0,104.0,0.0
32.0,-272.0,103.0,0.0
36.0,-296.0,108.0,0.0
38.0,-317.0,112.0,0.0
38.0,-313.0,106.0,0.0
38.0,-315.0,103.0,0.0
37.0,-309.0,98.0,0.0
2089.0,13240.0,13053.0,0.0
2072.0,13133.0,13225.0,0.0
2071.0,13127.0,13504.0,0.0
2068.0,13097.0,13763.0,0.0
2045.0,12951.0,13903.0,0.0
2118.0,13405.0,14702.0,0.0
2043.0,12915.0,14473.0,0.0
2031.0,12833.0,14694.0,0.0
2315.0,14605.0,17087.0,0.0
2263.0,14260.0,17051.0,0.0
1880.0,11820.0,14444.0,0.0
1869.0,11733.0,14658.0,0.0
2117.0,13260.0,16932.0,0.0
2131.0,13314.0,17382.0,0.0
2138.0,13321.0,17784.0,0.0
2144.0,13322.0,18188.0,0.0
2154.0,13338.0,18627.0,0.0
2160.0,13329.0,19041.0,0.0
2164.0,13294.0,19434.0,0.0
2158.0,13205.0,19755.0,0.0
2159.0,13147.0,20134.0,0.0
2187.0,13250.0,20775.0,0.0
2175.0,13107.0,21047.0,0.0
2142.0,12837.0,21115.0,0.0
2093.0,12463.0,21006.0,0.0
1977.0,11689.0,20194.0,0.0
1982.0,11640.0,20616.0,0.0
1958.0,11410.0,20728.0,0.0
1962.0,11337.0,21130.0,0.0
2390.0,13697.0,26200.0,0.0
2344.0,13308.0,26138.0,0.0
2283.0,12837.0,25900.0,0.0
2013.0,11203.0,23230.0,0.0
2348.0,12918.0,27540.0,0.0
2321.0,12622.0,27678.0,0.0
2107.0,11318.0,25544.0,0.0
2032.0,10774.0,25041.0,0.0
2017.0,10545.0,25257.0,0.0
2450.0,12621.0,31170.0,0.0
2011.0,10199.0,25990.0,0.0
2009.0,10021.0,26369.0,0.0
2261.0,11087.0,30149.0,0.0
2359.0,11349.0,31916.0,0.0
2317.0,10931.0,31825.0,0.0
2276.0,10516.0,31728.0,0.0
2237.0,10108.0,31635.0,0.0
2198.0,9705.0,31541.0,0.0
2163.0,9308.0,31454.0,0.0
1847.0,7746.0,27250.0,0.0
2102.0,8566.0,31420.0,0.0
1865.0,7374.0,28246.0,0.0
1777.0,6812.0,27293.0,0.0
1736.0,6429.0,26994.0,0.0
1700.0,6068.0,26756.0,0.0
1687.0,5795.0,26897.0,0.0
1664.0,5483.0,26849.0,0.0
1554.0,4896.0,25367.0,0.0
1532.0,4600.0,25293.0,0.0
1507.0,4295.0,25151.0,0.0
1487.0,4008.0,25105.0,0.0
1465.0,3711.0,24972.0,0.0
1454.0,3447.0,25047.0,0.0
1435.0,3164.0,24972.0,0.0
1418.0,2883.0,24909.0,0.0
1403.0,2608.0,24878.0,0.0
1387.0,2329.0,24795.0,0.0
1373.0,2058.0,24773.0,0.0
1359.0,1785.0,24713.0,0.0
1347.0,1516.0,24675.0,0.0
1331.0,1243.0,24561.0,0.0
1324.0,980.0,24609.0,0.0
1283.0,697.0,23999.0,0.0
1293.0,444.0,24331.0,0.0
1314.0,187.0,24877.0,0.0
1279.0,-79.0,24337.0,0.0
1265.0,-340.0,24204.0,0.0
1259.0,-600.0,24184.0,0.0
1252.0,-860.0,24161.0,0.0
1232.0,-1106.0,23867.0,0.0
1239.0,-1376.0,24075.0,0.0
1258.0,-1666.0,24516.0,0.0
1268.0,-1951.0,24757.0,0.0
1269.0,-2226.0,24835.0,0.0
1265.0,-2490.0,24773.0,0.0
1258.0,-2750.0,24683.0,0.0
1254.0,-3010.0,24609.0,0.0
1251.0,-3271.0,24550.0,0.0
1247.0,-3530.0,24470.0,0.0
1233.0,-3754.0,24181.0,0.0
1243.0,-4045.0,24326.0,0.0
1216.0,-4216.0,23765.0,0.0
1241.0,-4562.0,24202.0,0.0
1241.0,-4822.0,24149.0,0.0
1241.0,-5076.0,24070.0,0.0
1243.0,-5338.0,24025.0,0.0
1246.0,-5598.0,23972.0,0.0
1229.0,-5768.0,23555.0,0.0
1248.0,-6102.0,23810.0,0.0
1253.0,-6365.0,23770.0,0.0
1257.0,-6623.0,23707.0,0.0
1261.0,-6877.0,23633.0,0.0
1266.0,-7135.0,23570.0,0.0
1240.0,-7204.0,22905.0,0.0
1256.0,-7517.0,23031.0,0.0
1254.0,-7720.0,22819.0,0.0
1260.0,-7963.0,22726.0,0.0
1297.0,-8407.0,23192.0,0.0
1305.0,-8661.0,23114.0,0.0
1314.0,-8919.0,23042.0,0.0
1290.0,-8944.0,22388.0,0.0
1327.0,-9396.0,22802.0,0.0
1323.0,-9545.0,22476.0,0.0
1335.0,-9811.0,22426.0,0.0
1335.0,-9986.0,22173.0,0.0
1351.0,-10266.0,22155.0,0.0
1363.0,-10517.0,22071.0,0.0
1376.0,-10769.0,21989.0,0.0
1388.0,-11022.0,21902.0,0.0
1405.0,-11292.0,21851.0,0.0
1422.0,-11576.0,21822.0,0.0
1436.0,-11817.0,21708.0,0.0
1454.0,-12093.0,21657.0,0.0
1472.0,-12375.0,21612.0,0.0
1489.0,-12630.0,21517.0,0.0
1512.0,-12931.0,21496.0,0.0
1530.0,-13196.0,21410.0,0.0
1553.0,-13490.0,21369.0,0.0
1571.0,-13741.0,21257.0,0.0
1597.0,-14063.0,21248.0,0.0
1620.0,-14352.0,21185.0,0.0
1643.0,-14632.0,21107.0,0.0
1668.0,-14923.0,21037.0,0.0
1693.0,-15209.0,20961.0,0.0
1719.0,-15502.0,20887.0,0.0
1747.0,-15817.0,20837.0,0.0
1803.0,-16369.0,21089.0,0.0
1807.0,-16450.0,20729.0,0.0
1804.0,-16459.0,20288.0,0.0
1789.0,-16357.0,19724.0,0.0
1809.0,-16559.0,19534.0,0.0
1842.0,-16883.0,19487.0,0.0
1876.0,-17208.0,19436.0,0.0
1909.0,-17517.0,19361.0,0.0
1941.0,-17821.0,19274.0,0.0
1979.0,-18162.0,19223.0,0.0
2017.0,-18497.0,19160.0,0.0
2054.0,-18819.0,19078.0,0.0
2094.0,-19169.0,19019.0,0.0
2132.0,-19496.0,18930.0,0.0
2175.0,-19851.0,18864.0,0.0
8.0,-87.0,81.0,0.0
8.0,-81.0,75.0,0.0
9.0,-87.0,78.0,0.0
9.0,-88.0,76.0,0.0
12.0,-118.0,100.0,0.0
10.0,-97.0,82.0,0.0
12.0,-116.0,94.0,0.0
12.0,-110.0,88.0,0.0
13.0,-119.0,93.0,0.0
13.0,-125.0,96.0,0.0
12.0,-113.0,85.0,0.0
13.0,-123.0,90.0,0.0
13.0,-126.0,90.0,0.0
14.0,-134.0,94.0,0.0
16.0,-147.0,100.0,0.0
16.0,-146.0,97.0,0.0
17.0,-146.0,94.0,0.0
19.0,-167.0,106.0,0.0
19.0,-161.0,100.0,0.0
21.0,-185.0,112.0,0.0
21.0,-183.0,107.0,0.0
22.0,-186.0,107.0,0.0
21.0,-187.0,104.0,0.0
22.0,-190.0,104.0,0.0
24.0,-206.0,110.0,0.0
25.0,-211.0,110.0,0.0
26.0,-218.0,110.0,0.0
27.0,-230.0,113.0,0.0
28.0,-231.0,111.0,0.0
28.0,-233.0,108.0,0.0
29.0,-235.0,106.0,0.0
30.0,-249.0,110.0,0.0
31.0,-250.0,107.0,0.0
31.0,-253.0,105.0,0.0
32.0,-259.0,104.0,0.0
32.0,-257.0,100.0,0.0
35.0,-268.0,101.0,0.0
37.0,-293.0,106.0,0.0
38.0,-299.0,105.0,0.0
38.0,-291.0,99.0,0.0
40.0,-307.0,101.0,0.0
40.0,-301.0,95.0,0.0
2259.0,13238.0,13054.0,0.0
2243.0,13134.0,13229.0,0.0
2237.0,13075.0,13452.0,0.0
2239.0,13072.0,13739.0,0.0
2217.0,12923.0,13875.0,0.0
2714.0,15791.0,17322.0,0.0
2223.0,12912.0,14471.0,0.0
2214.0,12827.0,14689.0,0.0
2524.0,14591.0,17075.0,0.0
2477.0,14274.0,17071.0,0.0
2056.0,11818.0,14445.0,0.0
2046.0,11722.0,14645.0,0.0
2301.0,13136.0,16778.0,0.0
2103.0,11959.0,15616.0,0.0
2097.0,11876.0,15858.0,0.0
2095.0,11819.0,16140.0,0.0
2139.0,12009.0,16775.0,0.0
2161.0,12069.0,17246.0,0.0
2151.0,11950.0,17473.0,0.0
2391.0,13204.0,19759.0,0.0
2394.0,13144.0,20133.0,0.0
2434.0,13275.0,20819.0,0.0
2419.0,13100.0,21040.0,0.0
2384.0,12819.0,21091.0,0.0
2327.0,12418.0,20936.0,0.0
2229.0,11796.0,20383.0,0.0
2215.0,11622.0,20590.0,0.0
2198.0,11427.0,20763.0,0.0
2203.0,11343.0,21146.0,0.0
2199.0,11205.0,21441.0,0.0
2636.0,13291.0,26114.0,0.0
2572.0,12820.0,25874.0,0.0
2280.0,11230.0,23290.0,0.0
2657.0,12918.0,27548.0,0.0
2613.0,12538.0,27503.0,0.0
2655.0,12560.0,28356.0,0.0
2333.0,10877.0,25291.0,0.0
2323.0,10661.0,25544.0,0.0
2852.0,12875.0,31806.0,0.0
2306.0,10231.0,26078.0,0.0
2299.0,10017.0,26365.0,0.0
2580.0,11024.0,29984.0,0.0
2705.0,11326.0,31861.0,0.0
2670.0,10943.0,31873.0,0.0
2625.0,10518.0,31743.0,0.0
2581.0,10096.0,31608.0,0.0
2545.0,9708.0,31561.0,0.0
2504.0,9302.0,31443.0,0.0
2147.0,7755.0,27293.0,0.0
2445.0,8568.0,31442.0,0.0
2171.0,7370.0,28240.0,0.0
1873.0,6147.0,24637.0,0.0
1849.0,5857.0,24600.0,0.0
1820.0,5549.0,24479.0,0.0
1798.0,5267.0,24452.0,0.0
1777.0,4983.0,24409.0,0.0
1753.0,4691.0,24313.0,0.0
1733.0,4412.0,24271.0,0.0
1709.0,4126.0,24170.0,0.0
1694.0,3859.0,24179.0,0.0
1681.0,3598.0,24221.0,0.0
1655.0,3307.0,24030.0,0.0
1786.0,3312.0,26151.0,0.0
1667.0,2847.0,24606.0,0.0
1751.0,2732.0,26063.0,0.0
0.0,0.0,0.0,0.0
1626.0,2038.0,24539.0,0.0
1617.0,1775.0,24576.0,0.0
1622.0,1524.0,24814.0,0.0
1597.0,1244.0,24573.0,0.0
1583.0,975.0,24490.0,0.0
1544.0,697.0,24023.0,0.0
1556.0,444.0,24330.0,0.0
1506.0,177.0,23665.0,0.0
1536.0,-79.0,24241.0,0.0
1526.0,-339.0,24176.0,0.0
1521.0,-599.0,24173.0,0.0
1514.0,-858.0,24137.0,0.0
1482.0,-1098.0,23706.0,0.0
1497.0,-1372.0,24004.0,0.0
1493.0,-1630.0,23985.0,0.0
1486.0,-1884.0,23922.0,0.0
1480.0,-2137.0,23844.0,0.0
1473.0,-2387.0,23764.0,0.0
1470.0,-2642.0,23734.0,0.0
1467.0,-2897.0,23692.0,0.0
1462.0,-3143.0,23602.0,0.0
1461.0,-3396.0,23558.0,0.0
1465.0,-3664.0,23616.0,0.0
1467.0,-3923.0,23603.0,0.0
1457.0,-4150.0,23412.0,0.0
1457.0,-4402.0,23363.0,0.0
1458.0,-4653.0,23317.0,0.0
1457.0,-4898.0,23236.0,0.0
1461.0,-5155.0,23214.0,0.0
1461.0,-5395.0,23116.0,0.0
1466.0,-5655.0,23107.0,0.0
1466.0,-5893.0,23007.0,0.0
1474.0,-6159.0,23011.0,0.0
1475.0,-6398.0,22917.0,0.0
1482.0,-6656.0,22884.0,0.0
1487.0,-6903.0,22817.0,0.0
1493.0,-7159.0,22774.0,0.0
1514.0,-7481.0,22933.0,0.0
1512.0,-7687.0,22733.0,0.0
1512.0,-7904.0,22569.0,0.0
1523.0,-8168.0,22542.0,0.0
1527.0,-8396.0,22415.0,0.0
1539.0,-8666.0,22399.0,0.0
1552.0,-8939.0,22385.0,0.0
1560.0,-9180.0,22290.0,0.0
1572.0,-9438.0,22235.0,0.0
1585.0,-9703.0,22191.0,0.0
1600.0,-9982.0,22177.0,0.0
1611.0,-10221.0,22072.0,0.0
1625.0,-10489.0,22024.0,0.0
1639.0,-10745.0,21950.0,0.0
1654.0,-11011.0,21893.0,0.0
1671.0,-11286.0,21853.0,0.0
1685.0,-11537.0,21760.0,0.0
1705.0,-11824.0,21733.0,0.0
1721.0,-12079.0,21644.0,0.0
1740.0,-12356.0,21590.0,0.0
1759.0,-12628.0,21524.0,0.0
1776.0,-12879.0,21420.0,0.0
2181.0,-15973.0,25930.0,1.0
2206.0,-16298.0,25830.0,1.0
2214.0,-16502.0,25540.0,1.0
2228.0,-16735.0,25300.0,1.0
2237.0,-16929.0,25003.0,1.0
2256.0,-17191.0,24812.0,1.0
2269.0,-17407.0,24552.0,1.0
2289.0,-17663.0,24354.0,1.0
2296.0,-17826.0,24030.0,1.0
2132.0,-16639.0,21933.0,0.0
2109.0,-16528.0,21306.0,0.0
2086.0,-16427.0,20710.0,0.0
2080.0,-16440.0,20274.0,0.0
2062.0,-16353.0,19729.0,0.0
2081.0,-16561.0,19549.0,0.0
2111.0,-16849.0,19459.0,0.0
2143.0,-17149.0,19380.0,0.0
2184.0,-17509.0,19362.0,0.0
2217.0,-17802.0,19265.0,0.0
2256.0,-18144.0,19216.0,0.0
2294.0,-18472.0,19145.0,0.0
2330.0,-18784.0,19053.0,0.0
2373.0,-19137.0,18997.0,0.0
2413.0,-19468.0,18914.0,0.0
2458.0,-19835.0,18858.0,0.0
2503.0,-20198.0,18793.0,0.0
11.0,-94.0,86.0,0.0
12.0,-97.0,86.0,0.0
10.0,-92.0,80.0,0.0
13.0,-108.0,92.0,0.0
12.0,-107.0,89.0,0.0
12.0,-103.0,84.0,0.0
13.0,-110.0,88.0,0.0
15.0,-126.0,99.0,0.0
13.0,-110.0,85.0,0.0
14.0,-117.0,87.0,0.0
17.0,-137.0,100.0,0.0
16.0,-132.0,95.0,0.0
17.0,-138.0,95.0,0.0
16.0,-137.0,93.0,0.0
17.0,-144.0,95.0,0.0
19.0,-152.0,98.0,0.0
19.0,-151.0,96.0,0.0
18.0,-148.0,92.0,0.0
21.0,-169.0,102.0,0.0
20.0,-164.0,96.0,0.0
24.0,-189.0,109.0,0.0
24.0,-187.0,105.0,0.0
25.0,-196.0,107.0,0.0
26.0,-205.0,110.0,0.0
28.0,-213.0,111.0,0.0
28.0,-219.0,111.0,0.0
28.0,-213.0,105.0,0.0
31.0,-236.0,113.0,0.0
32.0,-241.0,113.0,0.0
32.0,-237.0,107.0,0.0
32.0,-239.0,105.0,0.0
33.0,-244.0,104.0,0.0
33.0,-246.0,102.0,0.0
35.0,-259.0,104.0,0.0
35.0,-263.0,103.0,0.0
36.0,-265.0,100.0,0.0
39.0,-280.0,102.0,0.0
40.0,-290.0,102.0,0.0
42.0,-299.0,102.0,0.0
41.0,-290.0,95.0,0.0
43.0,-300.0,95.0,0.0
0.0,0.0,0.0,0.0
-22969.0,46698.0,38172.0,0.0
-23182.0,46250.0,38646.0,0.0
-23328.0,45664.0,39006.0,0.0
-23094.0,44349.0,38725.0,0.0
0.0,0.0,0.0,0.0
-22792.0,42114.0,38429.0,0.0
-22482.0,40738.0,38002.0,0.0
-22321.0,39663.0,37825.0,0.0
-19214.0,33474.0,32637.0,0.0
-19251.0,32878.0,32772.0,0.0
-19204.0,32146.0,32762.0,0.0
-19241.0,31564.0,32893.0,0.0
-19003.0,30545.0,32550.0,0.0
-18626.0,29330.0,31964.0,0.0
-18652.0,28769.0,32067.0,0.0
-18603.0,28099.0,32038.0,0.0
-18603.0,27511.0,32089.0,0.0
-18569.0,26880.0,32080.0,0.0
-18001.0,25503.0,31144.0,0.0
-18071.0,25049.0,31309.0,0.0
-18018.0,24430.0,31256.0,0.0
-18057.0,23944.0,31363.0,0.0
-17956.0,23277.0,31223.0,0.0
-20090.0,25455.0,34972.0,0.0
0.0,0.0,0.0,0.0
-17519.0,21184.0,30556.0,0.0
0.0,0.0,0.0,0.0
0.0,0.0,0.0,0.0
-17314.0,19471.0,30272.0,0.0
-17607.0,19312.0,30804.0,0.0
-17751.0,18981.0,31075.0,0.0
-17693.0,18437.0,30989.0,0.0
-19288.0,19578.0,33798.0,0.0
-19206.0,18981.0,33670.0,0.0
-19173.0,18440.0,33625.0,0.0
-19036.0,17806.0,33395.0,0.0
-19018.0,17292.0,33371.0,0.0
-18962.0,16751.0,33280.0,0.0
-18935.0,16239.0,33237.0,0.0
-18870.0,15702.0,33126.0,0.0
-18730.0,15110.0,32879.0,0.0
-18716.0,14629.0,32856.0,0.0
0.0,0.0,0.0,0.0
-18583.0,13599.0,32614.0,0.0
-18456.0,13051.0,32386.0,0.0
-18504.0,12632.0,32460.0,0.0
-18439.0,12140.0,32337.0,0.0
0.0,0.0,0.0,0.0
0.0,0.0,0.0,0.0
-18214.0,10679.0,31905.0,0.0
-18216.0,10249.0,31893.0,0.0
-18167.0,9792.0,31788.0,0.0
-18091.0,9328.0,31637.0,0.0
-18028.0,8875.0,31505.0,0.0
-18318.0,8593.0,31989.0,0.0
-14212.0,6339.0,24800.0,0.0
-14187.0,6003.0,24737.0,0.0
-14156.0,5667.0,24661.0,0.0
-14139.0,5340.0,24610.0,0.0
-14079.0,4999.0,24483.0,0.0
-14069.0,4680.0,24440.0,0.0
-14038.0,4355.0,24361.0,0.0
-14009.0,4035.0,24282.0,0.0
-13968.0,3713.0,24184.0,0.0
-13963.0,3403.0,24146.0,0.0
-13940.0,3091.0,24076.0,0.0
-13923.0,2784.0,24017.0,0.0
-13914.0,2478.0,23968.0,0.0
-13869.0,2169.0,23858.0,0.0
-13855.0,1867.0,23798.0,0.0
-13805.0,1562.0,23676.0,0.0
-13806.0,1266.0,23643.0,0.0
-13792.0,969.0,23581.0,0.0
-13807.0,676.0,23566.0,0.0
-13766.0,381.0,23457.0,0.0
-13733.0,89.0,23360.0,0.0
-13732.0,-201.0,23316.0,0.0
-13708.0,-489.0,23230.0,0.0
-13637.0,-773.0,23066.0,0.0
-13703.0,-1065.0,23134.0,0.0
-14355.0,-1415.0,24186.0,0.0
0.0,0.0,0.0,0.0
-20726.0,-2908.0,34773.0,2.0
-20841.0,-3358.0,34889.0,2.0
-21045.0,-3827.0,35153.0,2.0
0.0,0.0,0.0,0.0
0.0,0.0,0.0,0.0
-21412.0,-5221.0,35516.0,2.0
-21526.0,-5693.0,35618.0,2.0
-21666.0,-6175.0,35759.0,2.0
-21638.0,-6612.0,35623.0,2.0
-21588.0,-7039.0,35447.0,2.0
-21152.0,-7332.0,34639.0,2.0
-21251.0,-7801.0,34706.0,2.0
0.0,0.0,0.0,0.0
-21236.0,-8664.0,34485.0,2.0
-21396.0,-9165.0,34644.0,2.0
0.0,0.0,0.0,0.0
-21256.0,-9974.0,34211.0,2.0
-21267.0,-10413.0,34121.0,2.0
0.0,0.0,0.0,0.0
0.0,0.0,0.0,0.0
0.0,0.0,0.0,0.0
0.0,0.0,0.0,0.0
0.0,0.0,0.0,0.0
0.0,0.0,0.0,0.0
0.0,0.0,0.0,0.0
0.0,0.0,0.0,0.0
0.0,0.0,0.0,0.0
0.0,0.0,0.0,0.0
-21344.0,-15246.0,32938.0,2.0
0.0,0.0,0.0,0.0
0.0,0.0,0.0,0.0
-21148.0,-16409.0,32240.0,2.0
-21028.0,-16747.0,31921.0,2.0
-20875.0,-17056.0,31552.0,2.0
-20865.0,-17478.0,31398.0,2.0
0.0,0.0,0.0,0.0
0.0,0.0,0.0,0.0
0.0,0.0,0.0,0.0
0.0,0.0,0.0,0.0
-20360.0,-19169.0,29927.0,2.0
0.0,0.0,0.0,0.0
-20001.0,-19668.0,29105.0,2.0
-19747.0,-19833.0,28586.0,2.0
-19698.0,-20199.0,28364.0,2.0
0.0,0.0,0.0,0.0
-15491.0,-16540.0,22063.0,0.0
-15034.0,-16372.0,21291.0,0.0
-14811.0,-16445.0,20855.0,0.0
-14409.0,-16306.0,20169.0,0.0
-14225.0,-16404.0,19792.0,0.0
-14256.0,-16746.0,19714.0,0.0
-14288.0,-17093.0,19633.0,0.0
-14318.0,-17438.0,19547.0,0.0
-14351.0,-17792.0,19464.0,0.0
-14369.0,-18128.0,19357.0,0.0
-14420.0,-18510.0,19295.0,0.0
-14442.0,-18857.0,19188.0,0.0
-14513.0,-19271.0,19144.0,0.0
-14556.0,-19653.0,19060.0,0.0
-14606.0,-20046.0,18980.0,0.0
-14634.0,-20415.0,18872.0,0.0
-14718.0,-20863.0,18830.0,0.0
-14748.0,-21240.0,18716.0,0.0
-14801.0,-21656.0,18628.0,0.0
-14860.0,-22083.0,18545.0,0.0
-14929.0,-22529.0,18469.0,0.0
-14972.0,-22942.0,18358.0,0.0
-15039.0,-23396.0,18273.0,0.0
-15006.0,-23699.0,18064.0,0.0
-1061.0,-1701.0,1266.0,0.0
-1057.0,-1719.0,1248.0,0.0
-1077.0,-1779.0,1260.0,0.0
-1045.0,-1751.0,1210.0,0.0
-1046.0,-1778.0,1197.0,0.0
-1060.0,-1827.0,1200.0,0.0
-56.0,-97.0,62.0,0.0
-62.0,-110.0,68.0,0.0
-62.0,-112.0,68.0,0.0
-68.0,-126.0,74.0,0.0
-73.0,-136.0,78.0,0.0
-69.0,-132.0,74.0,0.0
-66.0,-127.0,68.0,0.0
-78.0,-151.0,80.0,0.0
-75.0,-147.0,76.0,0.0
-77.0,-154.0,77.0,0.0
-85.0,-172.0,84.0,0.0
-79.0,-160.0,76.0,0.0
-85.0,-176.0,81.0,0.0
-92.0,-193.0,86.0,0.0
-96.0,-203.0,88.0,0.0
-99.0,-214.0,90.0,0.0
-99.0,-217.0,88.0,0.0
-104.0,-231.0,91.0,0.0
-111.0,-249.0,95.0,0.0
-128.0,-290.0,107.0,0.0
-138.0,-316.0,113.0,0.0
-138.0,-323.0,111.0,0.0
-135.0,-318.0,105.0,0.0
-133.0,-318.0,102.0,0.0
-129.0,-312.0,96.0,0.0
-127.0,-310.0,91.0,0.0
-122.0,-304.0,86.0,0.0
-123.0,-308.0,83.0,0.0
-120.0,-305.0,79.0,0.0
-123.0,-318.0,79.0,0.0
-123.0,-322.0,76.0,0.0
-122.0,-323.0,72.0,0.0
-117.0,-315.0,67.0,0.0
-121.0,-329.0,66.0,0.0
117.0,-311.0,62.0,0.0
115.0,-299.0,64.0,0.0
111.0,-286.0,63.0,0.0
112.0,-284.0,67.0,0.0
112.0,-279.0,69.0,0.0
113.0,-278.0,71.0,0.0
109.0,-266.0,71.0,0.0
112.0,-270.0,76.0,0.0
111.0,-263.0,77.0,0.0
114.0,-267.0,82.0,0.0
108.0,-249.0,79.0,0.0
114.0,-260.0,85.0,0.0
112.0,-252.0,86.0,0.0
115.0,-256.0,90.0,0.0
119.0,-260.0,95.0,0.0
120.0,-260.0,99.0,0.0
118.0,-252.0,99.0,0.0
118.0,-248.0,101.0,0.0
124.0,-258.0,107.0,0.0
126.0,-258.0,111.0,0.0
122.0,-246.0,110.0,0.0
125.0,-249.0,114.0,0.0
129.0,-253.0,120.0,0.0
127.0,-246.0,120.0,0.0
128.0,-245.0,123.0,0.0
131.0,-248.0,127.0,0.0
131.0,-243.0,129.0,0.0
145.0,-266.0,144.0,0.0
143.0,-260.0,145.0,0.0
144.0,-257.0,148.0,0.0
139.0,-247.0,145.0,0.0
133.0,-232.0,140.0,0.0
125.0,-214.0,134.0,0.0
124.0,-209.0,133.0,0.0
121.0,-202.0,131.0,0.0
111.0,-182.0,122.0,0.0
105.0,-169.0,117.0,0.0
105.0,-168.0,119.0,0.0
93.0,-146.0,106.0,0.0
94.0,-145.0,108.0,0.0
94.0,-142.0,108.0,0.0
87.0,-132.0,103.0,0.0
77.0,-115.0,91.0,0.0
79.0,-115.0,94.0,0.0
71.0,-101.0,86.0,0.0
72.0,-102.0,88.0,0.0
66.0,-91.0,81.0,0.0
63.0,-87.0,78.0,0.0
57.0,-77.0,71.0,0.0
15147.0,-19959.0,18875.0,0.0
15094.0,-19563.0,18951.0,0.0
15053.0,-19183.0,19038.0,0.0
15019.0,-18815.0,19132.0,0.0
14976.0,-18440.0,19211.0,0.0
14912.0,-18044.0,19261.0,0.0
14887.0,-17697.0,19359.0,0.0
14854.0,-17344.0,19443.0,0.0
14821.0,-16993.0,19525.0,0.0
14809.0,-16667.0,19631.0,0.0
14964.0,-16529.0,19959.0,0.0
15305.0,-16587.0,20538.0,0.0
15600.0,-16583.0,21058.0,1.0
1146.0,-1194.0,1557.0,0.0
15723.0,-16064.0,21467.0,1.0
15548.0,-15565.0,21346.0,1.0
15707.0,-15403.0,21682.0,1.0
15911.0,-15278.0,22080.0,1.0
15890.0,-14934.0,22165.0,1.0
15720.0,-14455.0,22040.0,1.0
15460.0,-13903.0,21785.0,1.0
15437.0,-13570.0,21859.0,1.0
15421.0,-13245.0,21941.0,1.0
15478.0,-12982.0,22124.0,1.0
15511.0,-12698.0,22274.0,1.0
15628.0,-12480.0,22544.0,1.0
15466.0,-12042.0,22410.0,1.0
15488.0,-11750.0,22540.0,1.0
15321.0,-11318.0,22391.0,1.0
15316.0,-11010.0,22478.0,1.0
15343.0,-10723.0,22609.0,1.0
15387.0,-10448.0,22765.0,1.0
15464.0,-10193.0,22968.0,1.0
15476.0,-9894.0,23074.0,1.0
15313.0,-9487.0,22917.0,1.0
15227.0,-9133.0,22874.0,1.0
15205.0,-8818.0,22924.0,1.0
15213.0,-8523.0,23018.0,1.0
15256.0,-8244.0,23163.0,1.0
15334.0,-7984.0,23361.0,1.0
15370.0,-7699.0,23494.0,1.0
15417.0,-7418.0,23643.0,1.0
15273.0,-7046.0,23498.0,1.0
15250.0,-6734.0,23536.0,1.0
15177.0,-6402.0,23496.0,1.0
15305.0,-6153.0,23766.0,1.0
15226.0,-5820.0,23713.0,1.0
15125.0,-5481.0,23623.0,1.0
15130.0,-5184.0,23700.0,1.0
15225.0,-4914.0,23914.0,1.0
15267.0,-4625.0,24046.0,1.0
15196.0,-4301.0,23998.0,1.0
13.0,-3.0,21.0,0.0
15087.0,-3668.0,23949.0,1.0
20.0,-5.0,33.0,0.0
11.0,-2.0,17.0,0.0
5.0,-1.0,8.0,0.0
10.0,-1.0,16.0,0.0
15389.0,-2200.0,24723.0,1.0
16.0,-3.0,27.0,0.0
22.0,-2.0,36.0,0.0
18.0,-1.0,31.0,0.0
21.0,-1.0,35.0,0.0
23.0,-1.0,38.0,0.0
25.0,-1.0,42.0,0.0
33.0,0.0,54.0,0.0
24.0,0.0,41.0,0.0
31.0,0.0,51.0,0.0
29.0,1.0,48.0,0.0
25.0,2.0,41.0,0.0
33.0,3.0,55.0,0.0
33.0,4.0,55.0,0.0
31.0,3.0,51.0,0.0
40.0,6.0,66.0,0.0
37.0,6.0,62.0,0.0
40.0,7.0,67.0,0.0
43.0,9.0,73.0,0.0
52.0,12.0,86.0,0.0
59.0,15.0,100.0,0.0
45.0,12.0,76.0,0.0
46.0,14.0,78.0,0.0
46.0,15.0,78.0,0.0
46.0,16.0,78.0,0.0
42.0,15.0,72.0,0.0
53.0,20.0,90.0,0.0
56.0,24.0,94.0,0.0
56.0,24.0,95.0,0.0
53.0,25.0,89.0,0.0
58.0,28.0,97.0,0.0
62.0,31.0,105.0,0.0
65.0,35.0,109.0,0.0
58.0,32.0,98.0,0.0
59.0,35.0,100.0,0.0
57.0,34.0,97.0,0.0
68.0,43.0,114.0,0.0
57.0,37.0,98.0,0.0
61.0,41.0,103.0,0.0
62.0,44.0,107.0,0.0
62.0,45.0,105.0,0.0
64.0,49.0,110.0,0.0
60.0,46.0,102.0,0.0
60.0,48.0,103.0,0.0
58.0,47.0,98.0,0.0
58.0,49.0,98.0,0.0
55.0,48.0,94.0,0.0
54.0,50.0,93.0,0.0
58.0,53.0,98.0,0.0
57.0,54.0,96.0,0.0
54.0,53.0,92.0,0.0
61.0,61.0,103.0,0.0
60.0,62.0,102.0,0.0
64.0,68.0,108.0,0.0
61.0,67.0,103.0,0.0
61.0,69.0,105.0,0.0
66.0,76.0,113.0,0.0
61.0,72.0,103.0,0.0
61.0,74.0,105.0,0.0
66.0,81.0,112.0,0.0
65.0,83.0,110.0,0.0
67.0,86.0,113.0,0.0
66.0,87.0,112.0,0.0
68.0,91.0,113.0,0.0
71.0,97.0,118.0,0.0
69.0,98.0,118.0,0.0
66.0,96.0,112.0,0.0
72.0,106.0,121.0,0.0
73.0,110.0,123.0,0.0
73.0,111.0,121.0,0.0
75.0,118.0,126.0,0.0
74.0,119.0,124.0,0.0
73.0,119.0,121.0,0.0
73.0,124.0,123.0,0.0
74.0,127.0,124.0,0.0
74.0,130.0,124.0,0.0
77.0,137.0,127.0,0.0
78.0,140.0,128.0,0.0
78.0,143.0,127.0,0.0
77.0,145.0,126.0,0.0
79.0,152.0,129.0,0.0
78.0,154.0,127.0,0.0
82.0,163.0,133.0,0.0
79.0,161.0,129.0,0.0
81.0,170.0,132.0,0.0
116.0,-312.0,64.0,0.0
112.0,-299.0,65.0,0.0
111.0,-292.0,66.0,0.0
107.0,-281.0,67.0,0.0
111.0,-283.0,70.0,0.0
112.0,-283.0,74.0,0.0
109.0,-272.0,74.0,0.0
109.0,-271.0,77.0,0.0
110.0,-268.0,79.0,0.0
109.0,-262.0,81.0,0.0
112.0,-265.0,85.0,0.0
112.0,-263.0,87.0,0.0
112.0,-259.0,89.0,0.0
114.0,-259.0,93.0,0.0
114.0,-256.0,95.0,0.0
117.0,-260.0,100.0,0.0
117.0,-258.0,102.0,0.0
119.0,-258.0,105.0,0.0
118.0,-253.0,107.0,0.0
120.0,-254.0,110.0,0.0
123.0,-255.0,115.0,0.0
124.0,-253.0,117.0,0.0
125.0,-254.0,121.0,0.0
125.0,-250.0,122.0,0.0
124.0,-244.0,123.0,0.0
130.0,-252.0,130.0,0.0
132.0,-253.0,135.0,0.0
140.0,-263.0,144.0,0.0
143.0,-266.0,150.0,0.0
143.0,-260.0,151.0,0.0
139.0,-251.0,148.0,0.0
134.0,-236.0,144.0,0.0
129.0,-228.0,142.0,0.0
119.0,-206.0,133.0,0.0
121.0,-207.0,136.0,0.0
120.0,-200.0,135.0,0.0
105.0,-174.0,121.0,0.0
104.0,-170.0,121.0,0.0
103.0,-166.0,121.0,0.0
95.0,-152.0,113.0,0.0
87.0,-136.0,104.0,0.0
85.0,-132.0,103.0,0.0
80.0,-120.0,97.0,0.0
75.0,-112.0,93.0,0.0
79.0,-117.0,98.0,0.0
70.0,-101.0,88.0,0.0
67.0,-94.0,83.0,0.0
63.0,-88.0,80.0,0.0
62.0,-84.0,78.0,0.0
14783.0,-19898.0,18929.0,0.0
14717.0,-19481.0,18984.0,0.0
14684.0,-19113.0,19079.0,0.0
14657.0,-18754.0,19179.0,0.0
14594.0,-18355.0,19230.0,0.0
14539.0,-17968.0,19287.0,0.0
14507.0,-17614.0,19373.0,0.0
14481.0,-17270.0,19463.0,0.0
14458.0,-16929.0,19555.0,0.0
14436.0,-16594.0,19646.0,0.0
14662.0,-16541.0,20076.0,0.0
15010.0,-16614.0,20674.0,0.0
15290.0,-16601.0,21184.0,1.0
15460.0,-16459.0,21542.0,1.0
1149.0,-1199.0,1611.0,0.0
15218.0,-15562.0,21439.0,1.0
15400.0,-15426.0,21812.0,1.0
1135.0,-1114.0,1618.0,0.0
15396.0,-14780.0,22033.0,1.0
15221.0,-14297.0,21892.0,1.0
15123.0,-13892.0,21860.0,1.0
15072.0,-13535.0,21891.0,1.0
15089.0,-13239.0,22019.0,1.0
15121.0,-12957.0,22169.0,1.0
15228.0,-12737.0,22428.0,1.0
15177.0,-12384.0,22452.0,1.0
15101.0,-12013.0,22437.0,1.0
15066.0,-11678.0,22481.0,1.0
14937.0,-11276.0,22384.0,1.0
14999.0,-11016.0,22568.0,1.0
14995.0,-10710.0,22655.0,1.0
15125.0,-10497.0,22940.0,1.0
15068.0,-10152.0,22944.0,1.0
14959.0,-9776.0,22865.0,1.0
14806.0,-9378.0,22716.0,1.0
14736.0,-9035.0,22690.0,1.0
14785.0,-8767.0,22848.0,1.0
14679.0,-8409.0,22765.0,1.0
14749.0,-8152.0,22952.0,1.0
14849.0,-7907.0,23185.0,1.0
14952.0,-7661.0,23424.0,1.0
14947.0,-7358.0,23493.0,1.0
1165.0,-550.0,1837.0,0.0
14816.0,-6697.0,23434.0,1.0
14851.0,-6413.0,23562.0,1.0
14906.0,-6136.0,23720.0,1.0
15002.0,-5873.0,23944.0,1.0
14815.0,-5501.0,23714.0,1.0
14754.0,-5180.0,23682.0,1.0
14848.0,-4914.0,23898.0,1.0
14934.0,-4639.0,24102.0,1.0
14871.0,-4319.0,24064.0,1.0
14788.0,-3995.0,23993.0,1.0
14746.0,-3684.0,23986.0,1.0
11.0,-3.0,18.0,0.0
18.0,-4.0,30.0,0.0
22.0,-5.0,37.0,0.0
22.0,-4.0,38.0,0.0
15.0,-2.0,26.0,0.0
28.0,-4.0,47.0,0.0
17.0,-2.0,28.0,0.0
20.0,-2.0,34.0,0.0
21.0,-1.0,36.0,0.0
26.0,-1.0,44.0,0.0
32.0,0.0,54.0,0.0
26.0,0.0,44.0,0.0
29.0,0.0,50.0,0.0
32.0,1.0,55.0,0.0
32.0,1.0,55.0,0.0
31.0,2.0,53.0,0.0
37.0,3.0,62.0,0.0
30.0,3.0,51.0,0.0
32.0,4.0,55.0,0.0
49.0,8.0,83.0,0.0
38.0,7.0,65.0,0.0
31.0,5.0,52.0,0.0
37.0,8.0,64.0,0.0
40.0,10.0,70.0,0.0
38.0,10.0,65.0,0.0
48.0,14.0,83.0,0.0
47.0,14.0,82.0,0.0
56.0,19.0,97.0,0.0
58.0,21.0,102.0,0.0
51.0,19.0,88.0,0.0
59.0,24.0,102.0,0.0
64.0,27.0,111.0,0.0
52.0,23.0,89.0,0.0
57.0,27.0,99.0,0.0
58.0,29.0,101.0,0.0
55.0,29.0,97.0,0.0
62.0,33.0,107.0,0.0
57.0,32.0,101.0,0.0
55.0,33.0,98.0,0.0
60.0,37.0,104.0,0.0
66.0,42.0,116.0,0.0
65.0,43.0,113.0,0.0
62.0,42.0,107.0,0.0
58.0,42.0,103.0,0.0
64.0,47.0,112.0,0.0
65.0,50.0,114.0,0.0
58.0,46.0,101.0,0.0
61.0,49.0,106.0,0.0
56.0,47.0,99.0,0.0
56.0,48.0,99.0,0.0
52.0,46.0,90.0,0.0
59.0,54.0,103.0,0.0
55.0,53.0,97.0,0.0
55.0,54.0,97.0,0.0
55.0,55.0,97.0,0.0
61.0,63.0,107.0,0.0
56.0,59.0,98.0,0.0
58.0,62.0,100.0,0.0
59.0,66.0,104.0,0.0
63.0,72.0,111.0,0.0
60.0,70.0,104.0,0.0
62.0,74.0,108.0,0.0
64.0,77.0,110.0,0.0
65.0,81.0,113.0,0.0
63.0,82.0,110.0,0.0
65.0,86.0,113.0,0.0
64.0,86.0,111.0,0.0
63.0,87.0,110.0,0.0
66.0,93.0,114.0,0.0
65.0,95.0,114.0,0.0
69.0,102.0,120.0,0.0
70.0,106.0,121.0,0.0
69.0,106.0,119.0,0.0
72.0,112.0,124.0,0.0
72.0,115.0,123.0,0.0
72.0,118.0,123.0,0.0
73.0,122.0,126.0,0.0
74.0,126.0,127.0,0.0
75.0,131.0,128.0,0.0
72.0,128.0,122.0,0.0
75.0,136.0,128.0,0.0
75.0,139.0,128.0,0.0
76.0,144.0,129.0,0.0
76.0,146.0,129.0,0.0
77.0,150.0,129.0,0.0
79.0,158.0,133.0,0.0
76.0,154.0,126.0,0.0
78.0,161.0,130.0,0.0
78.0,164.0,129.0,0.0
119.0,-331.0,69.0,0.0
108.0,-294.0,65.0,0.0
108.0,-293.0,68.0,0.0
109.0,-291.0,70.0,0.0
108.0,-284.0,72.0,0.0
107.0,-279.0,74.0,0.0
106.0,-270.0,75.0,0.0
108.0,-272.0,78.0,0.0
110.0,-276.0,83.0,0.0
109.0,-267.0,84.0,0.0
110.0,-265.0,86.0,0.0
110.0,-262.0,88.0,0.0
111.0,-264.0,92.0,0.0
113.0,-265.0,96.0,0.0
115.0,-264.0,99.0,0.0
117.0,-265.0,102.0,0.0
117.0,-262.0,105.0,0.0
119.0,-263.0,108.0,0.0
120.0,-262.0,112.0,0.0
122.0,-263.0,115.0,0.0
123.0,-259.0,117.0,0.0
124.0,-259.0,121.0,0.0
122.0,-253.0,122.0,0.0
126.0,-255.0,126.0,0.0
126.0,-252.0,129.0,0.0
125.0,-247.0,130.0,0.0
129.0,-253.0,137.0,0.0
135.0,-260.0,144.0,0.0
143.0,-271.0,154.0,0.0
139.0,-261.0,152.0,0.0
134.0,-246.0,148.0,0.0
131.0,-238.0,146.0,0.0
126.0,-226.0,143.0,0.0
120.0,-212.0,138.0,0.0
119.0,-207.0,138.0,0.0
105.0,-180.0,123.0,0.0
98.0,-166.0,116.0,0.0
100.0,-167.0,119.0,0.0
95.0,-155.0,114.0,0.0
89.0,-143.0,109.0,0.0
89.0,-141.0,109.0,0.0
85.0,-132.0,105.0,0.0
77.0,-119.0,96.0,0.0
69.0,-105.0,87.0,0.0
85.0,-127.0,108.0,0.0
70.0,-105.0,91.0,0.0
70.0,-101.0,90.0,0.0
64.0,-92.0,83.0,0.0
14420.0,-20164.0,18838.0,0.0
14399.0,-19805.0,18951.0,0.0
14344.0,-19403.0,19016.0,0.0
14311.0,-19033.0,19107.0,0.0
14259.0,-18644.0,19172.0,0.0
14195.0,-18241.0,19215.0,0.0
14176.0,-17902.0,19319.0,0.0
14153.0,-17558.0,19413.0,0.0
14111.0,-17194.0,19479.0,0.0
14072.0,-16837.0,19548.0,0.0
14078.0,-16535.0,19675.0,0.0
14335.0,-16524.0,20154.0,0.0
14653.0,-16572.0,20722.0,0.0
14974.0,-16611.0,21298.0,1.0
1124.0,-1222.0,1608.0,0.0
14968.0,-15959.0,21526.0,1.0
14855.0,-15521.0,21480.0,1.0
15058.0,-15412.0,21889.0,1.0
15040.0,-15074.0,21977.0,1.0
14962.0,-14678.0,21974.0,1.0
14866.0,-14269.0,21941.0,1.0
14865.0,-13955.0,22048.0,1.0
14786.0,-13569.0,22035.0,1.0
14806.0,-13275.0,22167.0,1.0
14803.0,-12963.0,22264.0,1.0
14826.0,-12673.0,22399.0,1.0
14744.0,-12296.0,22374.0,1.0
14771.0,-12011.0,22511.0,1.0
14704.0,-11650.0,22505.0,1.0
14646.0,-11301.0,22509.0,1.0
1144.0,-859.0,1765.0,0.0
14766.0,-10782.0,22878.0,1.0
14684.0,-10420.0,22841.0,1.0
14624.0,-10074.0,22835.0,1.0
14456.0,-9661.0,22658.0,1.0
14351.0,-9295.0,22577.0,1.0
14377.0,-9016.0,22699.0,1.0
14394.0,-8731.0,22807.0,1.0
14333.0,-8399.0,22790.0,1.0
14376.0,-8128.0,22935.0,1.0
14442.0,-7870.0,23120.0,1.0
14540.0,-7624.0,23352.0,1.0
14582.0,-7347.0,23496.0,1.0
14572.0,-7042.0,23553.0,1.0
14449.0,-6686.0,23427.0,1.0
14509.0,-6415.0,23596.0,1.0
14609.0,-6160.0,23830.0,1.0
14683.0,-5890.0,24022.0,1.0
14501.0,-5517.0,23792.0,1.0
14371.0,-5173.0,23644.0,1.0
14476.0,-4913.0,23883.0,1.0
14470.0,-4613.0,23938.0,1.0
14529.0,-4331.0,24099.0,1.0
17.0,-5.0,29.0,0.0
26.0,-6.0,45.0,0.0
27.0,-7.0,46.0,0.0
21.0,-4.0,36.0,0.0
13.0,-3.0,24.0,0.0
30.0,-5.0,52.0,0.0
15.0,-2.0,25.0,0.0
25.0,-3.0,44.0,0.0
17.0,-2.0,28.0,0.0
26.0,-2.0,46.0,0.0
23.0,-1.0,39.0,0.0
23.0,-1.0,39.0,0.0
30.0,0.0,50.0,0.0
27.0,0.0,47.0,0.0
25.0,0.0,43.0,0.0
30.0,0.0,52.0,0.0
23.0,1.0,40.0,0.0
28.0,2.0,50.0,0.0
40.0,3.0,70.0,0.0
27.0,2.0,48.0,0.0
35.0,4.0,61.0,0.0
33.0,5.0,58.0,0.0
36.0,6.0,63.0,0.0
30.0,6.0,54.0,0.0
39.0,9.0,69.0,0.0
43.0,10.0,77.0,0.0
44.0,12.0,77.0,0.0
48.0,14.0,86.0,0.0
54.0,17.0,96.0,0.0
52.0,18.0,93.0,0.0
48.0,17.0,86.0,0.0
48.0,19.0,87.0,0.0
51.0,21.0,91.0,0.0
61.0,26.0,107.0,0.0
53.0,24.0,94.0,0.0
57.0,27.0,101.0,0.0
60.0,30.0,106.0,0.0
57.0,29.0,101.0,0.0
61.0,34.0,109.0,0.0
60.0,34.0,106.0,0.0
64.0,38.0,113.0,0.0
66.0,41.0,118.0,0.0
58.0,37.0,103.0,0.0
61.0,42.0,110.0,0.0
59.0,41.0,107.0,0.0
62.0,46.0,111.0,0.0
68.0,51.0,121.0,0.0
55.0,42.0,99.0,0.0
57.0,45.0,102.0,0.0
54.0,45.0,98.0,0.0
53.0,45.0,95.0,0.0
57.0,50.0,103.0,0.0
57.0,52.0,102.0,0.0
58.0,55.0,106.0,0.0
51.0,50.0,92.0,0.0
52.0,52.0,93.0,0.0
56.0,56.0,99.0,0.0
57.0,60.0,103.0,0.0
54.0,59.0,98.0,0.0
52.0,57.0,92.0,0.0
58.0,66.0,104.0,0.0
57.0,67.0,103.0,0.0
59.0,70.0,106.0,0.0
60.0,74.0,108.0,0.0
60.0,74.0,107.0,0.0
59.0,75.0,106.0,0.0
63.0,82.0,112.0,0.0
61.0,83.0,110.0,0.0
62.0,85.0,111.0,0.0
64.0,90.0,114.0,0.0
65.0,94.0,116.0,0.0
63.0,93.0,114.0,0.0
65.0,98.0,116.0,0.0
68.0,105.0,122.0,0.0
67.0,106.0,120.0,0.0
66.0,106.0,117.0,0.0
70.0,114.0,123.0,0.0
68.0,114.0,120.0,0.0
70.0,119.0,123.0,0.0
72.0,126.0,127.0,0.0
74.0,131.0,129.0,0.0
72.0,131.0,127.0,0.0
75.0,139.0,132.0,0.0
75.0,142.0,131.0,0.0
74.0,144.0,130.0,0.0
75.0,147.0,130.0,0.0
75.0,151.0,131.0,0.0
75.0,153.0,130.0,0.0
77.0,161.0,134.0,0.0
74.0,158.0,127.0,0.0
76.0,165.0,132.0,0.0
110.0,-314.0,67.0,0.0
106.0,-299.0,67.0,0.0
104.0,-286.0,68.0,0.0
106.0,-291.0,71.0,0.0
104.0,-280.0,72.0,0.0
103.0,-274.0,74.0,0.0
103.0,-273.0,77.0,0.0
105.0,-271.0,80.0,0.0
101.0,-260.0,79.0,0.0
108.0,-273.0,86.0,0.0
107.0,-266.0,87.0,0.0
111.0,-271.0,93.0,0.0
107.0,-259.0,92.0,0.0
111.0,-265.0,97.0,0.0
115.0,-271.0,103.0,0.0
111.0,-257.0,101.0,0.0
110.0,-253.0,103.0,0.0
117.0,-264.0,110.0,0.0
116.0,-259.0,112.0,0.0
118.0,-259.0,115.0,0.0
118.0,-256.0,117.0,0.0
119.0,-255.0,120.0,0.0
120.0,-253.0,123.0,0.0
120.0,-249.0,124.0,0.0
120.0,-248.0,128.0,0.0
126.0,-256.0,135.0,0.0
129.0,-258.0,140.0,0.0
144.0,-283.0,158.0,0.0
136.0,-265.0,152.0,0.0
135.0,-258.0,152.0,0.0
132.0,-249.0,151.0,0.0
127.0,-236.0,146.0,0.0
120.0,-220.0,140.0,0.0
115.0,-209.0,136.0,0.0
107.0,-191.0,128.0,0.0
96.0,-169.0,116.0,0.0
104.0,-180.0,127.0,0.0
95.0,-163.0,117.0,0.0
94.0,-159.0,117.0,0.0
85.0,-140.0,106.0,0.0
78.0,-128.0,99.0,0.0
78.0,-125.0,100.0,0.0
73.0,-116.0,95.0,0.0
75.0,-117.0,98.0,0.0
67.0,-103.0,88.0,0.0
62.0,-95.0,83.0,0.0
59.0,-88.0,78.0,0.0
62.0,-91.0,84.0,0.0
14053.0,-20089.0,18876.0,0.0
13996.0,-19680.0,18939.0,0.0
13978.0,-19328.0,19050.0,0.0
13919.0,-18924.0,19104.0,0.0
13897.0,-18574.0,19204.0,0.0
13838.0,-18179.0,19252.0,0.0
13795.0,-17806.0,19317.0,0.0
13791.0,-17489.0,19438.0,0.0
13726.0,-17096.0,19466.0,0.0
13702.0,-16758.0,19553.0,0.0
13714.0,-16464.0,19687.0,0.0
14027.0,-16529.0,20257.0,0.0
14297.0,-16529.0,20766.0,0.0
14687.0,-16654.0,21453.0,1.0
14811.0,-16469.0,21754.0,1.0
14546.0,-15854.0,21481.0,1.0
14538.0,-15528.0,21584.0,1.0
14719.0,-15399.0,21966.0,1.0
14668.0,-15028.0,22003.0,1.0
14626.0,-14668.0,22050.0,1.0
14608.0,-14332.0,22129.0,1.0
14639.0,-14048.0,22283.0,1.0
1146.0,-1075.0,1754.0,0.0
14461.0,-13256.0,22219.0,1.0
14490.0,-12973.0,22364.0,1.0
14468.0,-12645.0,22431.0,1.0
14420.0,-12295.0,22453.0,1.0
14441.0,-12006.0,22581.0,1.0
14314.0,-11597.0,22477.0,1.0
14349.0,-11321.0,22625.0,1.0
14393.0,-11052.0,22787.0,1.0
14325.0,-10698.0,22769.0,1.0
14258.0,-10348.0,22751.0,1.0
14152.0,-9972.0,22667.0,1.0
14081.0,-9625.0,22637.0,1.0
14000.0,-9276.0,22589.0,1.0
1125.0,-722.0,1823.0,0.0
13993.0,-8684.0,22739.0,1.0
14031.0,-8414.0,22881.0,1.0
1136.0,-657.0,1859.0,0.0
14164.0,-7900.0,23253.0,1.0
14182.0,-7612.0,23357.0,1.0
14192.0,-7322.0,23451.0,1.0
14236.0,-7045.0,23595.0,1.0
14094.0,-6680.0,23433.0,1.0
14149.0,-6409.0,23596.0,1.0
14249.0,-6156.0,23834.0,1.0
14286.0,-5872.0,23964.0,1.0
14095.0,-5498.0,23711.0,1.0
14080.0,-5198.0,23752.0,1.0
14141.0,-4923.0,23921.0,1.0
14070.0,-4602.0,23863.0,1.0
13.0,-5.0,23.0,0.0
17.0,-5.0,30.0,0.0
13988.0,-3690.0,23910.0,1.0
13947.0,-3384.0,23897.0,1.0
23.0,-5.0,40.0,0.0
27.0,-5.0,49.0,0.0
24.0,-5.0,43.0,0.0
25.0,-4.0,43.0,0.0
12.0,-1.0,22.0,0.0
16.0,-2.0,28.0,0.0
20.0,-2.0,36.0,0.0
27.0,-2.0,49.0,0.0
27.0,-1.0,49.0,0.0
23.0,0.0,40.0,0.0
29.0,0.0,53.0,0.0
31.0,0.0,55.0,0.0
28.0,1.0,50.0,0.0
27.0,1.0,48.0,0.0
36.0,2.0,65.0,0.0
30.0,2.0,54.0,0.0
36.0,3.0,65.0,0.0
37.0,5.0,67.0,0.0
42.0,6.0,75.0,0.0
36.0,6.0,65.0,0.0
38.0,7.0,67.0,0.0
42.0,9.0,75.0,0.0
48.0,12.0,87.0,0.0
36.0,10.0,65.0,0.0
43.0,13.0,78.0,0.0
47.0,15.0,84.0,0.0
49.0,17.0,87.0,0.0
47.0,18.0,85.0,0.0
51.0,20.0,93.0,0.0
49.0,20.0,89.0,0.0
50.0,22.0,91.0,0.0
49.0,23.0,90.0,0.0
58.0,28.0,105.0,0.0
56.0,29.0,103.0,0.0
53.0,28.0,97.0,0.0
60.0,34.0,109.0,0.0
60.0,35.0,109.0,0.0
55.0,33.0,101.0,0.0
61.0,39.0,112.0,0.0
61.0,40.0,111.0,0.0
63.0,43.0,117.0,0.0
56.0,40.0,103.0,0.0
62.0,46.0,113.0,0.0
58.0,44.0,107.0,0.0
58.0,46.0,106.0,0.0
58.0,47.0,107.0,0.0
55.0,46.0,103.0,0.0
56.0,48.0,103.0,0.0
56.0,50.0,103.0,0.0
54.0,49.0,98.0,0.0
58.0,55.0,107.0,0.0
48.0,48.0,90.0,0.0
53.0,54.0,97.0,0.0
52.0,54.0,96.0,0.0
53.0,57.0,99.0,0.0
56.0,62.0,104.0,0.0
53.0,60.0,98.0,0.0
55.0,63.0,101.0,0.0
58.0,68.0,107.0,0.0
55.0,67.0,102.0,0.0
56.0,71.0,105.0,0.0
56.0,72.0,104.0,0.0
57.0,75.0,106.0,0.0
59.0,78.0,108.0,0.0
60.0,83.0,110.0,0.0
59.0,83.0,109.0,0.0
60.0,86.0,111.0,0.0
61.0,90.0,113.0,0.0
60.0,90.0,110.0,0.0
61.0,94.0,112.0,0.0
64.0,101.0,119.0,0.0
65.0,106.0,120.0,0.0
65.0,106.0,117.0,0.0
65.0,109.0,119.0,0.0
69.0,118.0,125.0,0.0
67.0,118.0,122.0,0.0
69.0,122.0,124.0,0.0
72.0,130.0,129.0,0.0
70.0,130.0,128.0,0.0
71.0,134.0,128.0,0.0
72.0,139.0,129.0,0.0
72.0,142.0,130.0,0.0
72.0,143.0,128.0,0.0
71.0,146.0,128.0,0.0
73.0,153.0,131.0,0.0
74.0,157.0,132.0,0.0
70.0,153.0,125.0,0.0
73.0,161.0,128.0,0.0
100.0,-293.0,64.0,0.0
99.0,-286.0,65.0,0.0
100.0,-285.0,68.0,0.0
100.0,-279.0,70.0,0.0
99.0,-273.0,72.0,0.0
98.0,-266.0,73.0,0.0
100.0,-269.0,76.0,0.0
101.0,-267.0,80.0,0.0
100.0,-262.0,81.0,0.0
102.0,-264.0,85.0,0.0
101.0,-256.0,86.0,0.0
106.0,-268.0,92.0,0.0
105.0,-259.0,92.0,0.0
107.0,-262.0,96.0,0.0
106.0,-257.0,99.0,0.0
112.0,-267.0,106.0,0.0
109.0,-255.0,105.0,0.0
110.0,-256.0,107.0,0.0
114.0,-261.0,113.0,0.0
113.0,-255.0,115.0,0.0
111.0,-247.0,114.0,0.0
116.0,-256.0,122.0,0.0
117.0,-251.0,124.0,0.0
115.0,-246.0,124.0,0.0
119.0,-250.0,129.0,0.0
121.0,-251.0,134.0,0.0
126.0,-257.0,141.0,0.0
135.0,-272.0,152.0,0.0
133.0,-265.0,153.0,0.0
134.0,-262.0,156.0,0.0
125.0,-242.0,147.0,0.0
115.0,-219.0,136.0,0.0
110.0,-206.0,131.0,0.0
112.0,-207.0,136.0,0.0
101.0,-185.0,124.0,0.0
100.0,-180.0,124.0,0.0
95.0,-168.0,118.0,0.0
93.0,-163.0,118.0,0.0
93.0,-160.0,118.0,0.0
84.0,-142.0,109.0,0.0
78.0,-130.0,102.0,0.0
74.0,-123.0,99.0,0.0
81.0,-131.0,107.0,0.0
69.0,-109.0,92.0,0.0
61.0,-97.0,83.0,0.0
58.0,-91.0,80.0,0.0
60.0,-92.0,83.0,0.0
50.0,-75.0,69.0,0.0
13651.0,-19958.0,18860.0,0.0
13626.0,-19595.0,18961.0,0.0
13589.0,-19218.0,19044.0,0.0
13553.0,-18845.0,19125.0,0.0
13530.0,-18494.0,19222.0,0.0
13468.0,-18093.0,19260.0,0.0
13437.0,-17737.0,19341.0,0.0
13395.0,-17372.0,19403.0,0.0
13401.0,-17070.0,19533.0,0.0
13349.0,-16695.0,19574.0,0.0
13368.0,-16412.0,19719.0,0.0
13716.0,-16526.0,20349.0,0.0
13973.0,-16519.0,20849.0,0.0
14363.0,-16655.0,21551.0,1.0
14251.0,-16204.0,21500.0,1.0
14107.0,-15723.0,21397.0,1.0
14163.0,-15469.0,21595.0,1.0
14292.0,-15291.0,21904.0,1.0
14289.0,-14971.0,22009.0,1.0
14401.0,-14769.0,22292.0,1.0
14417.0,-14466.0,22423.0,1.0
1099.0,-1079.0,1718.0,0.0
14405.0,-13821.0,22618.0,1.0
1065.0,-999.0,1681.0,0.0
1093.0,-1001.0,1733.0,0.0
14232.0,-12723.0,22648.0,1.0
14234.0,-12414.0,22748.0,1.0
14074.0,-11969.0,22587.0,1.0
13966.0,-11575.0,22508.0,1.0
14006.0,-11306.0,22665.0,1.0
13988.0,-10988.0,22724.0,1.0
13906.0,-10624.0,22679.0,1.0
13894.0,-10317.0,22748.0,1.0
13736.0,-9903.0,22574.0,1.0
13707.0,-9589.0,22610.0,1.0
13660.0,-9263.0,22613.0,1.0
1089.0,-715.0,1809.0,0.0
13733.0,-8724.0,22894.0,1.0
1127.0,-692.0,1886.0,0.0
13920.0,-8247.0,23363.0,1.0
13899.0,-7937.0,23407.0,1.0
13896.0,-7638.0,23477.0,1.0
13840.0,-7312.0,23457.0,1.0
13854.0,-7023.0,23554.0,1.0
13812.0,-6707.0,23555.0,1.0
13854.0,-6431.0,23698.0,1.0
13906.0,-6158.0,23856.0,1.0
13949.0,-5878.0,24000.0,1.0
14.0,-5.0,25.0,0.0
10.0,-3.0,17.0,0.0
15.0,-6.0,27.0,0.0
10.0,-4.0,19.0,0.0
14.0,-4.0,26.0,0.0
10.0,-3.0,20.0,0.0
13657.0,-3703.0,23941.0,1.0
14.0,-3.0,25.0,0.0
13654.0,-3113.0,24053.0,1.0
14.0,-3.0,25.0,0.0
16.0,-3.0,29.0,0.0
4.0,0.0,9.0,0.0
13.0,-2.0,24.0,0.0
12.0,-1.0,21.0,0.0
20.0,-2.0,38.0,0.0
16.0,-1.0,31.0,0.0
20.0,-1.0,36.0,0.0
29.0,-1.0,53.0,0.0
23.0,0.0,43.0,0.0
33.0,0.0,61.0,0.0
23.0,0.0,43.0,0.0
30.0,1.0,56.0,0.0
28.0,1.0,52.0,0.0
30.0,2.0,56.0,0.0
34.0,4.0,63.0,0.0
29.0,4.0,55.0,0.0
37.0,6.0,68.0,0.0
33.0,6.0,62.0,0.0
33.0,6.0,61.0,0.0
35.0,8.0,64.0,0.0
35.0,8.0,66.0,0.0
43.0,12.0,81.0,0.0
43.0,13.0,81.0,0.0
45.0,14.0,85.0,0.0
48.0,17.0,91.0,0.0
45.0,17.0,84.0,0.0
48.0,18.0,90.0,0.0
44.0,18.0,82.0,0.0
44.0,20.0,84.0,0.0
48.0,23.0,89.0,0.0
52.0,26.0,98.0,0.0
52.0,27.0,97.0,0.0
51.0,27.0,95.0,0.0
55.0,31.0,103.0,0.0
48.0,28.0,91.0,0.0
60.0,37.0,113.0,0.0
57.0,37.0,109.0,0.0
51.0,35.0,98.0,0.0
61.0,43.0,115.0,0.0
62.0,45.0,115.0,0.0
55.0,42.0,105.0,0.0
56.0,43.0,107.0,0.0
50.0,41.0,95.0,0.0
52.0,44.0,100.0,0.0
54.0,46.0,103.0,0.0
50.0,45.0,96.0,0.0
53.0,49.0,101.0,0.0
48.0,45.0,91.0,0.0
46.0,45.0,88.0,0.0
50.0,50.0,95.0,0.0
47.0,48.0,89.0,0.0
50.0,53.0,95.0,0.0
51.0,55.0,96.0,0.0
50.0,57.0,96.0,0.0
50.0,58.0,96.0,0.0
52.0,62.0,98.0,0.0
50.0,60.0,94.0,0.0
52.0,65.0,99.0,0.0
55.0,71.0,106.0,0.0
55.0,71.0,105.0,0.0
56.0,75.0,107.0,0.0
56.0,76.0,106.0,0.0
54.0,76.0,103.0,0.0
56.0,79.0,104.0,0.0
54.0,81.0,104.0,0.0
57.0,86.0,109.0,0.0
59.0,90.0,111.0,0.0
58.0,91.0,110.0,0.0
60.0,98.0,115.0,0.0
63.0,102.0,118.0,0.0
63.0,104.0,118.0,0.0
62.0,106.0,116.0,0.0
63.0,111.0,118.0,0.0
65.0,118.0,123.0,0.0
65.0,117.0,121.0,0.0
66.0,122.0,123.0,0.0
65.0,124.0,121.0,0.0
66.0,128.0,123.0,0.0
67.0,134.0,126.0,0.0
70.0,142.0,130.0,0.0
68.0,140.0,125.0,0.0
68.0,143.0,126.0,0.0
69.0,149.0,129.0,0.0
70.0,152.0,128.0,0.0
67.0,149.0,123.0,0.0
69.0,157.0,126.0,0.0
102.0,-306.0,68.0,0.0
99.0,-293.0,68.0,0.0
96.0,-281.0,68.0,0.0
97.0,-277.0,70.0,0.0
95.0,-268.0,72.0,0.0
95.0,-268.0,75.0,0.0
98.0,-271.0,79.0,0.0
99.0,-272.0,81.0,0.0
100.0,-268.0,83.0,0.0
99.0,-261.0,85.0,0.0
103.0,-269.0,91.0,0.0
101.0,-262.0,92.0,0.0
102.0,-260.0,95.0,0.0
102.0,-257.0,96.0,0.0
107.0,-265.0,103.0,0.0
107.0,-260.0,104.0,0.0
109.0,-261.0,108.0,0.0
106.0,-253.0,108.0,0.0
112.0,-262.0,115.0,0.0
109.0,-253.0,115.0,0.0
109.0,-250.0,116.0,0.0
115.0,-257.0,124.0,0.0
116.0,-258.0,128.0,0.0
116.0,-254.0,130.0,0.0
117.0,-253.0,133.0,0.0
117.0,-249.0,134.0,0.0
125.0,-262.0,144.0,0.0
125.0,-257.0,146.0,0.0
131.0,-265.0,155.0,0.0
124.0,-250.0,149.0,0.0
119.0,-236.0,144.0,0.0
117.0,-228.0,143.0,0.0
109.0,-211.0,136.0,0.0
107.0,-202.0,133.0,0.0
102.0,-190.0,129.0,0.0
95.0,-175.0,122.0,0.0
97.0,-176.0,126.0,0.0
90.0,-160.0,117.0,0.0
81.0,-144.0,108.0,0.0
83.0,-143.0,110.0,0.0
64.0,-109.0,86.0,0.0
79.0,-133.0,107.0,0.0
70.0,-116.0,96.0,0.0
69.0,-113.0,95.0,0.0
68.0,-109.0,94.0,0.0
55.0,-87.0,77.0,0.0
54.0,-84.0,77.0,0.0
56.0,-86.0,80.0,0.0
54.0,-81.0,78.0,0.0
13270.0,-19526.0,18998.0,0.0
13216.0,-19123.0,19052.0,0.0
13177.0,-18748.0,19126.0,0.0
13150.0,-18391.0,19214.0,0.0
13107.0,-18016.0,19276.0,0.0
13091.0,-17680.0,19375.0,0.0
13052.0,-17317.0,19438.0,0.0
13024.0,-16973.0,19516.0,0.0
13005.0,-16641.0,19603.0,0.0
13153.0,-16521.0,19942.0,0.0
13426.0,-16550.0,20472.0,0.0
13701.0,-16571.0,21009.0,0.0
13928.0,-16523.0,21474.0,1.0
13865.0,-16129.0,21493.0,1.0
13988.0,-15951.0,21798.0,1.0
1050.0,-1173.0,1645.0,0.0
14069.0,-15400.0,22150.0,1.0
14127.0,-15142.0,22352.0,1.0
14236.0,-14937.0,22635.0,1.0
14226.0,-14605.0,22726.0,1.0
14133.0,-14191.0,22684.0,1.0
14088.0,-13831.0,22716.0,1.0
1074.0,-1031.0,1741.0,0.0
14143.0,-13251.0,23008.0,1.0
14083.0,-12882.0,23011.0,1.0
1071.0,-955.0,1758.0,0.0
1072.0,-933.0,1769.0,0.0
13838.0,-11736.0,22894.0,1.0
13692.0,-11310.0,22743.0,1.0
1091.0,-877.0,1821.0,0.0
13619.0,-10649.0,22799.0,1.0
13564.0,-10309.0,22794.0,1.0
13410.0,-9898.0,22620.0,1.0
1085.0,-776.0,1838.0,0.0
13520.0,-9385.0,22971.0,1.0
1059.0,-712.0,1807.0,0.0
1086.0,-706.0,1859.0,0.0
1074.0,-674.0,1844.0,0.0
1078.0,-654.0,1858.0,0.0
1081.0,-632.0,1871.0,0.0
1100.0,-619.0,1908.0,0.0
1108.0,-600.0,1928.0,0.0
12.0,-5.0,21.0,0.0
1094.0,-544.0,1916.0,0.0
13480.0,-6414.0,23658.0,1.0
13586.0,-6168.0,23914.0,1.0
13566.0,-5863.0,23946.0,1.0
13.0,-5.0,24.0,0.0
18.0,-7.0,32.0,0.0
19.0,-7.0,35.0,0.0
13508.0,-4656.0,24108.0,1.0
8.0,-3.0,16.0,0.0
13.0,-4.0,25.0,0.0
13348.0,-3722.0,24005.0,1.0
13287.0,-3412.0,23955.0,1.0
16.0,-4.0,31.0,0.0
11.0,-2.0,21.0,0.0
14.0,-2.0,26.0,0.0
22.0,-3.0,40.0,0.0
16.0,-2.0,29.0,0.0
8.0,-1.0,16.0,0.0
17.0,-2.0,32.0,0.0
17.0,-2.0,32.0,0.0
26.0,-1.0,49.0,0.0
16.0,0.0,31.0,0.0
12.0,0.0,25.0,0.0
26.0,0.0,48.0,0.0
24.0,0.0,47.0,0.0
26.0,1.0,49.0,0.0
28.0,1.0,52.0,0.0
32.0,2.0,60.0,0.0
30.0,3.0,58.0,0.0
28.0,3.0,53.0,0.0
34.0,5.0,66.0,0.0
34.0,6.0,66.0,0.0
38.0,7.0,71.0,0.0
36.0,8.0,69.0,0.0
33.0,8.0,63.0,0.0
40.0,11.0,78.0,0.0
36.0,10.0,70.0,0.0
47.0,15.0,91.0,0.0
49.0,17.0,93.0,0.0
43.0,16.0,83.0,0.0
45.0,18.0,87.0,0.0
47.0,19.0,90.0,0.0
55.0,25.0,105.0,0.0
53.0,25.0,101.0,0.0
53.0,26.0,101.0,0.0
53.0,29.0,105.0,0.0
52.0,29.0,101.0,0.0
57.0,33.0,110.0,0.0
57.0,34.0,110.0,0.0
58.0,37.0,113.0,0.0
50.0,33.0,98.0,0.0
54.0,38.0,105.0,0.0
56.0,39.0,107.0,0.0
54.0,40.0,107.0,0.0
58.0,44.0,113.0,0.0
54.0,42.0,104.0,0.0
50.0,41.0,99.0,0.0
55.0,47.0,108.0,0.0
47.0,41.0,91.0,0.0
49.0,44.0,94.0,0.0
49.0,47.0,97.0,0.0
47.0,45.0,91.0,0.0
43.0,43.0,83.0,0.0
47.0,47.0,90.0,0.0
45.0,47.0,87.0,0.0
45.0,48.0,87.0,0.0
46.0,50.0,89.0,0.0
48.0,54.0,93.0,0.0
48.0,57.0,95.0,0.0
45.0,55.0,88.0,0.0
50.0,61.0,97.0,0.0
51.0,65.0,101.0,0.0
51.0,66.0,99.0,0.0
53.0,72.0,105.0,0.0
53.0,73.0,104.0,0.0
54.0,75.0,105.0,0.0
55.0,79.0,108.0,0.0
55.0,80.0,107.0,0.0
53.0,81.0,104.0,0.0
55.0,84.0,106.0,0.0
53.0,84.0,104.0,0.0
56.0,91.0,110.0,0.0
58.0,95.0,113.0,0.0
57.0,95.0,110.0,0.0
60.0,103.0,116.0,0.0
59.0,103.0,114.0,0.0
62.0,111.0,120.0,0.0
63.0,115.0,121.0,0.0
65.0,120.0,124.0,0.0
63.0,119.0,120.0,0.0
63.0,123.0,122.0,0.0
64.0,127.0,122.0,0.0
65.0,131.0,124.0,0.0
67.0,139.0,128.0,0.0
64.0,135.0,123.0,0.0
66.0,143.0,126.0,0.0
68.0,150.0,129.0,0.0
68.0,153.0,130.0,0.0
65.0,149.0,124.0,0.0
67.0,157.0,127.0,0.0
94.0,-292.0,66.0,0.0
95.0,-288.0,67.0,0.0
92.0,-279.0,69.0,0.0
93.0,-276.0,72.0,0.0
91.0,-267.0,72.0,0.0
94.0,-269.0,76.0,0.0
93.0,-265.0,77.0,0.0
95.0,-267.0,81.0,0.0
93.0,-257.0,82.0,0.0
98.0,-267.0,88.0,0.0
95.0,-255.0,87.0,0.0
97.0,-257.0,91.0,0.0
101.0,-261.0,96.0,0.0
98.0,-253.0,96.0,0.0
102.0,-260.0,102.0,0.0
102.0,-257.0,104.0,0.0
103.0,-252.0,106.0,0.0
105.0,-258.0,111.0,0.0
109.0,-263.0,117.0,0.0
106.0,-250.0,114.0,0.0
108.0,-254.0,120.0,0.0
110.0,-254.0,124.0,0.0
113.0,-257.0,129.0,0.0
111.0,-248.0,127.0,0.0
113.0,-249.0,131.0,0.0
116.0,-253.0,137.0,0.0
123.0,-264.0,146.0,0.0
124.0,-261.0,149.0,0.0
126.0,-262.0,154.0,0.0
122.0,-251.0,151.0,0.0
118.0,-239.0,147.0,0.0
111.0,-221.0,139.0,0.0
106.0,-209.0,136.0,0.0
102.0,-199.0,133.0,0.0
97.0,-185.0,127.0,0.0
96.0,-181.0,127.0,0.0
86.0,-161.0,116.0,0.0
82.0,-151.0,111.0,0.0
83.0,-149.0,112.0,0.0
71.0,-127.0,98.0,0.0
81.0,-141.0,112.0,0.0
72.0,-124.0,100.0,0.0
66.0,-112.0,93.0,0.0
67.0,-112.0,95.0,0.0
60.0,-98.0,86.0,0.0
58.0,-94.0,83.0,0.0
52.0,-83.0,76.0,0.0
49.0,-77.0,72.0,0.0
12935.0,-19813.0,18926.0,0.0
12898.0,-19429.0,19003.0,0.0
12849.0,-19035.0,19061.0,0.0
12826.0,-18680.0,19154.0,0.0
12795.0,-18318.0,19233.0,0.0
12756.0,-17948.0,19298.0,0.0
12721.0,-17586.0,19365.0,0.0
12707.0,-17258.0,19463.0,0.0
12682.0,-16917.0,19542.0,0.0
12643.0,-16558.0,19595.0,0.0
12846.0,-16516.0,20026.0,0.0
13183.0,-16634.0,20667.0,0.0
13359.0,-16538.0,21061.0,0.0
13696.0,-16631.0,21708.0,1.0
13642.0,-16243.0,21737.0,1.0
13752.0,-16050.0,22026.0,1.0
1053.0,-1205.0,1696.0,0.0
13940.0,-15618.0,22554.0,1.0
1024.0,-1123.0,1666.0,0.0
13964.0,-14996.0,22813.0,1.0
13866.0,-14571.0,22759.0,1.0
13923.0,-14311.0,22959.0,1.0
13885.0,-13952.0,23000.0,1.0
13934.0,-13683.0,23185.0,1.0
1057.0,-1013.0,1766.0,0.0
13938.0,-13050.0,23392.0,1.0
13896.0,-12696.0,23419.0,1.0
1033.0,-919.0,1749.0,0.0
13745.0,-11935.0,23354.0,1.0
1075.0,-909.0,1835.0,0.0
1067.0,-878.0,1828.0,0.0
1086.0,-869.0,1868.0,0.0
13462.0,-10477.0,23231.0,1.0
1043.0,-788.0,1808.0,0.0
1056.0,-774.0,1838.0,0.0
13449.0,-9562.0,23460.0,1.0
13521.0,-9311.0,23668.0,1.0
13541.0,-9022.0,23783.0,1.0
1056.0,-680.0,1863.0,0.0
1076.0,-668.0,1904.0,0.0
1069.0,-640.0,1897.0,0.0
13562.0,-7827.0,24136.0,1.0
1081.0,-599.0,1931.0,0.0
1062.0,-565.0,1903.0,0.0
8.0,-3.0,15.0,0.0
1065.0,-519.0,1920.0,0.0
10.0,-4.0,19.0,0.0
1038.0,-459.0,1882.0,0.0
15.0,-6.0,29.0,0.0
1076.0,-430.0,1962.0,0.0
13293.0,-5004.0,24284.0,1.0
13207.0,-4676.0,24191.0,1.0
8.0,-3.0,15.0,0.0
14.0,-4.0,26.0,0.0
7.0,-3.0,14.0,0.0
15.0,-4.0,30.0,0.0
8.0,-2.0,15.0,0.0
14.0,-3.0,26.0,0.0
9.0,-2.0,19.0,0.0
6.0,-1.0,12.0,0.0
7.0,-1.0,14.0,0.0
19.0,-3.0,38.0,0.0
16.0,-1.0,32.0,0.0
8.0,-1.0,16.0,0.0
10.0,-1.0,21.0,0.0
27.0,-1.0,52.0,0.0
13.0,0.0,26.0,0.0
27.0,0.0,52.0,0.0
23.0,0.0,46.0,0.0
31.0,0.0,60.0,0.0
27.0,2.0,54.0,0.0
23.0,1.0,46.0,0.0
31.0,3.0,61.0,0.0
31.0,4.0,62.0,0.0
35.0,6.0,69.0,0.0
29.0,5.0,58.0,0.0
34.0,7.0,67.0,0.0
33.0,8.0,64.0,0.0
36.0,10.0,70.0,0.0
34.0,9.0,67.0,0.0
37.0,11.0,73.0,0.0
41.0,13.0,80.0,0.0
43.0,15.0,86.0,0.0
40.0,16.0,80.0,0.0
41.0,17.0,82.0,0.0
41.0,17.0,81.0,0.0
49.0,23.0,97.0,0.0
47.0,23.0,93.0,0.0
44.0,22.0,88.0,0.0
46.0,25.0,93.0,0.0
48.0,27.0,96.0,0.0
48.0,28.0,96.0,0.0
48.0,29.0,96.0,0.0
51.0,33.0,102.0,0.0
49.0,33.0,98.0,0.0
48.0,34.0,97.0,0.0
53.0,38.0,107.0,0.0
51.0,39.0,101.0,0.0
51.0,40.0,100.0,0.0
53.0,43.0,105.0,0.0
49.0,40.0,98.0,0.0
51.0,44.0,102.0,0.0
47.0,41.0,93.0,0.0
48.0,45.0,97.0,0.0
44.0,42.0,89.0,0.0
41.0,40.0,82.0,0.0
42.0,43.0,85.0,0.0
40.0,41.0,80.0,0.0
42.0,45.0,85.0,0.0
44.0,49.0,88.0,0.0
45.0,51.0,91.0,0.0
45.0,52.0,90.0,0.0
43.0,52.0,87.0,0.0
45.0,55.0,90.0,0.0
44.0,56.0,89.0,0.0
49.0,63.0,98.0,0.0
46.0,61.0,92.0,0.0
47.0,64.0,94.0,0.0
50.0,70.0,100.0,0.0
49.0,70.0,99.0,0.0
53.0,77.0,105.0,0.0
51.0,78.0,104.0,0.0
51.0,77.0,101.0,0.0
51.0,81.0,104.0,0.0
52.0,84.0,105.0,0.0
54.0,88.0,108.0,0.0
55.0,92.0,110.0,0.0
56.0,96.0,113.0,0.0
55.0,96.0,109.0,0.0
58.0,104.0,116.0,0.0
58.0,108.0,117.0,0.0
58.0,107.0,114.0,0.0
61.0,115.0,121.0,0.0
59.0,116.0,118.0,0.0
60.0,120.0,120.0,0.0
60.0,124.0,121.0,0.0
61.0,127.0,121.0,0.0
62.0,132.0,123.0,0.0
61.0,132.0,121.0,0.0
62.0,139.0,124.0,0.0
63.0,142.0,125.0,0.0
63.0,145.0,124.0,0.0
63.0,146.0,123.0,0.0
64.0,153.0,125.0,0.0
93.0,-294.0,67.0,0.0
92.0,-290.0,70.0,0.0
92.0,-285.0,71.0,0.0
89.0,-271.0,71.0,0.0
90.0,-270.0,74.0,0.0
93.0,-276.0,79.0,0.0
93.0,-271.0,81.0,0.0
94.0,-271.0,84.0,0.0
96.0,-272.0,88.0,0.0
97.0,-271.0,91.0,0.0
95.0,-265.0,92.0,0.0
99.0,-270.0,97.0,0.0
101.0,-272.0,100.0,0.0
100.0,-264.0,101.0,0.0
101.0,-264.0,105.0,0.0
106.0,-273.0,111.0,0.0
105.0,-268.0,113.0,0.0
108.0,-270.0,118.0,0.0
106.0,-261.0,117.0,0.0
109.0,-265.0,123.0,0.0
107.0,-258.0,123.0,0.0
111.0,-262.0,128.0,0.0
112.0,-262.0,132.0,0.0
114.0,-264.0,136.0,0.0
117.0,-264.0,141.0,0.0
116.0,-259.0,142.0,0.0
123.0,-269.0,151.0,0.0
127.0,-275.0,159.0,0.0
124.0,-266.0,158.0,0.0
122.0,-257.0,156.0,0.0
112.0,-233.0,145.0,0.0
110.0,-224.0,143.0,0.0
105.0,-213.0,140.0,0.0
105.0,-210.0,140.0,0.0
96.0,-188.0,130.0,0.0
96.0,-185.0,131.0,0.0
84.0,-162.0,116.0,0.0
92.0,-173.0,128.0,0.0
83.0,-154.0,117.0,0.0
77.0,-140.0,109.0,0.0
74.0,-133.0,106.0,0.0
77.0,-136.0,110.0,0.0
70.0,-121.0,101.0,0.0
60.0,-102.0,87.0,0.0
