//X,Y,Z,Classification
-5196,-11939,23805,0.0
-5189,-12229,23723,0.0
-5197,-12556,23707,0.0
-5196,-12865,23654,0.0
-5187,-13155,23561,0.0
-5176,-13441,23459,0.0
-5183,-13779,23442,0.0
-5175,-14078,23356,0.0
-5177,-14409,23317,0.0
-5188,-14765,23313,0.0
-5178,-15067,23217,0.0
-5178,-15402,23169,0.0
-5170,-15718,23085,0.0
-5177,-16080,23064,0.0
-5166,-16389,22963,0.0
-5170,-16752,22931,0.0
-5168,-17101,22875,0.0
-5166,-17451,22813,0.0
-5164,-17806,22752,0.0
-5158,-18152,22675,0.0
-5157,-18521,22619,0.0
-5161,-18912,22585,0.0
-5156,-19279,22514,0.0
-5143,-19616,22402,0.0
-5143,-20012,22354,0.0
-5145,-20415,22305,0.0
-5131,-20768,22195,0.0
-5129,-21171,22133,0.0
-5124,-21569,22058,0.0
-5122,-21986,21996,0.0
-5118,-22399,21921,0.0
-5098,-22753,21784,0.0
-5099,-23206,21734,0.0
-10,-46,42,0.0
-12,-58,52,0.0
-12,-60,53,0.0
-15,-72,62,0.0
-14,-69,58,0.0
-18,-89,74,0.0
-19,-102,81,0.0
-16,-86,67,0.0
0,0,0,0.0
0,0,0,0.0
0,0,0,0.0
0,0,0,0.0
0,0,0,0.0
-330,-1978,1351,0.0
0,0,0,0.0
-315,-1970,1284,0.0
0,0,0,0.0
0,0,0,0.0
0,0,0,0.0
-305,-2073,1226,0.0
0,0,0,0.0
0,0,0,0.0
0,0,0,0.0
-21,-152,81,0.0
-21,-163,85,0.0
-25,-186,95,0.0
-22,-177,87,0.0
-25,-200,96,0.0
-24,-202,94,0.0
-26,-217,98,0.0
-25,-223,98,0.0
-28,-250,106,0.0
-30,-270,111,0.0
-29,-277,111,0.0
-31,-297,115,0.0
-34,-328,124,0.0
-34,-335,122,0.0
-32,-333,117,0.0
-32,-336,115,0.0
-31,-339,112,0.0
-31,-341,108,0.0
-29,-337,103,0.0
-29,-341,100,0.0
-3155,38809,37237,0.0
-1259,14845,14550,0.0
-1300,14711,14729,0.0
-1337,14514,14845,0.0
-2960,30901,32289,0.0
-2994,30056,32086,0.0
-1787,17265,18831,0.0
-1812,16863,18793,0.0
-1831,16407,18684,0.0
-1848,15965,18579,0.0
-1866,15549,18491,0.0
-1880,15112,18371,0.0
-1902,14753,18332,0.0
-1929,14454,18361,0.0
-1967,14225,18477,0.0
-2174,15193,20179,0.0
-3402,22977,31215,0.0
-2268,14802,20570,0.0
-2339,14761,20987,0.0
-2382,14531,21143,0.0
-2395,14130,21043,0.0
-2419,13799,21039,0.0
-3539,19530,30490,0.0
-3593,19174,30660,0.0
-3643,18803,30805,0.0
-4009,20009,33596,0.0
-4041,19504,33569,0.0
-4050,18907,33371,0.0
-3274,14778,26758,0.0
-3404,14850,27593,0.0
-3443,14519,27697,0.0
-3455,14077,27580,0.0
-3465,13638,27453,0.0
-3485,13253,27424,0.0
-3515,12904,27463,0.0
-3506,12422,27205,0.0
-3538,12092,27266,0.0
-3395,11193,26002,0.0
-3527,11208,26838,0.0
-4053,12407,30646,0.0
-4210,12408,31641,0.0
-4293,12176,32075,0.0
-4310,11757,32021,0.0
-4328,11341,31967,0.0
-4338,10915,31869,0.0
0,0,0,0.0
0,0,0,0.0
-4362,9655,31533,0.0
-4350,9209,31297,0.0
-4390,8873,31425,0.0
-4543,8754,32357,0.0
-4649,8529,32955,0.0
-4783,8340,33751,0.0
-4007,6628,28144,0.0
-4039,6325,28243,0.0
-4044,5981,28157,0.0
-4052,5646,28086,0.0
-4047,5296,27932,0.0
-4053,4966,27864,0.0
-4058,4638,27782,0.0
-4067,4318,27739,0.0
-4067,3990,27630,0.0
-4073,3672,27566,0.0
-4077,3353,27481,0.0
-4076,3036,27380,0.0
-4079,2723,27301,0.0
-4081,2412,27216,0.0
-4082,2105,27128,0.0
-4082,1799,27040,0.0
-3938,1442,25998,0.0
-4085,1194,26874,0.0
-4007,878,26279,0.0
-3977,582,26005,0.0
-4051,300,26401,0.0
-4098,10,26626,0.0
-4095,-282,26527,0.0
-4089,-571,26414,0.0
-4091,-861,26344,0.0
-4096,-1150,26308,0.0
-4088,-1433,26179,0.0
-4101,-1724,26192,0.0
-4088,-2002,26032,0.0
-4097,-2290,26023,0.0
-4094,-2572,25941,0.0
-4091,-2851,25855,0.0
-4091,-3132,25793,0.0
-4080,-3403,25656,0.0
-4083,-3686,25616,0.0
-4082,-3964,25544,0.0
-4089,-4251,25532,0.0
-4078,-4518,25402,0.0
-4081,-4799,25360,0.0
-4081,-5080,25309,0.0
-4076,-5352,25223,0.0
-4072,-5626,25144,0.0
-4065,-5895,25043,0.0
-4070,-6183,25028,0.0
-4060,-6444,24908,0.0
-4056,-6721,24842,0.0
-4054,-6998,24780,0.0
-4051,-7275,24714,0.0
-4041,-7537,24601,0.0
-4044,-7828,24581,0.0
-4048,-8120,24556,0.0
-4039,-8389,24460,0.0
-4032,-8661,24373,0.0
-4020,-8922,24259,0.0
-4019,-9210,24214,0.0
-4027,-9521,24226,0.0
-4022,-9800,24151,0.0
-4019,-10088,24097,0.0
-4015,-10374,24033,0.0
-4001,-10637,23914,0.0
-4009,-10962,23931,0.0
-3997,-11233,23826,0.0
-3996,-11533,23780,0.0
-3996,-11842,23748,0.0
-3988,-12130,23671,0.0
-3996,-12469,23687,0.0
-3987,-12758,23603,0.0
-3986,-13074,23565,0.0
-3977,-13370,23485,0.0
-3971,-13680,23426,0.0
-3971,-14011,23400,0.0
-3963,-14313,23319,0.0
-3959,-14640,23275,0.0
-3953,-14960,23215,0.0
-3948,-15291,23166,0.0
-3946,-15636,23131,0.0
-3937,-15957,23057,0.0
-3928,-16278,22979,0.0
-3927,-16647,22960,0.0
-3908,-16936,22829,0.0
-3904,-17298,22790,0.0
-3897,-17653,22737,0.0
-3891,-18010,22677,0.0
-3880,-18355,22600,0.0
-3876,-18744,22570,0.0
-3867,-19104,22497,0.0
-3862,-19497,22457,0.0
-3848,-19849,22363,0.0
-3841,-20246,22313,0.0
-3828,-20622,22235,0.0
-3818,-21015,22168,0.0
-3806,-21406,22092,0.0
-3793,-21800,22011,0.0
-3776,-22181,21912,0.0
-3768,-22618,21861,0.0
-3757,-23047,21794,0.0
-3750,-23508,21749,0.0
-7,-41,37,0.0
-9,-54,47,0.0
-12,-79,69,0.0
-262,-1796,1521,0.0
-12,-88,73,0.0
-14,-98,80,0.0
0,0,0,0.0
0,0,0,0.0
-14,-108,82,0.0
-14,-111,82,0.0
0,0,0,0.0
-240,-1975,1397,0.0
0,0,0,0.0
0,0,0,0.0
0,0,0,0.0
0,0,0,0.0
0,0,0,0.0
-218,-2086,1281,0.0
0,0,0,0.0
0,0,0,0.0
0,0,0,0.0
-204,-2162,1202,0.0
-16,-170,91,0.0
-16,-178,94,0.0
-16,-185,95,0.0
-16,-199,99,0.0
-16,-198,96,0.0
-16,-206,97,0.0
-17,-220,101,0.0
-18,-245,109,0.0
-17,-245,106,0.0
-18,-261,110,0.0
-18,-271,111,0.0
-19,-286,113,0.0
-19,-304,117,0.0
-20,-335,125,0.0
-19,-338,121,0.0
-19,-343,119,0.0
-19,-349,117,0.0
-17,-343,111,0.0
-16,-347,108,0.0
-16,-353,106,0.0
-1490,33640,32517,0.0
-1550,32814,32399,0.0
-720,14337,14461,0.0
-758,14202,14633,0.0
-1743,30842,32466,0.0
-1758,29435,31654,0.0
-1821,28902,31755,0.0
-1870,28175,31630,0.0
-1915,27436,31472,0.0
-1979,27004,31655,0.0
-1982,25797,30906,0.0
-2040,25338,31027,0.0
-2088,24774,31011,0.0
-1359,15421,19734,0.0
-1360,14780,19338,0.0
-1405,14630,19576,0.0
-1473,14702,20119,0.0
-1573,15058,21081,0.0
-1615,14843,21260,0.0
-1636,14438,21162,0.0
-2420,20517,30780,0.0
-2398,19544,30018,0.0
-2481,19440,30576,0.0
-2509,18916,30475,0.0
-2572,18658,30796,0.0
-2608,18202,30791,0.0
-2873,19298,33467,0.0
-2904,18771,33382,0.0
-2357,14667,26760,0.0
-2432,14569,27278,0.0
-2492,14368,27618,0.0
-2508,13924,27488,0.0
-2534,13541,27470,0.0
-2563,13185,27496,0.0
-2597,12852,27568,0.0
0,0,0,0.0
-2621,12000,27271,0.0
-2637,11604,27170,0.0
-2650,11207,27053,0.0
-2878,11698,29131,0.0
-2906,11340,29155,0.0
-3223,12071,32063,0.0
-3253,11685,32094,0.0
-3264,11240,31948,0.0
-3274,10798,31798,0.0
-3291,10389,31728,0.0
-3296,9947,31537,0.0
-3275,9440,31106,0.0
-3321,9136,31334,0.0
-3375,8848,31624,0.0
-3479,8679,32378,0.0
-3584,8495,33138,0.0
-3019,6791,27747,0.0
-3095,6591,28262,0.0
-3100,6239,28138,0.0
-3106,5893,28024,0.0
-3125,5577,28043,0.0
-3127,5233,27903,0.0
-3141,4913,27878,0.0
-3144,4581,27764,0.0
-3156,4263,27727,0.0
-3160,3938,27616,0.0
-3161,3613,27494,0.0
-3175,3306,27474,0.0
-3175,2988,27349,0.0
-3180,2678,27274,0.0
-3185,2370,27197,0.0
-3190,2064,27114,0.0
-3194,1761,27041,0.0
-3083,1406,25992,0.0
-3203,1161,26892,0.0
-3164,851,26461,0.0
-3129,553,26067,0.0
-3205,273,26609,0.0
-3219,-18,26629,0.0
-3213,-308,26478,0.0
-3214,-596,26394,0.0
-3220,-884,26361,0.0
-3219,-1169,26265,0.0
-3217,-1452,26168,0.0
-3222,-1737,26119,0.0
-3223,-2020,26053,0.0
-3224,-2301,25981,0.0
-3223,-2581,25909,0.0
-3221,-2858,25816,0.0
-3222,-3137,25750,0.0
-3221,-3414,25680,0.0
-3220,-3691,25607,0.0
-3221,-3970,25550,0.0
-3219,-4244,25471,0.0
-3220,-4523,25424,0.0
-3218,-4798,25351,0.0
-3215,-5070,25273,0.0
-3212,-5343,25192,0.0
-3210,-5617,25129,0.0
-3209,-5894,25068,0.0
-3206,-6168,24999,0.0
-3202,-6437,24919,0.0
-3195,-6704,24824,0.0
-3191,-6977,24753,0.0
-3188,-7253,24690,0.0
-3189,-7538,24661,0.0
-3181,-7804,24560,0.0
-3182,-8091,24530,0.0
-3174,-8359,24438,0.0
-3168,-8634,24368,0.0
-3166,-8918,24318,0.0
-3165,-9206,24277,0.0
-3155,-9474,24182,0.0
-3154,-9767,24147,0.0
-3158,-10079,24153,0.0
-3146,-10345,24048,0.0
-3135,-10611,23941,0.0
-3130,-10901,23886,0.0
-3123,-11186,23816,0.0
-3120,-11492,23788,0.0
-3116,-11792,23741,0.0
-3109,-12084,23674,0.0
-3106,-12396,23644,0.0
-3102,-12711,23612,0.0
-3098,-13029,23581,0.0
-3087,-13318,23496,0.0
-3080,-13628,23439,0.0
-3068,-13920,23351,0.0
-3064,-14248,23318,0.0
-3060,-14589,23300,0.0
-3042,-14865,23174,0.0
-3032,-15180,23106,0.0
-3031,-15549,23112,0.0
-3019,-15867,23039,0.0
-3010,-16200,22980,0.0
-3003,-16553,22945,0.0
-2991,-16889,22882,0.0
-2982,-17240,22830,0.0
-2968,-17577,22756,0.0
-2961,-17956,22729,0.0
-2945,-18291,22641,0.0
-2926,-18612,22532,0.0
-2919,-19005,22504,0.0
-2902,-19357,22419,0.0
-2894,-19769,22398,0.0
-2874,-20106,22287,0.0
-2862,-20516,22249,0.0
-2847,-20902,22177,0.0
-2825,-21251,22062,0.0
-2814,-21695,22037,0.0
-2797,-22107,21972,0.0
-2778,-22503,21885,0.0
-5,-42,40,0.0
-2736,-23306,21698,0.0
-4,-40,36,0.0
-6,-54,48,0.0
-8,-74,65,0.0
-2658,-25095,21406,0.0
-10,-99,82,0.0
-9,-85,70,0.0
-9,-95,76,0.0
0,0,0,0.0
-9,-103,78,0.0
-10,-107,79,0.0
0,0,0,0.0
0,0,0,0.0
0,0,0,0.0
0,0,0,0.0
0,0,0,0.0
0,0,0,0.0
0,0,0,0.0
0,0,0,0.0
0,0,0,0.0
0,0,0,0.0
0,0,0,0.0
-9,-157,88,0.0
-9,-148,81,0.0
-10,-173,92,0.0
-9,-173,89,0.0
-9,-174,88,0.0
-9,-191,93,0.0
-10,-210,101,0.0
-10,-213,99,0.0
-9,-220,100,0.0
-10,-251,110,0.0
-9,-237,102,0.0
-10,-270,111,0.0
-9,-265,106,0.0
-10,-291,113,0.0
-9,-323,121,0.0
-10,-341,124,0.0
-9,-346,122,0.0
-8,-352,120,0.0
-7,-354,116,0.0
-7,-349,110,0.0
-6,-352,107,0.0
-336,17276,16771,0.0
-375,17040,16897,0.0
-381,15447,15647,0.0
-382,13982,14468,0.0
-416,13800,14587,0.0
-530,16066,17350,0.0
-554,15439,17035,0.0
-592,15275,17220,0.0
-625,14985,17263,0.0
-1207,26965,31743,0.0
-1230,25698,30918,0.0
-1289,25251,31052,0.0
-1338,24650,30986,0.0
0,0,0,0.0
-932,15286,20087,0.0
-977,15152,20361,0.0
-996,14636,20114,0.0
-1074,14990,21075,0.0
-1113,14750,21217,0.0
-1142,14398,21194,0.0
0,0,0,0.0
-1708,19554,30162,0.0
-1739,19002,30016,0.0
-1816,18933,30634,0.0
-1863,18568,30781,0.0
-2076,19778,33605,0.0
-2111,19242,33516,0.0
-2140,18671,33352,0.0
-2175,18167,33292,0.0
-2202,17614,33125,0.0
-1865,14291,27593,0.0
-1890,13874,27512,0.0
-1915,13466,27442,0.0
-1953,13170,27591,0.0
-1972,12742,27455,0.0
-2011,12448,27603,0.0
-2016,11960,27307,0.0
-2014,11447,26927,0.0
-2042,11117,26962,0.0
-2230,11628,29095,0.0
-2266,11312,29222,0.0
-2519,12032,32114,0.0
-2538,11592,31995,0.0
-2562,11188,31961,0.0
-2586,10788,31925,0.0
-2596,10343,31746,0.0
-2606,9898,31538,0.0
-2609,9445,31284,0.0
-2631,9069,31266,0.0
-2692,8826,31717,0.0
-2782,8661,32490,0.0
-2865,8460,33183,0.0
-2407,6731,27657,0.0
-2477,6547,28240,0.0
-2489,6207,28165,0.0
-2496,5857,28030,0.0
-2510,5530,27979,0.0
-2520,5200,27902,0.0
-2529,4870,27814,0.0
-2538,4543,27731,0.0
-2544,4216,27610,0.0
-2557,3903,27578,0.0
-2561,3581,27460,0.0
-2572,3272,27417,0.0
-2577,2957,27308,0.0
-2583,2649,27232,0.0
-2591,2343,27165,0.0
-2597,2039,27086,0.0
-2598,1733,26955,0.0
-2513,1384,25942,0.0
-2609,1138,26815,0.0
-2576,830,26345,0.0
-2558,535,26053,0.0
-2622,256,26589,0.0
-2632,-33,26571,0.0
-2630,-321,26445,0.0
-2638,-611,26422,0.0
-2637,-895,26312,0.0
-2638,-1179,26227,0.0
-2643,-1465,26186,0.0
-2645,-1747,26114,0.0
-2643,-2025,26006,0.0
-2647,-2307,25954,0.0
-2578,-2517,25193,0.0
-2646,-2862,25792,0.0
-2652,-3145,25779,0.0
-2651,-3420,25689,0.0
-2647,-3691,25587,0.0
-2648,-3970,25533,0.0
-2650,-4247,25482,0.0
-2649,-4522,25417,0.0
-2645,-4790,25316,0.0
-2623,-5025,25057,0.0
-2630,-5314,25070,0.0
-2640,-5612,25117,0.0
-2637,-5884,25046,0.0
-2639,-6165,25015,0.0
-2628,-6418,24872,0.0
-2625,-6693,24812,0.0
-2559,-6800,24155,0.0
-2617,-7235,24662,0.0
-2609,-7499,24565,0.0
-2611,-7790,24554,0.0
-2611,-8077,24529,0.0
-2551,-8176,23942,0.0
-2538,-8420,23805,0.0
-2535,-8695,23751,0.0
-2577,-9139,24146,0.0
-2553,-9348,23906,0.0
-2549,-9628,23851,0.0
-2561,-9979,23965,0.0
-2568,-10313,24023,0.0
-2564,-10607,23982,0.0
-2550,-10865,23858,0.0
-2487,-10909,23279,0.0
-2472,-11156,23144,0.0
-2531,-11747,23707,0.0
-2527,-12056,23676,0.0
-2515,-12334,23582,0.0
-2508,-12636,23532,0.0
-2503,-12961,23519,0.0
-2500,-13292,23510,0.0
-2487,-13581,23420,0.0
-2424,-13590,22859,0.0
-2406,-13845,22720,0.0
-2396,-14153,22665,0.0
-2438,-14780,23104,0.0
-2439,-15178,23168,0.0
-2423,-15465,23054,0.0
-2416,-15826,23045,0.0
-2403,-16152,22981,0.0
-2390,-16481,22914,0.0
-2379,-16834,22875,0.0
-2366,-17178,22819,0.0
-2352,-17524,22758,0.0
-2335,-17852,22670,0.0
-2324,-18239,22650,0.0
-2305,-18570,22554,0.0
-2286,-18900,22453,0.0
-2279,-19353,22490,0.0
-2261,-19714,22412,0.0
-2237,-20033,22281,0.0
-2221,-20425,22227,0.0
-2201,-20807,22153,0.0
-2181,-21193,22079,0.0
-2163,-21598,22018,0.0
-2149,-22076,22020,0.0
-2120,-22402,21866,0.0
-2096,-22804,21780,0.0
-2080,-23288,21765,0.0
-3,-30,28,0.0
-5,-59,53,0.0
-5,-55,48,0.0
-4,-58,49,0.0
-6,-72,60,0.0
-6,-75,61,0.0
-6,-85,68,0.0
-128,-1841,1443,0.0
-129,-1919,1471,0.0
0,0,0,0.0
0,0,0,0.0
0,0,0,0.0
0,0,0,0.0
0,0,0,0.0
0,0,0,0.0
0,0,0,0.0
0,0,0,0.0
0,0,0,0.0
-92,-2056,1249,0.0
-90,-2090,1239,0.0
-84,-2056,1189,0.0
0,0,0,0.0
-6,-153,84,0.0
-5,-147,79,0.0
-5,-154,80,0.0
-5,-159,81,0.0
-6,-187,92,0.0
-5,-193,93,0.0
-5,-224,105,0.0
-5,-222,100,0.0
-5,-236,104,0.0
-4,-245,105,0.0
-4,-254,105,0.0
-3,-261,106,0.0
-4,-276,108,0.0
-3,-315,120,0.0
-3,-336,123,0.0
-2,-341,121,0.0
-1,-345,118,0.0
-1,-338,111,0.0
0,-344,110,0.0
0,-346,106,0.0
92,16614,16188,0.0
53,16370,16293,0.0
16,16502,16778,0.0
-21,16457,17092,0.0
-49,13661,14494,0.0
-96,15985,17327,0.0
-131,15534,17204,0.0
-167,15196,17195,0.0
-202,14998,17342,0.0
-435,27056,31970,0.0
-479,25586,30898,0.0
-538,25181,31081,0.0
-592,24533,30955,0.0
-653,24231,31257,0.0
-455,15266,20134,0.0
-745,22788,30735,0.0
-520,14571,20101,0.0
-582,15019,21194,0.0
-609,14520,20965,0.0
-648,14367,21229,0.0
0,0,0,0.0
-1018,19637,30407,0.0
-1051,19024,30165,0.0
-1107,18799,30534,0.0
-1158,18506,30798,0.0
-1307,19688,33581,0.0
-1346,19146,33479,0.0
-1383,18593,33344,0.0
-1147,14608,26875,0.0
-1205,14539,27450,0.0
-1243,14223,27572,0.0
-1269,13787,27452,0.0
-1300,13417,27450,0.0
-1338,13127,27611,0.0
-1357,12656,27383,0.0
-1448,12857,28626,0.0
-1520,12847,29452,0.0
-1402,11284,26655,0.0
-1447,11077,26977,0.0
-1689,12314,30941,0.0
-1745,12117,31435,0.0
-1804,11927,31970,0.0
-1832,11525,31948,0.0
-1857,11116,31895,0.0
-1873,10663,31698,0.0
-1900,10280,31693,0.0
-1919,9864,31577,0.0
-1922,9380,31216,0.0
-1952,9036,31300,0.0
-2004,8792,31744,0.0
-2075,8618,32485,0.0
-2151,8445,33289,0.0
-1809,6704,27684,0.0
-1862,6504,28197,0.0
-1878,6171,28146,0.0
-1890,5830,28044,0.0
-1902,5495,27958,0.0
-1915,5166,27878,0.0
-1928,4843,27826,0.0
-1936,4513,27706,0.0
-1948,4194,27642,0.0
-1961,3879,27582,0.0
-1969,3561,27488,0.0
-1977,3247,27402,0.0
-1987,2935,27317,0.0
-1995,2628,27245,0.0
-1948,2258,26415,0.0
-1927,1934,25954,0.0
-1937,1649,25935,0.0
-1943,1361,25850,0.0
-1950,1077,25791,0.0
-1956,793,25712,0.0
-1961,512,25651,0.0
-1972,233,25645,0.0
-1981,-45,25644,0.0
-2020,-329,26007,0.0
-2048,-619,26252,0.0
-2061,-906,26297,0.0
-2065,-1190,26232,0.0
-2072,-1475,26204,0.0
-2072,-1754,26097,0.0
-2074,-2035,26032,0.0
-2077,-2315,25965,0.0
-2080,-2595,25920,0.0
-2080,-2870,25828,0.0
-2080,-3145,25738,0.0
-2080,-3420,25670,0.0
-2084,-3702,25642,0.0
-2083,-3975,25563,0.0
-2083,-4250,25496,0.0
-2080,-4520,25405,0.0
-2080,-4793,25338,0.0
-2288,-5577,27814,0.0
-2317,-5955,28109,0.0
-2061,-5571,24955,0.0
-2073,-5882,25059,0.0
-2071,-6158,25007,0.0
-2046,-6359,24668,0.0
-2050,-6651,24683,0.0
-2039,-6898,24533,0.0
-2053,-7233,24687,0.0
-2051,-7509,24633,0.0
-2044,-7777,24551,0.0
-2041,-8056,24499,0.0
-1991,-8146,23894,0.0
-1982,-8399,23784,0.0
-1979,-8680,23753,0.0
-2014,-9138,24187,0.0
-2007,-9411,24111,0.0
-2012,-9742,24178,0.0
-2002,-10010,24084,0.0
-1998,-10307,24055,0.0
-1989,-10583,23978,0.0
-1979,-10855,23886,0.0
-1952,-11037,23600,0.0
-1958,-11405,23713,0.0
-1953,-11716,23695,0.0
-1947,-12029,23675,0.0
-1939,-12332,23633,0.0
-1930,-12635,23585,0.0
-1921,-12945,23545,0.0
-1912,-13252,23495,0.0
-1899,-13540,23405,0.0
-1891,-13875,23395,0.0
-1876,-14159,23293,0.0
-1864,-14472,23235,0.0
-1855,-14813,23216,0.0
-1843,-15142,23172,0.0
-1825,-15434,23070,0.0
-1814,-15781,23040,0.0
-1801,-16115,22989,0.0
-1784,-16435,22911,0.0
-1771,-16797,22888,0.0
-1752,-17104,22784,0.0
-1737,-17466,22747,0.0
-1718,-17777,22639,0.0
-1703,-18157,22614,0.0
-1687,-18531,22573,0.0
-1665,-18869,22483,0.0
-1647,-19244,22430,0.0
-1626,-19602,22353,0.0
-1607,-19995,22308,0.0
-1585,-20355,22219,0.0
-1564,-20758,22172,0.0
-1540,-21137,22091,0.0
-1518,-21533,22022,0.0
-1494,-21937,21954,0.0
-1469,-22347,21884,0.0
-1441,-22727,21780,0.0
-1416,-23159,21717,0.0
-1387,-23556,21614,0.0
-4,-61,55,0.0
-1328,-24398,21433,0.0
-1299,-24850,21358,0.0
0,0,0,0.0
-1191,-24823,20418,0.0
-4,-98,79,0.0
0,0,0,0.0
-81,-1940,1493,0.0
-76,-1911,1439,0.0
0,0,0,0.0
0,0,0,0.0
0,0,0,0.0
0,0,0,0.0
0,0,0,0.0
0,0,0,0.0
0,0,0,0.0
0,0,0,0.0
0,0,0,0.0
0,0,0,0.0
-39,-2150,1249,0.0
0,0,0,0.0
-29,-2023,1118,0.0
0,0,0,0.0
-2,-178,93,0.0
-1,-165,84,0.0
-1,-192,95,0.0
-1,-197,95,0.0
0,-211,100,0.0
0,-232,106,0.0
0,-229,102,0.0
0,-245,106,0.0
0,-249,104,0.0
0,-270,110,0.0
1,-280,110,0.0
2,-293,112,0.0
3,-337,124,0.0
3,-354,127,0.0
4,-347,120,0.0
5,-360,120,0.0
5,-357,115,0.0
6,-351,109,0.0
1438,13485,13270,0.0
1412,13335,13404,0.0
1415,13454,13815,0.0
1393,13351,14004,0.0
1391,13422,14382,0.0
1359,13208,14459,0.0
1345,13165,14725,0.0
1314,12955,14805,0.0
1532,15220,17773,0.0
1510,15107,18028,0.0
1598,16089,19623,0.0
1367,13870,17292,0.0
1248,12754,16254,0.0
1232,12673,16512,0.0
1634,16931,22558,0.0
1474,15366,20936,0.0
1366,14350,19997,0.0
1439,15213,21688,0.0
1366,14542,21213,0.0
1331,14256,21282,0.0
1302,14032,21441,0.0
1637,17766,27794,0.0
1505,16440,26341,0.0
1450,15934,26151,0.0
1393,15408,25910,0.0
1364,15177,26160,0.0
1339,14981,26473,0.0
1290,14504,26287,0.0
1247,14104,26226,0.0
1208,13727,26197,0.0
1164,13299,26060,0.0
1116,12810,25783,0.0
1087,12530,25919,0.0
1130,13099,27855,0.0
1111,12929,28284,0.0
1105,12898,29039,0.0
1170,13707,31782,0.0
1116,13116,31336,0.0
1082,12743,31389,0.0
1049,12383,31474,0.0
1033,12216,32061,0.0
998,11812,32036,0.0
960,11371,31898,0.0
924,10941,31773,0.0
892,10557,31763,0.0
858,10142,31655,0.0
827,9757,31623,0.0
789,9276,31256,0.0
765,8945,31383,0.0
751,8735,31951,0.0
740,8551,32660,0.0
594,6810,27206,0.0
590,6691,28014,0.0
571,6403,28148,0.0
549,6066,28067,0.0
527,5740,28016,0.0
506,5409,27934,0.0
487,5084,27865,0.0
467,4756,27758,0.0
448,4430,27651,0.0
430,4116,27595,0.0
411,3796,27474,0.0
395,3483,27390,0.0
379,3178,27351,0.0
365,2871,27276,0.0
349,2565,27193,0.0
336,2266,27142,0.0
322,1963,27036,0.0
308,1657,26839,0.0
286,1320,25918,0.0
279,1049,26166,0.0
267,761,25959,0.0
259,484,26178,0.0
253,204,26459,0.0
244,-81,26359,0.0
236,-364,26284,0.0
228,-647,26254,0.0
220,-926,26124,0.0
213,-1208,26087,0.0
207,-1487,26043,0.0
201,-1763,25953,0.0
195,-2037,25854,0.0
188,-2272,25337,0.0
184,-2536,25214,0.0
180,-2804,25145,0.0
180,-3135,25605,0.0
177,-3396,25457,0.0
175,-3676,25451,0.0
174,-3948,25392,0.0
173,-4228,25393,0.0
172,-4490,25279,0.0
172,-4755,25187,0.0
173,-5020,25096,0.0
173,-5293,25054,0.0
175,-5564,25003,0.0
176,-5807,24828,0.0
179,-6101,24870,0.0
182,-6366,24792,0.0
185,-6619,24670,0.0
189,-6872,24550,0.0
193,-7134,24467,0.0
197,-7366,24282,0.0
199,-7537,23914,0.0
198,-7494,22912,0.0
203,-7753,22865,0.0
211,-8013,22820,0.0
230,-8761,24115,0.0
238,-9028,24035,0.0
248,-9344,24086,0.0
253,-9456,23614,0.0
256,-9501,23005,0.0
265,-9742,22884,0.0
287,-10432,23790,0.0
299,-10740,23790,0.0
311,-10998,23677,0.0
323,-11285,23625,0.0
338,-11609,23644,0.0
350,-11868,23526,0.0
366,-12193,23534,0.0
380,-12485,23474,0.0
396,-12798,23450,0.0
414,-13136,23465,0.0
432,-13459,23443,0.0
449,-13754,23370,0.0
468,-14046,23289,0.0
487,-14354,23228,0.0
507,-14682,23196,0.0
528,-15001,23143,0.0
549,-15335,23108,0.0
553,-15163,22322,0.0
578,-15549,22368,0.0
612,-16176,22742,0.0
636,-16476,22644,0.0
666,-16952,22778,0.0
693,-17311,22743,0.0
720,-17656,22684,0.0
747,-17982,22596,0.0
777,-18359,22565,0.0
754,-17500,21041,0.0
835,-19040,22397,0.0
869,-19444,22379,0.0
899,-19781,22277,0.0
933,-20146,22201,0.0
968,-20542,22152,0.0
1005,-20942,22101,0.0
969,-19854,20504,0.0
1002,-20186,20402,0.0
1036,-20525,20303,0.0
1071,-20839,20173,0.0
1098,-21005,19900,0.0
1136,-21380,19821,0.0
1173,-21716,19702,0.0
1329,-24186,21473,0.0
1375,-24623,21390,0.0
1273,-22430,19064,0.0
1311,-22734,18904,0.0
1354,-23100,18791,0.0
1399,-23505,18704,0.0
0,0,0,0.0
0,0,0,0.0
118,-1914,1424,0.0
121,-1922,1398,0.0
0,0,0,0.0
0,0,0,0.0
0,0,0,0.0
134,-1999,1327,0.0
0,0,0,0.0
0,0,0,0.0
0,0,0,0.0
0,0,0,0.0
0,0,0,0.0
0,0,0,0.0
156,-2104,1178,0.0
162,-2150,1175,0.0
12,-174,93,0.0
13,-182,94,0.0
13,-179,89,0.0
15,-194,96,0.0
16,-209,100,0.0
19,-230,107,0.0
18,-228,103,0.0
21,-247,108,0.0
22,-262,111,0.0
22,-266,110,0.0
24,-275,110,0.0
26,-295,114,0.0
29,-336,126,0.0
31,-345,125,0.0
31,-351,123,0.0
31,-345,117,0.0
33,-357,117,0.0
34,-356,113,0.0
2125,13468,13278,0.0
2123,13458,13553,0.0
2118,13423,13808,0.0
2093,13260,13935,0.0
2555,16175,17365,0.0
2093,13246,14529,0.0
2080,13156,14741,0.0
2370,14970,17142,0.0
2324,14658,17151,0.0
1919,12086,14452,0.0
1916,12051,14728,0.0
2168,13607,16998,0.0
2176,13625,17400,0.0
2178,13603,17761,0.0
2186,13623,18188,0.0
2199,13659,18649,0.0
2210,13682,19107,0.0
2205,13606,19438,0.0
2204,13539,19793,0.0
2200,13459,20136,0.0
2223,13535,20727,0.0
2225,13478,21132,0.0
2186,13173,21151,0.0
2139,12818,21085,0.0
2013,11988,20207,0.0
2023,11965,20670,0.0
2001,11753,20818,0.0
2000,11656,21173,0.0
2439,14097,26274,0.0
2388,13685,26178,0.0
2327,13212,25951,0.0
2058,11571,23345,0.0
2385,13272,27518,0.0
2375,13070,27862,0.0
2370,12890,28266,0.0
2078,11165,25198,0.0
2072,10987,25535,0.0
2489,13018,31178,0.0
2052,10571,26106,0.0
2039,10342,26353,0.0
2293,11439,30099,0.0
2403,11779,32030,0.0
2356,11336,31883,0.0
2317,10928,31816,0.0
2266,10469,31586,0.0
2232,10085,31561,0.0
2198,9698,31522,0.0
2145,9231,31194,0.0
2129,8927,31407,0.0
2143,8734,32037,0.0
1656,6551,25095,0.0
1639,6279,25160,0.0
1610,5963,25037,0.0
1587,5667,24991,0.0
1566,5380,24969,0.0
1541,5077,24860,0.0
1519,4788,24807,0.0
1501,4506,24779,0.0
1479,4217,24697,0.0
1459,3930,24616,0.0
1446,3666,24662,0.0
1421,3371,24490,0.0
1419,3128,24690,0.0
1552,3156,27269,0.0
1376,2557,24393,0.0
1519,2552,27166,0.0
1501,2249,27067,0.0
1395,1832,25357,0.0
1465,1649,26833,0.0
1377,1286,25410,0.0
1353,1001,25146,0.0
1311,712,24528,0.0
1322,455,24884,0.0
1312,187,24852,0.0
1301,-80,24756,0.0
1269,-340,24265,0.0
1229,-586,23603,0.0
1224,-841,23635,0.0
1260,-1130,24390,0.0
1263,-1403,24549,0.0
1256,-1663,24462,0.0
1250,-1923,24407,0.0
1244,-2182,24345,0.0
1239,-2441,24290,0.0
1235,-2698,24225,0.0
1232,-2957,24176,0.0
1231,-3221,24171,0.0
1227,-3474,24086,0.0
1225,-3730,24025,0.0
1227,-3996,24030,0.0
1223,-4242,23912,0.0
1224,-4501,23875,0.0
1223,-4751,23798,0.0
1224,-5008,23745,0.0
1228,-5272,23730,0.0
1229,-5524,23661,0.0
1231,-5777,23592,0.0
1235,-6035,23549,0.0
1238,-6292,23495,0.0
1243,-6548,23439,0.0
1249,-6812,23407,0.0
1252,-7054,23305,0.0
1260,-7324,23286,0.0
1265,-7572,23198,0.0
1272,-7831,23148,0.0
1278,-8077,23052,0.0
1287,-8342,23011,0.0
1298,-8614,22987,0.0
1307,-8875,22927,0.0
1317,-9139,22875,0.0
1327,-9394,22799,0.0
1340,-9665,22760,0.0
1350,-9919,22676,0.0
1365,-10203,22657,0.0
1375,-10449,22551,0.0
1390,-10726,22509,0.0
1403,-10985,22429,0.0
1421,-11277,22412,0.0
1434,-11527,22306,0.0
1450,-11800,22245,0.0
1470,-12092,22213,0.0
1484,-12350,22116,0.0
1505,-12646,22085,0.0
1523,-12917,22005,0.0
1542,-13196,21936,0.0
1562,-13470,21855,0.0
1583,-13756,21791,0.0
1608,-14074,21772,0.0
0,0,0,0.0
1932,-17112,25261,0.0
1957,-17421,25130,0.0
1850,-16550,23332,0.0
1830,-16444,22661,0.0
1814,-16362,22046,0.0
1792,-16228,21380,0.0
1784,-16205,20878,0.0
1773,-16146,20346,0.0
1790,-16334,20133,0.0
1824,-16672,20103,0.0
1857,-17005,20061,0.0
1889,-17303,19973,0.0
1926,-17666,19952,0.0
1956,-17942,19831,0.0
1993,-18295,19787,0.0
2026,-18593,19679,0.0
2068,-18963,19643,0.0
2107,-19310,19576,0.0
2147,-19658,19504,0.0
2185,-19971,19392,0.0
2229,-20349,19336,0.0
2273,-20713,19262,0.0
2317,-21072,19177,0.0
2366,-21478,19127,0.0
2411,-21825,19020,0.0
2463,-22240,18964,0.0
2510,-22599,18853,0.0
2564,-23017,18784,0.0
2617,-23422,18699,0.0
2651,-23639,18458,0.0
0,0,0,0.0
0,0,0,0.0
0,0,0,0.0
0,0,0,0.0
228,-2005,1398,0.0
0,0,0,0.0
0,0,0,0.0
0,0,0,0.0
0,0,0,0.0
0,0,0,0.0
0,0,0,0.0
240,-2040,1206,0.0
0,0,0,0.0
0,0,0,0.0
257,-2139,1173,0.0
19,-164,87,0.0
19,-163,84,0.0
20,-168,85,0.0
22,-185,91,0.0
24,-198,95,0.0
26,-211,98,0.0
27,-225,102,0.0
26,-217,95,0.0
30,-248,106,0.0
33,-258,107,0.0
33,-260,105,0.0
36,-282,110,0.0
41,-320,120,0.0
44,-339,124,0.0
45,-346,122,0.0
45,-341,116,0.0
45,-345,113,0.0
46,-342,109,0.0
-3824,16106,14757,0.0
-3908,16066,15038,0.0
-3988,16006,15308,0.0
-4066,15934,15569,0.0
-4152,15884,15858,0.0
-4209,15722,16037,0.0
-4317,15745,16410,0.0
-4343,15462,16467,0.0
-4427,15386,16747,0.0
-4398,14923,16599,0.0
-4456,14762,16782,0.0
-4762,15397,17892,0.0
-4865,15353,18237,0.0
-4959,15275,18551,0.0
-5021,15093,18742,0.0
-5151,15110,19187,0.0
-5208,14904,19355,0.0
-5180,14462,19212,0.0
-5223,14222,19330,0.0
-5581,14823,20615,0.0
-5696,14748,20992,0.0
-5809,14663,21367,0.0
-5912,14543,21697,0.0
-6307,15119,23102,0.0
-6677,15593,24408,0.0
-6665,15160,24316,0.0
-6605,14627,24048,0.0
-6564,14149,23851,0.0
-6617,13879,23997,0.0
-6480,13219,23450,0.0
-6618,13129,23905,0.0
-9243,17823,33321,0.0
-9210,17254,33136,0.0
-9220,16775,33109,0.0
-9191,16233,32941,0.0
-9170,15713,32804,0.0
0,0,0,0.0
-8485,13663,30236,0.0
-8489,13240,30192,0.0
-8416,12706,29876,0.0
-8585,12538,30419,0.0
-8687,12263,30724,0.0
-9073,12370,32026,0.0
-9140,12023,32198,0.0
-9120,11567,32069,0.0
-9123,11143,32014,0.0
-9058,10647,31731,0.0
0,0,0,0.0
0,0,0,0.0
-8981,9335,31278,0.0
-9043,8998,31434,0.0
-9222,8770,31998,0.0
-9446,8570,32710,0.0
-7320,6325,25299,0.0
-7321,6012,25257,0.0
-7308,5691,25165,0.0
-7302,5379,25098,0.0
-7294,5068,25021,0.0
-7280,4755,24923,0.0
-7286,4460,24897,0.0
-7273,4154,24801,0.0
-7274,3859,24756,0.0
-7278,3567,24720,0.0
-7262,3268,24618,0.0
-7260,2978,24566,0.0
-7241,2683,24450,0.0
-7255,2403,24450,0.0
-7243,2116,24359,0.0
-7239,1833,24296,0.0
-7239,1553,24248,0.0
-7228,1272,24161,0.0
-7223,994,24096,0.0
-7208,717,23998,0.0
-7219,443,23982,0.0
-7217,170,23925,0.0
-7211,-101,23857,0.0
-7212,-371,23812,0.0
-7209,-641,23754,0.0
-7208,-909,23699,0.0
-7515,-1227,24656,0.0
-7722,-1548,25282,0.0
-8151,-1934,26626,2.0
-8205,-2250,26743,2.0
-8252,-2566,26836,2.0
-8314,-2890,26979,2.0
-8466,-3253,27413,2.0
-8546,-3596,27609,2.0
-8608,-3937,27747,2.0
-8664,-4277,27861,2.0
-8714,-4619,27959,2.0
-8790,-4979,28136,2.0
-8871,-5347,28329,2.0
-8921,-5701,28421,2.0
-8906,-6015,28308,2.0
-8926,-6352,28302,2.0
-8881,-6643,28092,2.0
-9014,-7069,28442,2.0
-9091,-7459,28617,2.0
-9195,-7877,28867,2.0
0,0,0,0.0
-9245,-8593,28879,2.0
-9241,-8924,28792,2.0
-9254,-9275,28759,2.0
-9270,-9629,28733,2.0
-9265,-9965,28644,2.0
-9235,-10270,28474,2.0
-9177,-10542,28215,2.0
-9037,-10714,27710,2.0
-9043,-11055,27651,2.0
-9133,-11504,27850,2.0
-9141,-11853,27794,2.0
-9229,-12311,27980,2.0
-9263,-12702,28000,2.0
-9318,-13126,28085,2.0
-9291,-13438,27919,2.0
-9206,-13663,27580,2.0
-9188,-13983,27441,2.0
0,0,0,0.0
-9014,-14408,26756,2.0
-8948,-14646,26473,2.0
-8876,-14871,26175,2.0
-8869,-15206,26072,2.0
-8803,-15436,25790,2.0
-8729,-15649,25489,2.0
-8683,-15910,25267,2.0
-8585,-16071,24893,2.0
-8575,-16394,24775,2.0
-8449,-16495,24325,2.0
-8355,-16649,23965,0.0
-8140,-16554,23264,0.0
-7896,-16382,22481,0.0
-7694,-16282,21822,0.0
-7541,-16273,21305,0.0
-7389,-16257,20793,0.0
-7241,-16237,20293,0.0
-7261,-16593,20267,0.0
-7262,-16910,20186,0.0
-7283,-17275,20157,0.0
-7296,-17626,20106,0.0
-7308,-17977,20048,0.0
-7310,-18312,19966,0.0
-7312,-18648,19881,0.0
-7322,-19006,19813,0.0
-7335,-19378,19754,0.0
-7338,-19731,19667,0.0
-7347,-20101,19593,0.0
-7349,-20454,19497,0.0
-7358,-20835,19420,0.0
-7372,-21236,19355,0.0
-7383,-21631,19278,0.0
-7396,-22040,19206,0.0
-7397,-22417,19100,0.0
-7401,-22809,19000,0.0
-7413,-23232,18920,0.0
-7408,-23605,18791,0.0
0,0,0,0.0
0,0,0,0.0
-556,-1866,1388,0.0
0,0,0,0.0
0,0,0,0.0
-529,-1865,1292,0.0
-547,-1957,1325,0.0
0,0,0,0.0
0,0,0,0.0
0,0,0,0.0
0,0,0,0.0
0,0,0,0.0
0,0,0,0.0
0,0,0,0.0
0,0,0,0.0
0,0,0,0.0
-506,-2137,1126,0.0
0,0,0,0.0
-494,-2156,1078,0.0
-34,-158,77,0.0
-42,-192,91,0.0
-40,-189,87,0.0
-41,-198,88,0.0
-44,-214,92,0.0
-49,-242,101,0.0
-51,-258,105,0.0
-57,-290,114,0.0
-61,-313,119,0.0
-64,-335,124,0.0
-65,-348,124,0.0
-64,-351,122,0.0
-61,-337,112,0.0
-61,-344,110,0.0
-61,-348,108,0.0
-60,-350,104,0.0
-57,-346,99,0.0
-57,-348,96,0.0
-2661,15996,15015,0.0
-3973,23223,22269,0.0
-4019,22844,22379,0.0
-2985,16501,16515,0.0
-2986,16054,16414,0.0
-3015,15774,16478,0.0
-3082,15686,16743,0.0
-3150,15597,17011,0.0
-3226,15546,17325,0.0
-3237,15182,17290,0.0
-3365,15358,17876,0.0
-3370,14968,17807,0.0
-3370,14571,17721,0.0
-3608,15181,18875,0.0
-3695,15131,19235,0.0
-3780,15067,19586,0.0
-3849,14930,19850,0.0
-3944,14886,20246,0.0
0,0,0,0.0
-4021,14369,20460,0.0
-4046,14061,20493,0.0
-4168,14094,21027,0.0
-4392,14440,22060,0.0
-4500,14389,22513,0.0
-4599,14297,22917,0.0
-4701,14204,23334,0.0
-4808,14120,23775,0.0
-4915,14022,24209,0.0
-5021,13911,24638,0.0
-5134,13811,25098,0.0
-5189,13550,25277,0.0
-5206,13193,25275,0.0
-5239,12876,25341,0.0
-5619,13391,27089,0.0
-5743,13263,27589,0.0
-5881,13155,28156,0.0
-5984,12963,28561,0.0
-6078,12739,28912,0.0
-6203,12574,29412,0.0
-6337,12415,29950,0.0
-6578,12447,30992,0.0
-6700,12238,31471,0.0
-6833,12036,31996,0.0
-6854,11634,31996,0.0
-6862,11215,31939,0.0
-6853,10772,31802,0.0
-6870,10378,31792,0.0
-6826,9894,31492,0.0
-6806,9459,31314,0.0
-6835,9092,31356,0.0
-6932,8816,31715,0.0
-7125,8648,32506,0.0
-7316,8461,33288,0.0
-6092,6700,27641,0.0
-6243,6515,28249,0.0
-6249,6176,28206,0.0
-6254,5836,28150,0.0
-6254,5496,28079,0.0
-6245,5151,27963,0.0
-6243,4816,27882,0.0
-6242,4484,27807,0.0
-6242,4156,27734,0.0
-6247,3833,27688,0.0
-6240,3507,27588,0.0
-6239,3186,27515,0.0
-6233,2865,27418,0.0
-6232,2549,27350,0.0
-6228,2235,27265,0.0
-6223,1922,27175,0.0
-6044,1567,26331,0.0
-6008,1262,26112,0.0
-6048,973,26220,0.0
-6006,673,25976,0.0
-6054,385,26122,0.0
-6201,94,26696,0.0
-6204,-203,26643,0.0
-6200,-500,26565,0.0
-6191,-794,26461,0.0
-6184,-1088,26374,0.0
-6187,-1380,26323,0.0
-6122,-1654,25984,0.0
-6177,-1960,26159,0.0
-6046,-2202,25543,0.0
-6014,-2471,25348,0.0
-5983,-2738,25163,0.0
-6163,-3107,25857,0.0
-6160,-3393,25787,0.0
-6161,-3679,25731,0.0
-6155,-3961,25647,0.0
-6151,-4244,25574,0.0
-6139,-4520,25461,0.0
-6140,-4804,25408,0.0
-6149,-5096,25390,0.0
-6129,-5363,25248,0.0
-6134,-5651,25209,0.0
-6134,-5935,25151,0.0
-6121,-6206,25043,0.0
-6116,-6484,24963,0.0
-6117,-6769,24910,0.0
-6117,-7052,24849,0.0
-6102,-7320,24731,0.0
-6104,-7606,24681,0.0
-6095,-7881,24590,0.0
-6106,-8180,24573,0.0
-6095,-8452,24470,0.0
-6113,-8766,24486,0.0
-6102,-9039,24385,0.0
-6091,-9311,24281,0.0
-6090,-9600,24218,0.0
-6098,-9904,24194,0.0
-6091,-10185,24105,0.0
-6090,-10478,24045,0.0
-6092,-10775,23991,0.0
-6091,-11071,23931,0.0
-6094,-11374,23881,0.0
-6097,-11681,23836,0.0
-6110,-12007,23824,0.0
-6121,-12334,23807,0.0
-6109,-12616,23699,0.0
-6114,-12936,23662,0.0
-6110,-13236,23581,0.0
-6122,-13579,23571,0.0
-6118,-13882,23488,0.0
-6115,-14195,23418,0.0
-6111,-14504,23337,0.0
-6123,-14858,23323,0.0
-6124,-15186,23262,0.0
-5980,-15149,22650,0.0
-5933,-15353,22411,0.0
-5953,-15732,22426,0.0
-5762,-15543,21642,0.0
-6131,-16882,22963,0.0
-6134,-17236,22907,0.0
-6133,-17585,22837,0.0
-6132,-17935,22764,0.0
-6136,-18302,22707,0.0
-6141,-18682,22660,0.0
-6141,-19047,22588,0.0
-6137,-19406,22502,0.0
-6135,-19773,22422,0.0
-6140,-20173,22370,0.0
-6142,-20564,22303,0.0
-6147,-20972,22245,0.0
-6141,-21347,22149,0.0
-6144,-21761,22084,0.0
-6158,-22220,22057,0.0
-6154,-22619,21962,0.0
-13,-47,45,0.0
-21,-81,76,0.0
-23,-89,81,0.0
-21,-78,70,0.0
-24,-95,83,0.0
-22,-91,78,0.0
-20,-81,67,0.0
-22,-95,77,0.0
-18,-77,61,0.0
-19,-80,61,0.0
-24,-109,82,0.0
-21,-96,72,0.0
-20,-97,70,0.0
-396,-1884,1335,0.0
-412,-1995,1381,0.0
0,0,0,0.0
0,0,0,0.0
-404,-2067,1333,0.0
0,0,0,0.0
0,0,0,0.0
0,0,0,0.0
0,0,0,0.0
0,0,0,0.0
0,0,0,0.0
-23,-136,73,0.0
-26,-154,81,0.0
-26,-159,81,0.0
-28,-174,87,0.0
-28,-172,84,0.0
-30,-188,89,0.0
-32,-214,98,0.0
-32,-218,97,0.0
-35,-243,105,0.0
-36,-256,107,0.0
-38,-271,111,0.0
-38,-279,110,0.0
-42,-311,119,0.0
-44,-340,126,0.0
-44,-343,123,0.0
-43,-350,121,0.0
-42,-345,116,0.0
-41,-346,112,0.0
-41,-351,110,0.0
-40,-345,104,0.0
-39,-350,101,0.0
0,0,0,0.0
-1972,32982,32490,0.0
-913,14479,14569,0.0
-946,14280,14680,0.0
-2139,30701,32242,0.0
-2158,29528,31679,0.0
-2224,29059,31853,0.0
-2267,28297,31694,0.0
0,0,0,0.0
-2355,26922,31486,0.0
-2362,25860,30910,0.0
-2422,25447,31089,0.0
-1538,15503,19360,0.0
-2483,24045,30699,0.0
-1586,14753,19259,0.0
-1701,15224,20324,0.0
-1726,14854,20280,0.0
-1752,14506,20260,0.0
-1861,14840,21205,0.0
-1883,14461,21147,0.0
-2693,19923,29819,0.0
-2762,19694,30178,0.0
-2832,19454,30526,0.0
-2851,18886,30354,0.0
-2922,18660,30729,0.0
-2962,18240,30782,0.0
-3266,19402,33567,0.0
-3288,18831,33410,0.0
-2646,14615,26600,0.0
0,0,0,0.0
-2810,14428,27667,0.0
-2830,14013,27599,0.0
-2847,13588,27498,0.0
-2875,13224,27509,0.0
-2925,12965,27740,0.0
-2964,12655,27861,0.0
-2926,12032,27277,0.0
-2925,11576,27037,0.0
-2951,11238,27058,0.0
-3196,11706,29075,0.0
-3217,11326,29042,0.0
-3590,12140,32163,0.0
-3584,11638,31882,0.0
-3616,11267,31943,0.0
-3644,10886,31972,0.0
-3648,10439,31791,0.0
-3660,10023,31686,0.0
-3640,9527,31309,0.0
-3656,9138,31247,0.0
-3707,8838,31499,0.0
-3829,8693,32338,0.0
-3937,8501,33062,0.0
-3318,6801,27701,0.0
-3393,6590,28172,0.0
-3418,6279,28233,0.0
-3424,5933,28128,0.0
-3426,5587,27999,0.0
-3432,5253,27911,0.0
-3434,4915,27791,0.0
-3441,4590,27716,0.0
-3457,4277,27708,0.0
-3466,3960,27660,0.0
-3466,3635,27533,0.0
-3474,3321,27473,0.0
-3482,3011,27429,0.0
-3481,2693,27297,0.0
-3484,2384,27212,0.0
-3480,2074,27079,0.0
-3492,1774,27060,0.0
-3367,1418,25987,0.0
-3494,1170,26874,0.0
-3433,857,26312,0.0
-3414,563,26065,0.0
-3491,282,26564,0.0
-3508,-8,26607,0.0
-3507,-300,26507,0.0
-3506,-588,26412,0.0
-3512,-877,26372,0.0
-3508,-1163,26268,0.0
-3511,-1448,26207,0.0
-3514,-1734,26148,0.0
-3516,-2018,26088,0.0
-3514,-2298,25996,0.0
-3504,-2571,25854,0.0
-3511,-2856,25835,0.0
-3516,-3141,25801,0.0
-3511,-3415,25698,0.0
-3503,-3686,25582,0.0
-3509,-3971,25564,0.0
-3507,-4245,25487,0.0
-3498,-4513,25366,0.0
-3502,-4794,25330,0.0
-3508,-5081,25322,0.0
-3496,-5341,25183,0.0
-3497,-5622,25138,0.0
-3496,-5899,25079,0.0
-3496,-6178,25030,0.0
-3487,-6441,24920,0.0
-3488,-6723,24881,0.0
-3478,-6983,24759,0.0
-3477,-7265,24715,0.0
-3475,-7541,24653,0.0
-3470,-7816,24582,0.0
-3466,-8092,24515,0.0
-3456,-8355,24407,0.0
-3455,-8642,24367,0.0
-3455,-8931,24333,0.0
-3447,-9204,24249,0.0
-3443,-9484,24184,0.0
-3444,-9783,24161,0.0
-3438,-10065,24094,0.0
-3432,-10344,24018,0.0
-3426,-10631,23958,0.0
-3423,-10925,23910,0.0
-3415,-11209,23836,0.0
-3412,-11508,23790,0.0
-3405,-11796,23719,0.0
-3407,-12122,23718,0.0
-3399,-12411,23642,0.0
-3389,-12700,23561,0.0
-3389,-13025,23542,0.0
-3382,-13332,23486,0.0
-3374,-13632,23414,0.0
-3371,-13963,23390,0.0
-3366,-14287,23347,0.0
-3353,-14579,23250,0.0
-3348,-14911,23212,0.0
-3344,-15251,23178,0.0
-3335,-15577,23120,0.0
-3325,-15902,23052,0.0
-3314,-16224,22979,0.0
-3306,-16563,22922,0.0
-3293,-16886,22839,0.0
-3290,-17265,22825,0.0
-3279,-17611,22763,0.0
-3264,-17938,22668,0.0
-3258,-18320,22640,0.0
-3245,-18674,22568,0.0
-3229,-19011,22471,0.0
-3214,-19366,22391,0.0
-3209,-19780,22372,0.0
-3189,-20119,22260,0.0
-3183,-20549,22244,0.0
-3164,-20904,22138,0.0
-3153,-21324,22094,0.0
-3140,-21739,22040,0.0
-3121,-22114,21936,0.0
-3108,-22542,21879,0.0
-3087,-22938,21782,0.0
-3075,-23391,21734,0.0
-3058,-23826,21660,0.0
-7,-54,48,0.0
-10,-77,68,0.0
-10,-81,69,0.0
-2896,-24889,20723,0.0
-11,-94,77,0.0
-207,-1872,1490,0.0
-206,-1909,1488,0.0
-203,-1926,1467,0.0
-198,-1935,1441,0.0
-196,-1973,1436,0.0
0,0,0,0.0
0,0,0,0.0
-177,-1935,1314,0.0
0,0,0,0.0
0,0,0,0.0
0,0,0,0.0
0,0,0,0.0
0,0,0,0.0
0,0,0,0.0
0,0,0,0.0
0,0,0,0.0
-12,-163,88,0.0
-12,-180,95,0.0
-12,-190,98,0.0
-13,-210,106,0.0
-13,-212,104,0.0
-12,-212,101,0.0
-13,-229,106,0.0
-12,-235,106,0.0
-13,-243,106,0.0
-12,-265,113,0.0
-13,-273,112,0.0
-13,-287,115,0.0
-13,-311,120,0.0
-13,-330,124,0.0
-13,-342,124,0.0
-13,-348,122,0.0
-11,-346,117,0.0
-11,-349,114,0.0
-10,-344,108,0.0
-9,-346,105,0.0
841,15063,14765,0.0
797,14678,14695,0.0
757,14338,14664,0.0
708,13817,14436,0.0
674,13564,14477,0.0
637,13247,14444,0.0
616,13215,14722,0.0
591,13153,14973,0.0
565,13027,15153,0.0
534,12827,15248,0.0
1019,25456,30925,0.0
629,16430,20401,0.0
595,16286,20673,0.0
553,15876,20603,0.0
511,15458,20513,0.0
485,15509,21044,0.0
424,14403,19990,0.0
419,15179,21551,0.0
380,14809,21514,0.0
341,14350,21335,0.0
307,14070,21410,0.0
318,16077,25049,0.0
281,15799,25208,0.0
243,15512,25351,0.0
207,15273,25575,0.0
171,15022,25783,0.0
134,14725,25910,0.0
99,14474,26121,0.0
64,14163,26220,0.0
28,13549,25743,0.0
-5,13385,26112,0.0
-36,12699,25448,0.0
-71,12881,26525,0.0
-102,12400,26253,0.0
-135,12259,26695,0.0
-169,12082,27078,0.0
-192,11260,25987,0.0
-225,11194,26621,0.0
-258,11008,26992,0.0
-340,12685,32091,0.0
-373,12300,32127,0.0
-404,11860,32010,0.0
-434,11436,31925,0.0
-463,11006,31805,0.0
-488,10555,31602,0.0
-516,10151,31523,0.0
0,0,0,0.0
-564,9303,31190,0.0
-593,8977,31331,0.0
-630,8756,31856,0.0
-672,8598,32663,0.0
-581,6850,27217,0.0
-606,6593,27445,0.0
-642,6432,28115,0.0
-661,6114,28121,0.0
-679,5772,28009,0.0
-697,5451,27986,0.0
-711,5113,27849,0.0
-728,4791,27787,0.0
-742,4467,27696,0.0
-758,4150,27635,0.0
-771,3833,27543,0.0
-783,3514,27439,0.0
-796,3201,27336,0.0
-808,2895,27280,0.0
-819,2587,27178,0.0
-830,2285,27121,0.0
-841,1984,27039,0.0
-816,1615,25845,0.0
-823,1328,25745,0.0
-841,1057,25938,0.0
-855,779,26068,0.0
-871,500,26218,0.0
-887,217,26410,0.0
-896,-68,26416,0.0
-904,-354,26380,0.0
-908,-636,26240,0.0
-914,-920,26194,0.0
-919,-1199,26108,0.0
-924,-1480,26053,0.0
-928,-1758,25971,0.0
-931,-2033,25864,0.0
-935,-2311,25825,0.0
-938,-2587,25749,0.0
-940,-2861,25679,0.0
-944,-3140,25656,0.0
-944,-3406,25532,0.0
-945,-3679,25467,0.0
-948,-3961,25466,0.0
-949,-4234,25400,0.0
-943,-4474,25159,0.0
-947,-4773,25248,0.0
-948,-5046,25194,0.0
-946,-5317,25132,0.0
-946,-5593,25089,0.0
-939,-5835,24898,0.0
-940,-6130,24936,0.0
-938,-6399,24870,0.0
-935,-6675,24825,0.0
-930,-6944,24753,0.0
-922,-7173,24543,0.0
-919,-7459,24530,0.0
-910,-7696,24358,0.0
-905,-7968,24298,0.0
-897,-8223,24192,0.0
-899,-8564,24324,0.0
-892,-8833,24247,0.0
-886,-9117,24209,0.0
-878,-9388,24131,0.0
-871,-9672,24086,0.0
-861,-9938,23992,0.0
-855,-10242,23990,0.0
-845,-10518,23916,0.0
-837,-10819,23893,0.0
-825,-11090,23801,0.0
-816,-11386,23762,0.0
-806,-11688,23728,0.0
-794,-11967,23647,0.0
-783,-12281,23630,0.0
-771,-12582,23581,0.0
-759,-12882,23526,0.0
-743,-13154,23417,0.0
-731,-13482,23406,0.0
-717,-13797,23364,0.0
-699,-14061,23233,0.0
-685,-14409,23236,0.0
-671,-14743,23210,0.0
-654,-15065,23160,0.0
-637,-15388,23105,0.0
-619,-15708,23042,0.0
-601,-16060,23018,0.0
-581,-16358,22913,0.0
-560,-16685,22845,0.0
-541,-17051,22823,0.0
-518,-17367,22728,0.0
-498,-17742,22707,0.0
-474,-18070,22617,0.0
-451,-18415,22545,0.0
-427,-18791,22504,0.0
-402,-19116,22397,0.0
-377,-19499,22350,0.0
-350,-19867,22281,0.0
-323,-20268,22243,0.0
-295,-20646,22172,0.0
-264,-20989,22056,0.0
-235,-21408,22016,0.0
-204,-21781,21920,0.0
-172,-22228,21893,0.0
-140,-22615,21797,0.0
-106,-23041,21732,0.0
-70,-23458,21651,0.0
-35,-23928,21612,0.0
1,-24353,21522,0.0
40,-24819,21461,0.0
78,-24956,21114,0.0
116,-24797,20524,0.0
0,0,0,0.0
14,-1877,1486,0.0
0,0,0,0.0
19,-1910,1447,0.0
0,0,0,0.0
0,0,0,0.0
0,0,0,0.0
31,-1898,1313,0.0
0,0,0,0.0
0,0,0,0.0
0,0,0,0.0
0,0,0,0.0
0,0,0,0.0
0,0,0,0.0
56,-2122,1243,0.0
0,0,0,0.0
0,0,0,0.0
4,-141,76,0.0
5,-180,95,0.0
4,-166,85,0.0
5,-187,94,0.0
6,-204,99,0.0
7,-209,99,0.0
8,-208,96,0.0
7,-210,94,0.0
9,-228,99,0.0
10,-242,102,0.0
11,-253,104,0.0
12,-268,107,0.0
13,-285,110,0.0
16,-329,122,0.0
17,-331,120,0.0
18,-345,120,0.0
18,-349,118,0.0
18,-343,111,0.0
20,-346,108,0.0
1779,13456,13257,0.0
1771,13441,13526,0.0
1767,13444,13821,0.0
1739,13268,13934,0.0
1786,13664,14659,0.0
1718,13170,14434,0.0
1698,13055,14618,0.0
1676,12909,14770,0.0
1619,12502,14617,0.0
1571,12148,14515,0.0
1643,12732,15547,0.0
1642,12738,15900,0.0
1633,12687,16188,0.0
1622,12616,16459,0.0
1611,12538,16726,0.0
1601,12476,17020,0.0
1591,12403,17307,0.0
1582,12327,17598,0.0
1573,12255,17900,0.0
1565,12192,18225,0.0
1556,12117,18540,0.0
1547,12036,18856,0.0
1539,11960,19188,0.0
1530,11872,19511,0.0
1524,11796,19865,0.0
1516,11708,20207,0.0
1508,11624,20569,0.0
1504,11559,20980,0.0
1495,11446,21313,0.0
1490,11363,21716,0.0
1486,11274,22123,0.0
1483,11204,22585,0.0
1478,11102,22997,0.0
1474,11005,23439,0.0
1475,10939,23966,0.0
1465,10787,24323,0.0
1552,11341,26332,0.0
1495,10828,25909,0.0
1455,10445,25769,0.0
1636,11618,29576,0.0
1649,11578,30435,0.0
1693,11747,31908,0.0
1654,11325,31819,0.0
1617,10923,31771,0.0
1579,10504,31655,0.0
1550,10140,31698,0.0
1511,9717,31543,0.0
1469,9260,31260,0.0
1447,8936,31407,0.0
1445,8735,32007,0.0
1450,8556,32736,0.0
1181,6787,27164,0.0
1198,6697,28087,0.0
1177,6382,28108,0.0
1154,6052,28052,0.0
1129,5717,27960,0.0
1105,5383,27853,0.0
1084,5060,27786,0.0
1063,4743,27742,0.0
1041,4416,27621,0.0
1023,4106,27583,0.0
999,3775,27390,0.0
981,3463,27302,0.0
967,3167,27326,0.0
950,2862,27257,0.0
933,2554,27136,0.0
918,2253,27080,0.0
904,1956,27023,0.0
882,1645,26721,0.0
846,1316,25942,0.0
845,1047,26231,0.0
827,755,25946,0.0
828,482,26264,0.0
825,200,26444,0.0
818,-85,26482,0.0
809,-369,26435,0.0
800,-652,26377,0.0
792,-935,26308,0.0
784,-1215,26213,0.0
776,-1493,26123,0.0
769,-1770,26039,0.0
763,-2047,25970,0.0
739,-2269,25297,0.0
736,-2540,25258,0.0
724,-2777,24909,0.0
746,-3151,25747,0.0
742,-3422,25659,0.0
740,-3695,25600,0.0
737,-3963,25509,0.0
736,-4236,25456,0.0
734,-4496,25331,0.0
735,-4776,25315,0.0
736,-5048,25261,0.0
736,-5317,25186,0.0
736,-5578,25086,0.0
738,-5844,25008,0.0
740,-6113,24939,0.0
743,-6384,24888,0.0
746,-6645,24790,0.0
749,-6908,24704,0.0
754,-7175,24634,0.0
760,-7455,24601,0.0
764,-7707,24480,0.0
766,-7931,24275,0.0
752,-7984,23573,0.0
785,-8530,24318,0.0
793,-8797,24240,0.0
761,-8602,22931,0.0
0,0,0,0.0
774,-9074,22687,0.0
832,-9906,24015,0.0
818,-9888,23257,0.0
857,-10485,23939,0.0
864,-10703,23740,0.0
880,-11027,23770,0.0
876,-11083,23232,0.0
905,-11559,23573,0.0
927,-11944,23709,0.0
942,-12208,23596,0.0
959,-12518,23570,0.0
976,-12817,23518,0.0
995,-13116,23462,0.0
1006,-13336,23262,0.0
1023,-13610,23156,0.0
997,-13290,22067,0.0
1013,-13530,21925,0.0
1033,-13831,21882,0.0
1053,-14096,21778,0.0
1075,-14394,21723,0.0
1097,-14701,21674,0.0
1119,-14977,21577,0.0
1143,-15284,21522,0.0
1168,-15591,21458,0.0
1193,-15898,21392,0.0
1220,-16225,21348,0.0
1232,-16343,21030,0.0
1230,-16265,20470,0.0
1244,-16393,20180,0.0
1281,-16810,20244,0.0
1304,-17040,20076,0.0
1336,-17381,20036,0.0
1365,-17678,19940,0.0
1397,-18008,19876,0.0
1431,-18350,19820,0.0
1464,-18678,19744,0.0
1498,-19001,19657,0.0
1533,-19334,19574,0.0
1571,-19685,19505,0.0
1611,-20051,19444,0.0
1651,-20419,19377,0.0
1687,-20741,19262,0.0
1731,-21123,19197,0.0
1773,-21497,19118,0.0
1819,-21885,19044,0.0
1866,-22295,18983,0.0
1911,-22672,18887,0.0
1957,-23037,18774,0.0
2007,-23453,18696,0.0
0,0,0,0.0
163,-1886,1437,0.0
0,0,0,0.0
0,0,0,0.0
0,0,0,0.0
0,0,0,0.0
0,0,0,0.0
0,0,0,0.0
0,0,0,0.0
0,0,0,0.0
0,0,0,0.0
0,0,0,0.0
202,-2126,1254,0.0
0,0,0,0.0
206,-2132,1197,0.0
15,-168,92,0.0
15,-165,87,0.0
18,-188,97,0.0
17,-175,88,0.0
20,-204,101,0.0
21,-213,102,0.0
22,-222,103,0.0
22,-219,99,0.0
25,-239,105,0.0
26,-253,108,0.0
29,-271,113,0.0
30,-278,111,0.0
31,-290,113,0.0
36,-335,126,0.0
38,-353,128,0.0
39,-360,127,0.0
39,-354,120,0.0
38,-342,112,0.0
40,-354,113,0.0
-4020,16134,14716,0.0
-4106,16095,14998,0.0
-4188,16032,15264,0.0
-4267,15959,15523,0.0
-4352,15896,15799,0.0
-4411,15737,15982,0.0
-4510,15715,16307,0.0
-4471,15216,16135,0.0
-4524,15037,16294,0.0
-4606,14951,16557,0.0
-4762,15095,17085,0.0
-4989,15443,17866,0.0
-5089,15380,18189,0.0
-5188,15309,18509,0.0
-5290,15235,18836,0.0
-5341,15015,18984,0.0
-5435,14914,19283,0.0
-5359,14348,18977,0.0
-5434,14195,19207,0.0
-5479,13963,19334,0.0
-6653,16532,23428,0.0
0,0,0,0.0
-6905,16314,24231,0.0
-6993,16101,24494,0.0
-6997,15699,24466,0.0
-6976,15248,24350,0.0
-6971,14839,24289,0.0
-6961,14427,24212,0.0
-6953,14027,24143,0.0
-6932,13607,24029,0.0
-6902,13175,23880,0.0
-9646,17899,33313,0.0
-9641,17384,33236,0.0
-9587,16794,32997,0.0
-9586,16303,32933,0.0
-9587,15823,32881,0.0
-9602,15370,32872,0.0
0,0,0,0.0
-8853,13308,30205,0.0
-9021,13128,30722,0.0
-8907,12541,30282,0.0
-9033,12295,30656,0.0
-9314,12246,31551,0.0
-9473,12021,32034,0.0
-9499,11623,32066,0.0
-9490,11187,31979,0.0
-9473,10746,31864,0.0
-9407,10258,31585,0.0
0,0,0,0.0
-9357,9393,31306,0.0
-9411,9045,31430,0.0
-9581,8804,31941,0.0
-9858,8643,32805,0.0
-7620,6365,25311,0.0
-7623,6052,25274,0.0
-7619,5738,25217,0.0
-7589,5407,25071,0.0
-7612,5116,25100,0.0
-7599,4805,25014,0.0
-7573,4487,24879,0.0
-7576,4190,24842,0.0
-7573,3892,24786,0.0
-7585,3602,24780,0.0
-7561,3299,24653,0.0
-7555,3006,24588,0.0
-7546,2714,24511,0.0
-7557,2431,24500,0.0
-7525,2138,24349,0.0
-7540,1859,24351,0.0
-7535,1575,24281,0.0
-7519,1293,24185,0.0
-7529,1016,24169,0.0
-7508,736,24055,0.0
-7510,461,24010,0.0
-7509,187,23960,0.0
-7499,-85,23876,0.0
-7501,-356,23833,0.0
-7487,-627,23743,0.0
-7497,-897,23724,0.0
-7841,-1220,24761,0.0
-8029,-1537,25300,0.0
-8521,-1935,26790,2.0
-8566,-2250,26874,2.0
-8590,-2561,26891,2.0
-8714,-2907,27218,2.0
-8845,-3263,27567,2.0
-8935,-3611,27785,2.0
-8954,-3935,27779,2.0
-9025,-4283,27936,2.0
-9086,-4632,28059,2.0
-9156,-4989,28212,2.0
-9191,-5330,28250,2.0
-9278,-5706,28453,2.0
-9271,-6026,28363,2.0
-9260,-6343,28259,2.0
-9244,-6656,28140,2.0
-9355,-7065,28411,2.0
-9484,-7493,28729,2.0
-9533,-7866,28807,2.0
-9595,-8253,28920,2.0
-9654,-8643,29021,2.0
-9695,-9021,29071,2.0
-9706,-9373,29027,2.0
-9639,-9646,28748,2.0
-9599,-9946,28555,2.0
-9562,-10246,28365,2.0
-9510,-10527,28134,2.0
-9381,-10716,27674,2.0
-9351,-11015,27508,2.0
-9416,-11428,27621,2.0
-9484,-11848,27736,2.0
-9553,-12279,27859,2.0
-9613,-12701,27948,2.0
-9636,-13079,27931,2.0
-9630,-13421,27830,2.0
-9602,-13731,27663,2.0
-9557,-14016,27449,2.0
-9476,-14244,27128,2.0
-9376,-14440,26756,2.0
-9327,-14708,26527,2.0
-9273,-14968,26287,2.0
-9224,-15232,26058,2.0
-9183,-15511,25855,2.0
-9126,-15759,25606,2.0
-9055,-15980,25316,2.0
-8989,-16206,25042,2.0
-8915,-16416,24747,2.0
-8801,-16546,24339,2.0
-8692,-16679,23945,0.0
-8447,-16540,23182,0.0
-8204,-16387,22428,0.0
-7963,-16221,21681,0.0
-7834,-16274,21247,0.0
-7671,-16244,20719,0.0
-7564,-16323,20343,0.0
-7572,-16653,20282,0.0
-7593,-17011,20249,0.0
-7588,-17315,20145,0.0
-7584,-17625,20044,0.0
-7615,-18021,20034,0.0
-7607,-18327,19920,0.0
-7629,-18708,19882,0.0
-7631,-19049,19793,0.0
-7645,-19418,19729,0.0
-7650,-19773,19644,0.0
-7652,-20122,19547,0.0
-7673,-20526,19498,0.0
-7674,-20882,19397,0.0
-7698,-21302,19347,0.0
-7722,-21730,19298,0.0
-7714,-22077,19169,0.0
-7733,-22504,19104,0.0
-7744,-22913,19016,0.0
-7749,-23310,18911,0.0
-7660,-23426,18577,0.0
0,0,0,0.0
0,0,0,0.0
0,0,0,0.0
0,0,0,0.0
0,0,0,0.0
0,0,0,0.0
0,0,0,0.0
0,0,0,0.0
0,0,0,0.0
0,0,0,0.0
0,0,0,0.0
0,0,0,0.0
0,0,0,0.0
0,0,0,0.0
-542,-2118,1170,0.0
0,0,0,0.0
-501,-2022,1061,0.0
0,0,0,0.0
-526,-2192,1089,0.0
-43,-186,90,0.0
-44,-192,91,0.0
-49,-218,100,0.0
-48,-217,96,0.0
-55,-250,107,0.0
-55,-257,107,0.0
-58,-273,111,0.0
-64,-307,120,0.0
-69,-335,128,0.0
-67,-334,123,0.0
-69,-350,124,0.0
-67,-346,119,0.0
-65,-342,113,0.0
-64,-345,110,0.0
-64,-349,107,0.0
-63,-353,104,0.0
-61,-346,98,0.0
-61,-351,96,0.0
123,-326,65,0.0
121,-314,66,0.0
118,-303,67,0.0
112,-284,67,0.0
117,-293,72,0.0
116,-287,73,0.0
112,-272,73,0.0
114,-276,77,0.0
113,-269,78,0.0
112,-263,80,0.0
111,-256,81,0.0
113,-258,85,0.0
113,-254,87,0.0
115,-257,91,0.0
116,-255,92,0.0
118,-255,97,0.0
114,-244,95,0.0
120,-253,102,0.0
118,-245,102,0.0
120,-245,105,0.0
121,-245,109,0.0
121,-240,110,0.0
126,-250,118,0.0
126,-245,119,0.0
125,-240,120,0.0
129,-243,125,0.0
131,-244,130,0.0
