//X,Y,Z,Classification
40.0,32.0,86.0,0.0
42.0,35.0,90.0,0.0
37.0,31.0,78.0,0.0
43.0,38.0,91.0,0.0
39.0,35.0,83.0,0.0
43.0,40.0,91.0,0.0
35.0,33.0,74.0,0.0
37.0,37.0,79.0,0.0
35.0,36.0,75.0,0.0
36.0,38.0,76.0,0.0
37.0,40.0,79.0,0.0
37.0,42.0,80.0,0.0
36.0,42.0,78.0,0.0
40.0,47.0,85.0,0.0
42.0,51.0,88.0,0.0
39.0,49.0,83.0,0.0
38.0,48.0,80.0,0.0
42.0,54.0,89.0,0.0
41.0,56.0,88.0,0.0
44.0,61.0,94.0,0.0
43.0,63.0,94.0,0.0
45.0,65.0,95.0,0.0
44.0,67.0,94.0,0.0
45.0,68.0,96.0,0.0
44.0,70.0,95.0,0.0
46.0,76.0,100.0,0.0
48.0,80.0,104.0,0.0
47.0,80.0,101.0,0.0
46.0,80.0,99.0,0.0
51.0,91.0,109.0,0.0
47.0,85.0,102.0,0.0
52.0,95.0,110.0,0.0
50.0,94.0,105.0,0.0
54.0,103.0,115.0,0.0
55.0,108.0,116.0,0.0
53.0,108.0,115.0,0.0
55.0,112.0,116.0,0.0
52.0,109.0,110.0,0.0
56.0,121.0,119.0,0.0
56.0,124.0,120.0,0.0
57.0,127.0,120.0,0.0
56.0,128.0,118.0,0.0
58.0,134.0,121.0,0.0
58.0,138.0,122.0,0.0
57.0,138.0,119.0,0.0
59.0,146.0,124.0,0.0
58.0,146.0,121.0,0.0
80.0,-273.0,64.0,0.0
84.0,-281.0,70.0,0.0
81.0,-268.0,69.0,0.0
84.0,-271.0,73.0,0.0
84.0,-266.0,74.0,0.0
84.0,-263.0,77.0,0.0
86.0,-266.0,81.0,0.0
87.0,-264.0,83.0,0.0
87.0,-261.0,86.0,0.0
88.0,-260.0,88.0,0.0
89.0,-263.0,93.0,0.0
90.0,-260.0,95.0,0.0
94.0,-266.0,100.0,0.0
94.0,-263.0,103.0,0.0
95.0,-263.0,107.0,0.0
97.0,-263.0,109.0,0.0
99.0,-265.0,114.0,0.0
102.0,-269.0,120.0,0.0
100.0,-260.0,119.0,0.0
101.0,-261.0,122.0,0.0
102.0,-257.0,124.0,0.0
102.0,-253.0,126.0,0.0
103.0,-252.0,129.0,0.0
105.0,-253.0,133.0,0.0
104.0,-248.0,134.0,0.0
106.0,-249.0,139.0,0.0
110.0,-254.0,145.0,0.0
109.0,-251.0,147.0,0.0
109.0,-245.0,147.0,0.0
107.0,-239.0,147.0,0.0
102.0,-223.0,140.0,0.0
96.0,-207.0,134.0,0.0
96.0,-205.0,135.0,0.0
87.0,-182.0,124.0,0.0
78.0,-162.0,113.0,0.0
85.0,-173.0,124.0,0.0
79.0,-157.0,115.0,0.0
79.0,-157.0,118.0,0.0
67.0,-129.0,100.0,0.0
68.0,-131.0,102.0,0.0
65.0,-123.0,99.0,0.0
54.0,-101.0,83.0,0.0
51.0,-94.0,79.0,0.0
51.0,-92.0,79.0,0.0
53.0,-94.0,84.0,0.0
12422.0,-21511.0,19454.0,0.0
12366.0,-21070.0,19505.0,0.0
12342.0,-20688.0,19602.0,0.0
12308.0,-20292.0,19682.0,0.0
12271.0,-19896.0,19754.0,0.0
12239.0,-19513.0,19831.0,0.0
12213.0,-19141.0,19914.0,0.0
12186.0,-18771.0,19993.0,0.0
12168.0,-18420.0,20086.0,0.0
12137.0,-18054.0,20156.0,0.0
12104.0,-17684.0,20217.0,0.0
12083.0,-17338.0,20298.0,0.0
12058.0,-16989.0,20370.0,0.0
12223.0,-16904.0,20763.0,0.0
13447.0,-18250.0,22965.0,0.0
12581.0,-16753.0,21600.0,0.0
12605.0,-16462.0,21753.0,0.0
12945.0,-16577.0,22453.0,0.0
13308.0,-16705.0,23198.0,0.0
13705.0,-16858.0,24006.0,0.0
979.0,-1181.0,1725.0,0.0
958.0,-1131.0,1696.0,0.0
966.0,-1116.0,1717.0,0.0
987.0,-1116.0,1763.0,0.0
989.0,-1094.0,1774.0,0.0
978.0,-1058.0,1762.0,0.0
975.0,-1031.0,1764.0,0.0
977.0,-1008.0,1774.0,0.0
982.0,-989.0,1791.0,0.0
984.0,-967.0,1802.0,0.0
977.0,-936.0,1796.0,0.0
15039.0,-14053.0,27743.0,1.0
986.0,-897.0,1826.0,0.0
14862.0,-13170.0,27626.0,1.0
957.0,-824.0,1786.0,0.0
993.0,-832.0,1861.0,0.0
990.0,-805.0,1862.0,0.0
990.0,-781.0,1867.0,0.0
993.0,-760.0,1880.0,0.0
996.0,-740.0,1894.0,0.0
1008.0,-725.0,1923.0,0.0
1008.0,-699.0,1927.0,0.0
14814.0,-9932.0,28404.0,1.0
979.0,-633.0,1884.0,0.0
1006.0,-626.0,1942.0,0.0
967.0,-580.0,1874.0,0.0
983.0,-565.0,1911.0,0.0
997.0,-549.0,1941.0,0.0
1001.0,-528.0,1955.0,0.0
1004.0,-505.0,1966.0,0.0
997.0,-478.0,1959.0,0.0
1009.0,-460.0,1989.0,0.0
1002.0,-434.0,1981.0,0.0
988.0,-403.0,1957.0,0.0
990.0,-381.0,1965.0,0.0
990.0,-357.0,1972.0,0.0
1002.0,-337.0,2001.0,0.0
1017.0,-318.0,2034.0,0.0
992.0,-287.0,1992.0,0.0
992.0,-262.0,1995.0,0.0
994.0,-240.0,2004.0,0.0
1004.0,-217.0,2027.0,0.0
978.0,-188.0,1980.0,0.0
15804.0,-2654.0,32056.0,1.0
7.0,-1.0,16.0,0.0
16.0,-2.0,35.0,0.0
9.0,-1.0,21.0,0.0
12.0,-1.0,25.0,0.0
11.0,-1.0,25.0,0.0
14.0,0.0,31.0,0.0
15.0,0.0,32.0,0.0
22.0,0.0,47.0,0.0
14.0,0.0,31.0,0.0
27.0,1.0,58.0,0.0
22.0,1.0,48.0,0.0
31.0,3.0,65.0,0.0
30.0,4.0,63.0,0.0
27.0,4.0,58.0,0.0
29.0,5.0,61.0,0.0
24.0,5.0,52.0,0.0
28.0,7.0,60.0,0.0
33.0,9.0,70.0,0.0
40.0,12.0,86.0,0.0
35.0,11.0,75.0,0.0
36.0,13.0,78.0,0.0
38.0,14.0,82.0,0.0
42.0,16.0,90.0,0.0
35.0,15.0,75.0,0.0
38.0,17.0,82.0,0.0
38.0,19.0,83.0,0.0
45.0,23.0,97.0,0.0
36.0,19.0,78.0,0.0
49.0,28.0,107.0,0.0
42.0,25.0,90.0,0.0
44.0,27.0,95.0,0.0
46.0,30.0,101.0,0.0
46.0,32.0,100.0,0.0
47.0,33.0,102.0,0.0
45.0,34.0,98.0,0.0
41.0,32.0,91.0,0.0
40.0,32.0,88.0,0.0
49.0,40.0,106.0,0.0
43.0,36.0,92.0,0.0
43.0,38.0,94.0,0.0
42.0,39.0,92.0,0.0
45.0,43.0,98.0,0.0
43.0,43.0,95.0,0.0
40.0,42.0,90.0,0.0
42.0,45.0,92.0,0.0
38.0,40.0,83.0,0.0
39.0,43.0,85.0,0.0
35.0,40.0,77.0,0.0
38.0,45.0,85.0,0.0
39.0,47.0,85.0,0.0
39.0,50.0,88.0,0.0
39.0,50.0,86.0,0.0
41.0,53.0,89.0,0.0
43.0,58.0,94.0,0.0
42.0,58.0,92.0,0.0
43.0,61.0,95.0,0.0
42.0,61.0,93.0,0.0
44.0,65.0,95.0,0.0
42.0,65.0,92.0,0.0
46.0,72.0,101.0,0.0
44.0,72.0,99.0,0.0
46.0,76.0,102.0,0.0
47.0,79.0,104.0,0.0
49.0,86.0,110.0,0.0
49.0,86.0,108.0,0.0
48.0,87.0,105.0,0.0
50.0,91.0,109.0,0.0
50.0,95.0,111.0,0.0
51.0,99.0,112.0,0.0
52.0,102.0,114.0,0.0
53.0,108.0,117.0,0.0
54.0,111.0,118.0,0.0
55.0,115.0,120.0,0.0
54.0,116.0,117.0,0.0
57.0,125.0,124.0,0.0
57.0,128.0,124.0,0.0
57.0,131.0,125.0,0.0
55.0,128.0,120.0,0.0
56.0,134.0,123.0,0.0
58.0,142.0,126.0,0.0
59.0,149.0,131.0,0.0
59.0,149.0,128.0,0.0
59.0,153.0,129.0,0.0
77.0,-268.0,64.0,0.0
78.0,-267.0,67.0,0.0
75.0,-254.0,67.0,0.0
77.0,-258.0,70.0,0.0
79.0,-259.0,74.0,0.0
79.0,-256.0,76.0,0.0
82.0,-263.0,82.0,0.0
81.0,-253.0,81.0,0.0
81.0,-253.0,84.0,0.0
86.0,-262.0,90.0,0.0
86.0,-260.0,93.0,0.0
88.0,-263.0,97.0,0.0
87.0,-253.0,96.0,0.0
87.0,-249.0,98.0,0.0
92.0,-261.0,106.0,0.0
92.0,-256.0,107.0,0.0
94.0,-259.0,112.0,0.0
89.0,-244.0,108.0,0.0
94.0,-254.0,117.0,0.0
98.0,-257.0,121.0,0.0
96.0,-250.0,121.0,0.0
97.0,-251.0,126.0,0.0
100.0,-254.0,131.0,0.0
97.0,-242.0,128.0,0.0
96.0,-237.0,129.0,0.0
103.0,-251.0,140.0,0.0
108.0,-256.0,147.0,0.0
104.0,-246.0,144.0,0.0
104.0,-241.0,145.0,0.0
96.0,-220.0,136.0,0.0
99.0,-224.0,142.0,0.0
92.0,-204.0,133.0,0.0
86.0,-188.0,125.0,0.0
83.0,-181.0,124.0,0.0
79.0,-168.0,117.0,0.0
72.0,-150.0,107.0,0.0
66.0,-135.0,100.0,0.0
67.0,-136.0,102.0,0.0
61.0,-123.0,94.0,0.0
56.0,-110.0,87.0,0.0
56.0,-110.0,89.0,0.0
55.0,-106.0,88.0,0.0
58.0,-109.0,93.0,0.0
12098.0,-22203.0,19263.0,0.0
12075.0,-21809.0,19367.0,0.0
12039.0,-21395.0,19447.0,0.0
12024.0,-21023.0,19558.0,0.0
11967.0,-20582.0,19599.0,0.0
11943.0,-20205.0,19692.0,0.0
11919.0,-19828.0,19779.0,0.0
11877.0,-19428.0,19836.0,0.0
11861.0,-19072.0,19934.0,0.0
11833.0,-18701.0,20007.0,0.0
11816.0,-18352.0,20100.0,0.0
11781.0,-17977.0,20159.0,0.0
11772.0,-17643.0,20257.0,0.0
11741.0,-17282.0,20318.0,0.0
11719.0,-16936.0,20393.0,0.0
11917.0,-16904.0,20848.0,0.0
13079.0,-18207.0,23002.0,0.0
12238.0,-16713.0,21635.0,0.0
12265.0,-16429.0,21794.0,0.0
12628.0,-16586.0,22552.0,0.0
12983.0,-16716.0,23299.0,0.0
907.0,-1145.0,1637.0,0.0
950.0,-1175.0,1723.0,0.0
14811.0,-17924.0,26956.0,1.0
935.0,-1108.0,1711.0,0.0
950.0,-1101.0,1746.0,0.0
949.0,-1076.0,1751.0,0.0
945.0,-1047.0,1750.0,0.0
956.0,-1036.0,1779.0,0.0
960.0,-1017.0,1795.0,0.0
951.0,-983.0,1786.0,0.0
950.0,-957.0,1789.0,0.0
971.0,-954.0,1836.0,0.0
948.0,-908.0,1800.0,0.0
964.0,-900.0,1838.0,0.0
964.0,-876.0,1845.0,0.0
966.0,-854.0,1855.0,0.0
950.0,-817.0,1831.0,0.0
998.0,-833.0,1929.0,0.0
980.0,-795.0,1903.0,0.0
938.0,-737.0,1826.0,0.0
995.0,-758.0,1944.0,0.0
962.0,-709.0,1886.0,0.0
952.0,-679.0,1873.0,0.0
978.0,-672.0,1928.0,0.0
974.0,-647.0,1929.0,0.0
963.0,-616.0,1912.0,0.0
949.0,-583.0,1891.0,0.0
14638.0,-8646.0,29214.0,1.0
980.0,-555.0,1965.0,0.0
989.0,-536.0,1986.0,0.0
981.0,-507.0,1976.0,0.0
978.0,-482.0,1975.0,0.0
983.0,-461.0,1993.0,0.0
959.0,-427.0,1949.0,0.0
978.0,-411.0,1993.0,0.0
984.0,-389.0,2009.0,0.0
15352.0,-5697.0,31406.0,1.0
970.0,-336.0,1990.0,0.0
944.0,-304.0,1940.0,0.0
970.0,-289.0,1999.0,0.0
998.0,-272.0,2062.0,0.0
971.0,-241.0,2012.0,0.0
947.0,-212.0,1967.0,0.0
969.0,-192.0,2017.0,0.0
12.0,-3.0,28.0,0.0
10.0,-2.0,23.0,0.0
14.0,-2.0,30.0,0.0
17.0,-2.0,37.0,0.0
7.0,0.0,17.0,0.0
10.0,-1.0,23.0,0.0
9.0,0.0,21.0,0.0
18.0,0.0,39.0,0.0
16.0,0.0,36.0,0.0
20.0,0.0,44.0,0.0
19.0,1.0,43.0,0.0
23.0,2.0,51.0,0.0
28.0,2.0,60.0,0.0
24.0,3.0,53.0,0.0
25.0,3.0,56.0,0.0
21.0,4.0,48.0,0.0
28.0,6.0,60.0,0.0
30.0,7.0,66.0,0.0
28.0,7.0,62.0,0.0
30.0,9.0,65.0,0.0
26.0,8.0,59.0,0.0
30.0,10.0,68.0,0.0
28.0,11.0,64.0,0.0
30.0,12.0,68.0,0.0
34.0,15.0,74.0,0.0
37.0,17.0,82.0,0.0
38.0,19.0,84.0,0.0
41.0,21.0,90.0,0.0
34.0,19.0,77.0,0.0
40.0,24.0,89.0,0.0
36.0,22.0,79.0,0.0
36.0,23.0,79.0,0.0
40.0,27.0,89.0,0.0
38.0,27.0,86.0,0.0
38.0,28.0,85.0,0.0
40.0,31.0,91.0,0.0
40.0,31.0,89.0,0.0
47.0,39.0,107.0,0.0
42.0,35.0,93.0,0.0
44.0,38.0,98.0,0.0
40.0,37.0,91.0,0.0
38.0,36.0,86.0,0.0
39.0,37.0,87.0,0.0
40.0,40.0,90.0,0.0
39.0,41.0,87.0,0.0
37.0,39.0,83.0,0.0
39.0,43.0,87.0,0.0
31.0,36.0,71.0,0.0
32.0,38.0,74.0,0.0
34.0,41.0,79.0,0.0
38.0,47.0,85.0,0.0
35.0,45.0,80.0,0.0
32.0,43.0,75.0,0.0
36.0,49.0,82.0,0.0
38.0,52.0,85.0,0.0
39.0,56.0,89.0,0.0
36.0,54.0,83.0,0.0
37.0,56.0,85.0,0.0
41.0,64.0,93.0,0.0
41.0,65.0,94.0,0.0
43.0,69.0,97.0,0.0
41.0,69.0,94.0,0.0
41.0,70.0,94.0,0.0
42.0,73.0,96.0,0.0
42.0,75.0,97.0,0.0
42.0,77.0,96.0,0.0
44.0,83.0,102.0,0.0
43.0,81.0,98.0,0.0
47.0,91.0,107.0,0.0
49.0,97.0,110.0,0.0
49.0,101.0,112.0,0.0
48.0,99.0,109.0,0.0
49.0,104.0,111.0,0.0
50.0,108.0,114.0,0.0
50.0,112.0,115.0,0.0
52.0,117.0,117.0,0.0
52.0,121.0,118.0,0.0
55.0,129.0,123.0,0.0
53.0,127.0,120.0,0.0
54.0,132.0,121.0,0.0
55.0,139.0,124.0,0.0
55.0,143.0,125.0,0.0
53.0,138.0,118.0,0.0
53.0,141.0,119.0,0.0
76.0,-273.0,66.0,0.0
78.0,-274.0,70.0,0.0
77.0,-271.0,72.0,0.0
78.0,-269.0,74.0,0.0
78.0,-266.0,77.0,0.0
82.0,-272.0,82.0,0.0
81.0,-268.0,84.0,0.0
83.0,-269.0,88.0,0.0
80.0,-257.0,87.0,0.0
84.0,-265.0,92.0,0.0
84.0,-261.0,94.0,0.0
87.0,-267.0,99.0,0.0
88.0,-264.0,101.0,0.0
88.0,-260.0,103.0,0.0
91.0,-265.0,109.0,0.0
93.0,-267.0,113.0,0.0
93.0,-264.0,116.0,0.0
96.0,-268.0,120.0,0.0
95.0,-263.0,123.0,0.0
99.0,-268.0,128.0,0.0
96.0,-257.0,126.0,0.0
99.0,-261.0,132.0,0.0
101.0,-263.0,137.0,0.0
100.0,-256.0,137.0,0.0
100.0,-253.0,138.0,0.0
102.0,-253.0,142.0,0.0
105.0,-259.0,149.0,0.0
105.0,-255.0,151.0,0.0
97.0,-230.0,140.0,0.0
98.0,-230.0,144.0,0.0
93.0,-215.0,138.0,0.0
92.0,-210.0,138.0,0.0
86.0,-193.0,129.0,0.0
81.0,-181.0,124.0,0.0
79.0,-174.0,122.0,0.0
73.0,-157.0,113.0,0.0
71.0,-150.0,112.0,0.0
65.0,-136.0,104.0,0.0
65.0,-135.0,105.0,0.0
62.0,-126.0,99.0,0.0
61.0,-121.0,98.0,0.0
52.0,-100.0,84.0,0.0
11761.0,-22523.0,19188.0,0.0
11731.0,-22109.0,19280.0,0.0
50.0,-93.0,84.0,0.0
11675.0,-21306.0,19460.0,0.0
11646.0,-20910.0,19547.0,0.0
11620.0,-20520.0,19632.0,0.0
11580.0,-20114.0,19695.0,0.0
11564.0,-19750.0,19792.0,0.0
11547.0,-19390.0,19888.0,0.0
11516.0,-19010.0,19957.0,0.0
11487.0,-18637.0,20027.0,0.0
11458.0,-18265.0,20092.0,0.0
11435.0,-17911.0,20169.0,0.0
11423.0,-17574.0,20262.0,0.0
11403.0,-17227.0,20337.0,0.0
11368.0,-16860.0,20384.0,0.0
11601.0,-16890.0,20913.0,0.0
12688.0,-18127.0,22993.0,0.0
11863.0,-16629.0,21608.0,0.0
11964.0,-16448.0,21901.0,0.0
12320.0,-16607.0,22663.0,0.0
12672.0,-16745.0,23424.0,0.0
0.0,0.0,0.0,0.0
908.0,-1153.0,1695.0,0.0
922.0,-1146.0,1730.0,0.0
14435.0,-17550.0,27176.0,1.0
930.0,-1106.0,1758.0,0.0
14550.0,-16931.0,27631.0,1.0
14555.0,-16560.0,27759.0,1.0
14550.0,-16179.0,27865.0,1.0
942.0,-1024.0,1813.0,0.0
949.0,-1006.0,1833.0,0.0
947.0,-980.0,1836.0,0.0
931.0,-939.0,1812.0,0.0
925.0,-910.0,1807.0,0.0
938.0,-899.0,1839.0,0.0
931.0,-869.0,1834.0,0.0
939.0,-852.0,1856.0,0.0
925.0,-815.0,1833.0,0.0
956.0,-819.0,1902.0,0.0
14063.0,-11703.0,28064.0,1.0
948.0,-765.0,1900.0,0.0
945.0,-739.0,1899.0,0.0
945.0,-715.0,1906.0,0.0
14120.0,-10334.0,28551.0,1.0
942.0,-666.0,1911.0,0.0
950.0,-647.0,1935.0,0.0
975.0,-640.0,1991.0,0.0
961.0,-607.0,1969.0,0.0
956.0,-580.0,1965.0,0.0
954.0,-555.0,1966.0,0.0
977.0,-544.0,2019.0,0.0
969.0,-515.0,2007.0,0.0
964.0,-489.0,2004.0,0.0
939.0,-452.0,1955.0,0.0
14828.0,-6779.0,30958.0,1.0
958.0,-414.0,2006.0,0.0
981.0,-400.0,2060.0,0.0
941.0,-360.0,1982.0,0.0
951.0,-340.0,2007.0,0.0
15169.0,-5035.0,32079.0,1.0
955.0,-293.0,2025.0,0.0
967.0,-273.0,2055.0,0.0
928.0,-238.0,1977.0,0.0
945.0,-218.0,2018.0,0.0
949.0,-195.0,2031.0,0.0
966.0,-174.0,2073.0,0.0
12.0,-2.0,28.0,0.0
20.0,-2.0,45.0,0.0
15.0,-2.0,33.0,0.0
12.0,-1.0,29.0,0.0
10.0,-1.0,24.0,0.0
12.0,0.0,27.0,0.0
19.0,0.0,42.0,0.0
9.0,0.0,21.0,0.0
14.0,0.0,32.0,0.0
19.0,1.0,44.0,0.0
16.0,1.0,36.0,0.0
15.0,1.0,34.0,0.0
21.0,2.0,47.0,0.0
26.0,4.0,59.0,0.0
29.0,5.0,64.0,0.0
26.0,5.0,58.0,0.0
26.0,7.0,59.0,0.0
36.0,9.0,80.0,0.0
34.0,10.0,77.0,0.0
21.0,7.0,49.0,0.0
31.0,11.0,71.0,0.0
35.0,14.0,79.0,0.0
28.0,12.0,63.0,0.0
38.0,17.0,87.0,0.0
36.0,17.0,81.0,0.0
35.0,17.0,81.0,0.0
38.0,20.0,86.0,0.0
41.0,24.0,94.0,0.0
44.0,26.0,101.0,0.0
35.0,22.0,80.0,0.0
42.0,27.0,96.0,0.0
40.0,28.0,93.0,0.0
47.0,33.0,107.0,0.0
44.0,33.0,103.0,0.0
42.0,33.0,99.0,0.0
44.0,36.0,102.0,0.0
44.0,38.0,104.0,0.0
44.0,39.0,103.0,0.0
44.0,40.0,101.0,0.0
42.0,39.0,97.0,0.0
44.0,42.0,102.0,0.0
38.0,38.0,89.0,0.0
40.0,41.0,93.0,0.0
40.0,43.0,92.0,0.0
39.0,43.0,91.0,0.0
38.0,43.0,90.0,0.0
40.0,47.0,94.0,0.0
36.0,43.0,83.0,0.0
37.0,46.0,86.0,0.0
35.0,44.0,81.0,0.0
34.0,44.0,80.0,0.0
35.0,48.0,83.0,0.0
39.0,54.0,92.0,0.0
36.0,51.0,85.0,0.0
37.0,55.0,88.0,0.0
39.0,58.0,92.0,0.0
39.0,61.0,92.0,0.0
41.0,64.0,96.0,0.0
40.0,65.0,95.0,0.0
40.0,66.0,94.0,0.0
40.0,69.0,96.0,0.0
42.0,73.0,98.0,0.0
42.0,76.0,100.0,0.0
46.0,82.0,107.0,0.0
44.0,84.0,105.0,0.0
42.0,81.0,100.0,0.0
45.0,88.0,106.0,0.0
45.0,91.0,108.0,0.0
47.0,96.0,111.0,0.0
49.0,102.0,115.0,0.0
48.0,103.0,114.0,0.0
48.0,107.0,115.0,0.0
50.0,111.0,116.0,0.0
49.0,112.0,116.0,0.0
51.0,118.0,120.0,0.0
53.0,128.0,127.0,0.0
52.0,127.0,122.0,0.0
52.0,131.0,123.0,0.0
54.0,138.0,128.0,0.0
53.0,138.0,124.0,0.0
53.0,141.0,125.0,0.0
52.0,141.0,122.0,0.0
54.0,148.0,125.0,0.0
71.0,-263.0,65.0,0.0
71.0,-258.0,66.0,0.0
72.0,-260.0,69.0,0.0
72.0,-253.0,71.0,0.0
73.0,-257.0,75.0,0.0
77.0,-264.0,80.0,0.0
75.0,-256.0,81.0,0.0
78.0,-261.0,85.0,0.0
76.0,-251.0,85.0,0.0
81.0,-263.0,93.0,0.0
81.0,-259.0,94.0,0.0
82.0,-257.0,97.0,0.0
83.0,-256.0,100.0,0.0
83.0,-253.0,102.0,0.0
87.0,-262.0,108.0,0.0
86.0,-258.0,110.0,0.0
89.0,-261.0,115.0,0.0
90.0,-260.0,118.0,0.0
87.0,-247.0,116.0,0.0
92.0,-256.0,123.0,0.0
90.0,-249.0,123.0,0.0
91.0,-249.0,127.0,0.0
94.0,-253.0,133.0,0.0
89.0,-235.0,126.0,0.0
95.0,-248.0,138.0,0.0
97.0,-249.0,141.0,0.0
98.0,-246.0,144.0,0.0
98.0,-243.0,145.0,0.0
88.0,-216.0,132.0,0.0
89.0,-216.0,135.0,0.0
80.0,-191.0,123.0,0.0
82.0,-193.0,127.0,0.0
73.0,-168.0,114.0,0.0
68.0,-155.0,107.0,0.0
71.0,-160.0,113.0,0.0
71.0,-156.0,114.0,0.0
64.0,-139.0,103.0,0.0
58.0,-125.0,96.0,0.0
58.0,-122.0,95.0,0.0
57.0,-119.0,95.0,0.0
51.0,-104.0,85.0,0.0
47.0,-95.0,81.0,0.0
44.0,-88.0,75.0,0.0
11371.0,-22024.0,19301.0,0.0
11341.0,-21615.0,19385.0,0.0
11320.0,-21229.0,19484.0,0.0
11283.0,-20814.0,19549.0,0.0
11260.0,-20430.0,19637.0,0.0
11235.0,-20048.0,19721.0,0.0
11206.0,-19663.0,19793.0,0.0
11191.0,-19305.0,19888.0,0.0
11160.0,-18924.0,19954.0,0.0
11151.0,-18584.0,20056.0,0.0
11124.0,-18215.0,20121.0,0.0
11104.0,-17865.0,20201.0,0.0
11068.0,-17487.0,20245.0,0.0
11043.0,-17135.0,20309.0,0.0
11035.0,-16810.0,20402.0,0.0
11275.0,-16858.0,20955.0,0.0
12318.0,-18073.0,23011.0,0.0
11531.0,-16599.0,21650.0,0.0
11644.0,-16439.0,21969.0,0.0
11994.0,-16603.0,22740.0,0.0
12359.0,-16769.0,23542.0,0.0
14070.0,-18708.0,26928.0,1.0
14056.0,-18307.0,27023.0,1.0
915.0,-1166.0,1767.0,0.0
916.0,-1144.0,1778.0,0.0
886.0,-1083.0,1729.0,0.0
903.0,-1080.0,1768.0,0.0
903.0,-1055.0,1775.0,0.0
894.0,-1020.0,1765.0,0.0
911.0,-1016.0,1806.0,0.0
14084.0,-15338.0,28003.0,1.0
928.0,-987.0,1854.0,0.0
880.0,-912.0,1765.0,0.0
956.0,-967.0,1925.0,0.0
916.0,-902.0,1851.0,0.0
924.0,-886.0,1873.0,0.0
912.0,-850.0,1854.0,0.0
913.0,-827.0,1864.0,0.0
0.0,0.0,0.0,0.0
13750.0,-11754.0,28246.0,1.0
924.0,-766.0,1906.0,0.0
13857.0,-11132.0,28655.0,1.0
927.0,-721.0,1925.0,0.0
13864.0,-10426.0,28854.0,1.0
13857.0,-10064.0,28928.0,1.0
895.0,-627.0,1876.0,0.0
933.0,-629.0,1960.0,0.0
927.0,-602.0,1955.0,0.0
929.0,-579.0,1964.0,0.0
909.0,-543.0,1927.0,0.0
912.0,-523.0,1941.0,0.0
934.0,-510.0,1992.0,0.0
939.0,-489.0,2008.0,0.0
923.0,-458.0,1980.0,0.0
942.0,-444.0,2026.0,0.0
14563.0,-6479.0,31371.0,1.0
937.0,-393.0,2025.0,0.0
916.0,-360.0,1985.0,0.0
14772.0,-5435.0,32067.0,1.0
906.0,-311.0,1972.0,0.0
926.0,-293.0,2020.0,0.0
926.0,-270.0,2028.0,0.0
929.0,-246.0,2038.0,0.0
906.0,-216.0,1991.0,0.0
916.0,-195.0,2018.0,0.0
925.0,-173.0,2043.0,0.0
7.0,-1.0,17.0,0.0
3.0,-1.0,10.0,0.0
8.0,-1.0,19.0,0.0
8.0,-1.0,18.0,0.0
6.0,0.0,16.0,0.0
17.0,0.0,39.0,0.0
8.0,0.0,19.0,0.0
10.0,0.0,23.0,0.0
16.0,0.0,39.0,0.0
10.0,0.0,25.0,0.0
13.0,1.0,31.0,0.0
18.0,1.0,42.0,0.0
20.0,2.0,47.0,0.0
26.0,5.0,60.0,0.0
16.0,3.0,38.0,0.0
17.0,4.0,41.0,0.0
16.0,3.0,38.0,0.0
18.0,4.0,42.0,0.0
25.0,7.0,57.0,0.0
25.0,9.0,60.0,0.0
29.0,11.0,68.0,0.0
30.0,12.0,71.0,0.0
29.0,12.0,67.0,0.0
27.0,13.0,65.0,0.0
38.0,18.0,90.0,0.0
34.0,17.0,79.0,0.0
32.0,17.0,76.0,0.0
41.0,23.0,96.0,0.0
35.0,21.0,83.0,0.0
36.0,22.0,86.0,0.0
39.0,26.0,93.0,0.0
34.0,24.0,79.0,0.0
36.0,26.0,86.0,0.0
38.0,29.0,90.0,0.0
37.0,29.0,88.0,0.0
37.0,31.0,89.0,0.0
38.0,33.0,91.0,0.0
37.0,33.0,89.0,0.0
41.0,37.0,97.0,0.0
40.0,39.0,96.0,0.0
40.0,39.0,95.0,0.0
40.0,41.0,95.0,0.0
37.0,39.0,88.0,0.0
35.0,38.0,84.0,0.0
33.0,36.0,78.0,0.0
35.0,40.0,82.0,0.0
31.0,37.0,75.0,0.0
35.0,43.0,84.0,0.0
32.0,42.0,78.0,0.0
32.0,42.0,78.0,0.0
30.0,40.0,72.0,0.0
32.0,45.0,79.0,0.0
32.0,46.0,78.0,0.0
32.0,48.0,79.0,0.0
34.0,52.0,84.0,0.0
36.0,56.0,88.0,0.0
33.0,53.0,82.0,0.0
36.0,59.0,90.0,0.0
38.0,63.0,92.0,0.0
37.0,62.0,90.0,0.0
39.0,68.0,94.0,0.0
37.0,67.0,91.0,0.0
41.0,74.0,98.0,0.0
41.0,77.0,100.0,0.0
41.0,77.0,99.0,0.0
41.0,81.0,100.0,0.0
41.0,82.0,100.0,0.0
41.0,85.0,101.0,0.0
44.0,92.0,107.0,0.0
44.0,96.0,109.0,0.0
46.0,100.0,111.0,0.0
44.0,100.0,109.0,0.0
47.0,107.0,114.0,0.0
45.0,104.0,109.0,0.0
51.0,120.0,122.0,0.0
49.0,120.0,120.0,0.0
50.0,123.0,120.0,0.0
48.0,120.0,115.0,0.0
50.0,131.0,123.0,0.0
49.0,131.0,119.0,0.0
49.0,135.0,121.0,0.0
50.0,139.0,120.0,0.0
49.0,138.0,118.0,0.0
69.0,-265.0,66.0,0.0
69.0,-261.0,68.0,0.0
68.0,-252.0,69.0,0.0
71.0,-259.0,73.0,0.0
71.0,-258.0,76.0,0.0
75.0,-268.0,82.0,0.0
76.0,-268.0,85.0,0.0
77.0,-264.0,87.0,0.0
77.0,-261.0,90.0,0.0
78.0,-264.0,93.0,0.0
80.0,-264.0,97.0,0.0
81.0,-267.0,101.0,0.0
82.0,-262.0,103.0,0.0
82.0,-259.0,105.0,0.0
85.0,-265.0,111.0,0.0
85.0,-260.0,112.0,0.0
86.0,-258.0,115.0,0.0
88.0,-262.0,120.0,0.0
89.0,-260.0,122.0,0.0
89.0,-256.0,124.0,0.0
89.0,-254.0,126.0,0.0
89.0,-250.0,128.0,0.0
93.0,-258.0,136.0,0.0
89.0,-244.0,132.0,0.0
94.0,-253.0,141.0,0.0
96.0,-253.0,144.0,0.0
98.0,-256.0,150.0,0.0
94.0,-242.0,145.0,0.0
88.0,-222.0,137.0,0.0
88.0,-220.0,138.0,0.0
86.0,-211.0,137.0,0.0
80.0,-193.0,128.0,0.0
81.0,-191.0,131.0,0.0
69.0,-162.0,112.0,0.0
64.0,-148.0,106.0,0.0
69.0,-156.0,114.0,0.0
61.0,-137.0,103.0,0.0
58.0,-129.0,99.0,0.0
58.0,-126.0,99.0,0.0
56.0,-120.0,97.0,0.0
50.0,-106.0,87.0,0.0
47.0,-99.0,84.0,0.0
42.0,-87.0,75.0,0.0
45.0,-90.0,79.0,0.0
10986.0,-21534.0,19403.0,0.0
10969.0,-21153.0,19505.0,0.0
10936.0,-20743.0,19572.0,0.0
10908.0,-20350.0,19649.0,0.0
10884.0,-19970.0,19730.0,0.0
10875.0,-19618.0,19834.0,0.0
10849.0,-19241.0,19907.0,0.0
10812.0,-18849.0,19958.0,0.0
10805.0,-18511.0,20060.0,0.0
10780.0,-18144.0,20125.0,0.0
10756.0,-17785.0,20193.0,0.0
10740.0,-17442.0,20272.0,0.0
10736.0,-17122.0,20374.0,0.0
10742.0,-16819.0,20492.0,0.0
10970.0,-16857.0,21032.0,0.0
11939.0,-18003.0,23006.0,0.0
11181.0,-16540.0,21653.0,0.0
11368.0,-16493.0,22120.0,0.0
11693.0,-16633.0,22862.0,0.0
12048.0,-16798.0,23664.0,0.0
13737.0,-18769.0,27107.0,1.0
887.0,-1187.0,1760.0,0.0
881.0,-1156.0,1756.0,0.0
13837.0,-17752.0,27667.0,1.0
868.0,-1090.0,1745.0,0.0
887.0,-1089.0,1789.0,0.0
888.0,-1066.0,1800.0,0.0
877.0,-1029.0,1784.0,0.0
13773.0,-15786.0,28110.0,1.0
907.0,-1015.0,1860.0,0.0
885.0,-967.0,1822.0,0.0
886.0,-944.0,1831.0,0.0
13487.0,-14003.0,27945.0,1.0
914.0,-925.0,1901.0,0.0
898.0,-884.0,1876.0,0.0
906.0,-868.0,1899.0,0.0
13396.0,-12481.0,28156.0,1.0
888.0,-804.0,1874.0,0.0
900.0,-790.0,1905.0,0.0
885.0,-755.0,1882.0,0.0
899.0,-743.0,1916.0,0.0
903.0,-723.0,1932.0,0.0
894.0,-690.0,1916.0,0.0
907.0,-677.0,1952.0,0.0
911.0,-656.0,1966.0,0.0
908.0,-631.0,1966.0,0.0
899.0,-600.0,1953.0,0.0
915.0,-586.0,1992.0,0.0
902.0,-555.0,1971.0,0.0
915.0,-539.0,2004.0,0.0
13874.0,-7814.0,30446.0,1.0
908.0,-486.0,1999.0,0.0
911.0,-465.0,2012.0,0.0
902.0,-438.0,1995.0,0.0
868.0,-398.0,1928.0,0.0
900.0,-389.0,2004.0,0.0
924.0,-376.0,2063.0,0.0
891.0,-338.0,1991.0,0.0
896.0,-316.0,2008.0,0.0
880.0,-287.0,1978.0,0.0
903.0,-271.0,2034.0,0.0
861.0,-236.0,1946.0,0.0
902.0,-222.0,2042.0,0.0
911.0,-201.0,2066.0,0.0
910.0,-176.0,2069.0,0.0
890.0,-149.0,2027.0,0.0
883.0,-124.0,2018.0,0.0
13.0,-1.0,31.0,0.0
13.0,-1.0,30.0,0.0
8.0,0.0,20.0,0.0
8.0,-1.0,18.0,0.0
16.0,0.0,38.0,0.0
9.0,0.0,23.0,0.0
9.0,0.0,22.0,0.0
16.0,0.0,38.0,0.0
13.0,0.0,33.0,0.0
13.0,1.0,33.0,0.0
16.0,2.0,39.0,0.0
19.0,3.0,45.0,0.0
24.0,5.0,59.0,0.0
21.0,5.0,51.0,0.0
19.0,5.0,46.0,0.0
22.0,6.0,53.0,0.0
29.0,9.0,71.0,0.0
27.0,9.0,66.0,0.0
26.0,9.0,61.0,0.0
29.0,11.0,70.0,0.0
33.0,14.0,80.0,0.0
27.0,12.0,66.0,0.0
34.0,17.0,82.0,0.0
32.0,17.0,78.0,0.0
38.0,21.0,92.0,0.0
33.0,20.0,80.0,0.0
38.0,24.0,93.0,0.0
38.0,24.0,92.0,0.0
38.0,26.0,92.0,0.0
40.0,29.0,98.0,0.0
41.0,31.0,102.0,0.0
35.0,27.0,87.0,0.0
35.0,28.0,86.0,0.0
41.0,34.0,101.0,0.0
40.0,35.0,98.0,0.0
38.0,34.0,93.0,0.0
41.0,39.0,102.0,0.0
43.0,42.0,106.0,0.0
40.0,41.0,99.0,0.0
35.0,37.0,88.0,0.0
33.0,36.0,82.0,0.0
37.0,41.0,91.0,0.0
32.0,36.0,78.0,0.0
34.0,39.0,83.0,0.0
32.0,39.0,79.0,0.0
32.0,41.0,81.0,0.0
31.0,41.0,78.0,0.0
31.0,42.0,78.0,0.0
33.0,45.0,81.0,0.0
31.0,43.0,76.0,0.0
34.0,49.0,85.0,0.0
33.0,49.0,82.0,0.0
35.0,53.0,86.0,0.0
33.0,51.0,81.0,0.0
33.0,54.0,83.0,0.0
35.0,57.0,86.0,0.0
35.0,61.0,90.0,0.0
37.0,64.0,93.0,0.0
38.0,68.0,95.0,0.0
37.0,68.0,92.0,0.0
36.0,68.0,92.0,0.0
39.0,74.0,97.0,0.0
38.0,75.0,96.0,0.0
40.0,81.0,102.0,0.0
42.0,86.0,105.0,0.0
40.0,85.0,103.0,0.0
41.0,89.0,104.0,0.0
42.0,93.0,107.0,0.0
44.0,101.0,112.0,0.0
43.0,101.0,111.0,0.0
43.0,102.0,109.0,0.0
43.0,105.0,110.0,0.0
45.0,112.0,115.0,0.0
46.0,117.0,117.0,0.0
46.0,120.0,117.0,0.0
46.0,121.0,116.0,0.0
47.0,128.0,120.0,0.0
49.0,135.0,124.0,0.0
47.0,135.0,120.0,0.0
48.0,138.0,122.0,0.0
47.0,138.0,119.0,0.0
68.0,-273.0,69.0,0.0
68.0,-265.0,70.0,0.0
71.0,-274.0,76.0,0.0
70.0,-265.0,76.0,0.0
72.0,-269.0,81.0,0.0
73.0,-272.0,84.0,0.0
73.0,-264.0,85.0,0.0
76.0,-270.0,90.0,0.0
75.0,-263.0,91.0,0.0
77.0,-269.0,97.0,0.0
80.0,-271.0,101.0,0.0
80.0,-268.0,103.0,0.0
81.0,-268.0,106.0,0.0
81.0,-264.0,108.0,0.0
84.0,-268.0,113.0,0.0
84.0,-265.0,115.0,0.0
85.0,-266.0,120.0,0.0
85.0,-262.0,120.0,0.0
88.0,-265.0,126.0,0.0
87.0,-261.0,127.0,0.0
87.0,-258.0,129.0,0.0
90.0,-262.0,135.0,0.0
91.0,-258.0,138.0,0.0
88.0,-247.0,134.0,0.0
95.0,-263.0,147.0,0.0
94.0,-255.0,147.0,0.0
93.0,-250.0,147.0,0.0
92.0,-243.0,147.0,0.0
92.0,-240.0,149.0,0.0
85.0,-219.0,138.0,0.0
84.0,-215.0,140.0,0.0
81.0,-202.0,135.0,0.0
75.0,-185.0,126.0,0.0
73.0,-178.0,124.0,0.0
68.0,-161.0,116.0,0.0
70.0,-163.0,120.0,0.0
56.0,-131.0,99.0,0.0
61.0,-140.0,108.0,0.0
56.0,-127.0,100.0,0.0
54.0,-118.0,96.0,0.0
43.0,-94.0,78.0,0.0
46.0,-98.0,83.0,0.0
39.0,-83.0,73.0,0.0
44.0,-90.0,80.0,0.0
10631.0,-21445.0,19413.0,0.0
10604.0,-21043.0,19491.0,0.0
10586.0,-20663.0,19584.0,0.0
10565.0,-20281.0,19668.0,0.0
10544.0,-19904.0,19750.0,0.0
10526.0,-19538.0,19838.0,0.0
10509.0,-19174.0,19921.0,0.0
10480.0,-18795.0,19983.0,0.0
10454.0,-18423.0,20045.0,0.0
10454.0,-18101.0,20158.0,0.0
10423.0,-17728.0,20206.0,0.0
10409.0,-17388.0,20288.0,0.0
10390.0,-17042.0,20356.0,0.0
10474.0,-16865.0,20626.0,0.0
10652.0,-16834.0,21081.0,0.0
11584.0,-17964.0,23040.0,0.0
10846.0,-16499.0,21676.0,0.0
11046.0,-16480.0,22181.0,0.0
11391.0,-16662.0,22980.0,0.0
11728.0,-16816.0,23769.0,0.0
13421.0,-18856.0,27324.0,1.0
858.0,-1182.0,1757.0,0.0
13459.0,-18138.0,27641.0,1.0
868.0,-1145.0,1790.0,0.0
857.0,-1107.0,1777.0,0.0
864.0,-1092.0,1799.0,0.0
862.0,-1065.0,1803.0,0.0
13473.0,-16254.0,28241.0,1.0
13352.0,-15735.0,28098.0,1.0
862.0,-992.0,1822.0,0.0
874.0,-982.0,1855.0,0.0
903.0,-989.0,1922.0,0.0
870.0,-929.0,1858.0,0.0
870.0,-905.0,1867.0,0.0
898.0,-909.0,1933.0,0.0
879.0,-866.0,1898.0,0.0
13119.0,-12570.0,28419.0,1.0
892.0,-830.0,1941.0,0.0
865.0,-781.0,1887.0,0.0
902.0,-791.0,1976.0,0.0
880.0,-748.0,1934.0,0.0
831.0,-683.0,1832.0,0.0
872.0,-694.0,1929.0,0.0
889.0,-683.0,1971.0,0.0
866.0,-641.0,1926.0,0.0
893.0,-638.0,1993.0,0.0
879.0,-604.0,1966.0,0.0
13295.0,-8783.0,29806.0,1.0
897.0,-567.0,2017.0,0.0
905.0,-549.0,2043.0,0.0
873.0,-506.0,1976.0,0.0
887.0,-490.0,2012.0,0.0
860.0,-452.0,1957.0,0.0
881.0,-441.0,2009.0,0.0
900.0,-426.0,2057.0,0.0
904.0,-403.0,2072.0,0.0
867.0,-363.0,1993.0,0.0
888.0,-347.0,2045.0,0.0
874.0,-319.0,2019.0,0.0
871.0,-294.0,2018.0,0.0
862.0,-268.0,2001.0,0.0
854.0,-241.0,1988.0,0.0
890.0,-227.0,2078.0,0.0
905.0,-207.0,2114.0,0.0
8.0,-2.0,19.0,0.0
0.0,0.0,0.0,0.0
8.0,-1.0,20.0,0.0
1.0,-1.0,4.0,0.0
9.0,-1.0,25.0,0.0
11.0,0.0,27.0,0.0
17.0,-1.0,43.0,0.0
11.0,0.0,27.0,0.0
18.0,0.0,45.0,0.0
20.0,0.0,51.0,0.0
20.0,0.0,51.0,0.0
19.0,1.0,46.0,0.0
20.0,2.0,50.0,0.0
19.0,3.0,46.0,0.0
24.0,4.0,59.0,0.0
22.0,4.0,56.0,0.0
20.0,4.0,51.0,0.0
22.0,5.0,56.0,0.0
27.0,8.0,67.0,0.0
27.0,8.0,67.0,0.0
28.0,10.0,69.0,0.0
22.0,8.0,57.0,0.0
32.0,14.0,79.0,0.0
30.0,13.0,77.0,0.0
35.0,16.0,87.0,0.0
36.0,18.0,90.0,0.0
36.0,19.0,90.0,0.0
35.0,20.0,88.0,0.0
38.0,23.0,97.0,0.0
40.0,25.0,100.0,0.0
38.0,25.0,94.0,0.0
40.0,28.0,102.0,0.0
38.0,28.0,97.0,0.0
38.0,29.0,96.0,0.0
40.0,31.0,100.0,0.0
34.0,29.0,86.0,0.0
43.0,37.0,110.0,0.0
39.0,35.0,97.0,0.0
39.0,37.0,99.0,0.0
37.0,37.0,97.0,0.0
39.0,39.0,99.0,0.0
34.0,35.0,86.0,0.0
38.0,41.0,97.0,0.0
38.0,42.0,97.0,0.0
38.0,44.0,96.0,0.0
34.0,41.0,87.0,0.0
36.0,44.0,93.0,0.0
30.0,38.0,78.0,0.0
36.0,47.0,94.0,0.0
32.0,43.0,83.0,0.0
32.0,44.0,82.0,0.0
30.0,43.0,78.0,0.0
28.0,41.0,72.0,0.0
30.0,46.0,79.0,0.0
30.0,47.0,78.0,0.0
32.0,51.0,83.0,0.0
32.0,53.0,85.0,0.0
32.0,53.0,82.0,0.0
32.0,54.0,82.0,0.0
32.0,57.0,85.0,0.0
35.0,63.0,92.0,0.0
36.0,67.0,94.0,0.0
36.0,68.0,94.0,0.0
38.0,75.0,100.0,0.0
38.0,74.0,98.0,0.0
38.0,79.0,101.0,0.0
40.0,85.0,106.0,0.0
39.0,82.0,100.0,0.0
39.0,85.0,102.0,0.0
41.0,92.0,108.0,0.0
43.0,98.0,112.0,0.0
41.0,97.0,109.0,0.0
43.0,102.0,111.0,0.0
45.0,109.0,116.0,0.0
43.0,108.0,114.0,0.0
44.0,113.0,116.0,0.0
45.0,118.0,118.0,0.0
45.0,121.0,119.0,0.0
46.0,125.0,121.0,0.0
45.0,123.0,116.0,0.0
46.0,131.0,121.0,0.0
46.0,135.0,122.0,0.0
46.0,138.0,122.0,0.0
46.0,142.0,123.0,0.0
67.0,-277.0,71.0,0.0
67.0,-273.0,73.0,0.0
69.0,-277.0,77.0,0.0
70.0,-278.0,81.0,0.0
72.0,-279.0,84.0,0.0
70.0,-269.0,85.0,0.0
73.0,-274.0,89.0,0.0
73.0,-273.0,93.0,0.0
76.0,-277.0,97.0,0.0
78.0,-279.0,101.0,0.0
76.0,-270.0,101.0,0.0
79.0,-275.0,106.0,0.0
81.0,-277.0,111.0,0.0
81.0,-271.0,112.0,0.0
82.0,-273.0,117.0,0.0
86.0,-283.0,124.0,0.0
84.0,-270.0,122.0,0.0
87.0,-275.0,128.0,0.0
85.0,-266.0,128.0,0.0
86.0,-267.0,132.0,0.0
87.0,-264.0,133.0,0.0
87.0,-261.0,135.0,0.0
89.0,-263.0,140.0,0.0
88.0,-256.0,140.0,0.0
91.0,-260.0,147.0,0.0
96.0,-269.0,155.0,0.0
95.0,-265.0,157.0,0.0
93.0,-255.0,155.0,0.0
90.0,-242.0,151.0,0.0
84.0,-223.0,142.0,0.0
84.0,-220.0,144.0,0.0
80.0,-206.0,138.0,0.0
71.0,-180.0,123.0,0.0
69.0,-172.0,121.0,0.0
68.0,-166.0,120.0,0.0
69.0,-166.0,123.0,0.0
64.0,-152.0,115.0,0.0
61.0,-142.0,110.0,0.0
57.0,-131.0,104.0,0.0
57.0,-129.0,106.0,0.0
50.0,-112.0,93.0,0.0
46.0,-102.0,87.0,0.0
57.0,-123.0,107.0,0.0
10323.0,-21802.0,19375.0,0.0
10302.0,-21406.0,19464.0,0.0
10267.0,-20984.0,19522.0,0.0
10254.0,-20613.0,19621.0,0.0
10226.0,-20218.0,19690.0,0.0
10204.0,-19836.0,19766.0,0.0
10197.0,-19488.0,19869.0,0.0
10165.0,-19097.0,19923.0,0.0
10151.0,-18744.0,20008.0,0.0
10146.0,-18407.0,20108.0,0.0
10118.0,-18035.0,20163.0,0.0
10090.0,-17665.0,20212.0,0.0
10089.0,-17348.0,20317.0,0.0
10077.0,-17014.0,20397.0,0.0
10191.0,-16891.0,20733.0,0.0
11242.0,-18285.0,22981.0,0.0
10518.0,-16787.0,21606.0,0.0
10515.0,-16463.0,21703.0,0.0
10768.0,-16532.0,22327.0,0.0
11082.0,-16682.0,23084.0,0.0
11430.0,-16865.0,23917.0,0.0
0.0,0.0,0.0,0.0
855.0,-1212.0,1806.0,0.0
13115.0,-18188.0,27802.0,1.0
13162.0,-17865.0,28017.0,1.0
842.0,-1117.0,1800.0,0.0
878.0,-1140.0,1885.0,0.0
857.0,-1089.0,1849.0,0.0
851.0,-1056.0,1842.0,0.0
842.0,-1020.0,1829.0,0.0
871.0,-1031.0,1900.0,0.0
12984.0,-15003.0,28404.0,1.0
12953.0,-14599.0,28440.0,1.0
841.0,-924.0,1855.0,0.0
849.0,-908.0,1878.0,0.0
857.0,-894.0,1906.0,0.0
845.0,-857.0,1883.0,0.0
888.0,-876.0,1986.0,0.0
851.0,-816.0,1910.0,0.0
875.0,-814.0,1971.0,0.0
871.0,-785.0,1966.0,0.0
850.0,-744.0,1926.0,0.0
847.0,-717.0,1926.0,0.0
864.0,-707.0,1969.0,0.0
857.0,-679.0,1962.0,0.0
875.0,-668.0,2007.0,0.0
875.0,-645.0,2014.0,0.0
879.0,-622.0,2029.0,0.0
12886.0,-8769.0,29784.0,1.0
855.0,-558.0,1985.0,0.0
875.0,-547.0,2035.0,0.0
13103.0,-7830.0,30541.0,1.0
13124.0,-7480.0,30672.0,1.0
861.0,-466.0,2019.0,0.0
870.0,-449.0,2046.0,0.0
848.0,-414.0,2000.0,0.0
858.0,-394.0,2026.0,0.0
857.0,-370.0,2030.0,0.0
13685.0,-5527.0,32486.0,1.0
13724.0,-5162.0,32660.0,1.0
885.0,-309.0,2112.0,0.0
878.0,-282.0,2100.0,0.0
872.0,-255.0,2092.0,0.0
848.0,-224.0,2041.0,0.0
13976.0,-3305.0,33654.0,1.0
882.0,-184.0,2129.0,0.0
9.0,-2.0,25.0,0.0
16.0,-3.0,42.0,0.0
10.0,-1.0,26.0,0.0
9.0,-1.0,25.0,0.0
15.0,-1.0,39.0,0.0
13.0,0.0,35.0,0.0
21.0,0.0,53.0,0.0
18.0,0.0,46.0,0.0
23.0,0.0,57.0,0.0
21.0,1.0,52.0,0.0
24.0,1.0,60.0,0.0
20.0,2.0,52.0,0.0
26.0,4.0,67.0,0.0
32.0,6.0,81.0,0.0
26.0,5.0,68.0,0.0
28.0,7.0,72.0,0.0
30.0,8.0,77.0,0.0
33.0,10.0,85.0,0.0
31.0,10.0,80.0,0.0
31.0,11.0,80.0,0.0
37.0,14.0,95.0,0.0
38.0,16.0,99.0,0.0
40.0,18.0,101.0,0.0
37.0,18.0,94.0,0.0
30.0,16.0,79.0,0.0
38.0,21.0,100.0,0.0
40.0,23.0,102.0,0.0
38.0,24.0,99.0,0.0
43.0,29.0,114.0,0.0
40.0,27.0,103.0,0.0
35.0,25.0,91.0,0.0
42.0,31.0,107.0,0.0
42.0,33.0,110.0,0.0
44.0,36.0,114.0,0.0
36.0,30.0,93.0,0.0
40.0,36.0,105.0,0.0
47.0,43.0,122.0,0.0
38.0,37.0,100.0,0.0
42.0,42.0,111.0,0.0
39.0,41.0,105.0,0.0
42.0,45.0,110.0,0.0
39.0,43.0,102.0,0.0
36.0,41.0,95.0,0.0
38.0,45.0,100.0,0.0
38.0,46.0,100.0,0.0
39.0,49.0,104.0,0.0
32.0,42.0,87.0,0.0
35.0,48.0,96.0,0.0
33.0,45.0,89.0,0.0
34.0,47.0,89.0,0.0
34.0,49.0,89.0,0.0
32.0,49.0,87.0,0.0
31.0,49.0,83.0,0.0
32.0,52.0,87.0,0.0
34.0,54.0,90.0,0.0
31.0,53.0,85.0,0.0
34.0,59.0,92.0,0.0
33.0,59.0,90.0,0.0
31.0,58.0,86.0,0.0
33.0,61.0,89.0,0.0
35.0,67.0,96.0,0.0
35.0,68.0,94.0,0.0
35.0,70.0,96.0,0.0
37.0,74.0,98.0,0.0
37.0,77.0,100.0,0.0
38.0,82.0,104.0,0.0
37.0,82.0,102.0,0.0
39.0,89.0,108.0,0.0
39.0,90.0,107.0,0.0
40.0,93.0,108.0,0.0
40.0,97.0,109.0,0.0
43.0,105.0,116.0,0.0
42.0,105.0,114.0,0.0
40.0,105.0,111.0,0.0
42.0,113.0,117.0,0.0
44.0,118.0,120.0,0.0
43.0,117.0,116.0,0.0
44.0,125.0,121.0,0.0
43.0,123.0,117.0,0.0
45.0,131.0,121.0,0.0
45.0,135.0,123.0,0.0
45.0,139.0,124.0,0.0
45.0,143.0,124.0,0.0
61.0,-264.0,68.0,0.0
62.0,-262.0,71.0,0.0
64.0,-266.0,74.0,0.0
65.0,-266.0,78.0,0.0
66.0,-270.0,82.0,0.0
67.0,-267.0,85.0,0.0
67.0,-261.0,86.0,0.0
67.0,-259.0,88.0,0.0
68.0,-256.0,90.0,0.0
71.0,-267.0,98.0,0.0
72.0,-264.0,100.0,0.0
72.0,-261.0,101.0,0.0
75.0,-266.0,107.0,0.0
75.0,-262.0,109.0,0.0
78.0,-267.0,114.0,0.0
78.0,-263.0,116.0,0.0
77.0,-259.0,118.0,0.0
80.0,-265.0,124.0,0.0
80.0,-262.0,126.0,0.0
80.0,-255.0,126.0,0.0
80.0,-252.0,128.0,0.0
84.0,-259.0,135.0,0.0
85.0,-259.0,139.0,0.0
82.0,-246.0,135.0,0.0
86.0,-254.0,143.0,0.0
92.0,-267.0,156.0,0.0
90.0,-259.0,155.0,0.0
83.0,-234.0,143.0,0.0
82.0,-230.0,144.0,0.0
76.0,-210.0,134.0,0.0
74.0,-198.0,130.0,0.0
69.0,-185.0,125.0,0.0
67.0,-176.0,122.0,0.0
64.0,-165.0,116.0,0.0
59.0,-150.0,109.0,0.0
57.0,-143.0,106.0,0.0
59.0,-146.0,111.0,0.0
51.0,-125.0,98.0,0.0
51.0,-121.0,97.0,0.0
47.0,-111.0,90.0,0.0
50.0,-115.0,97.0,0.0
40.0,-92.0,78.0,0.0
41.0,-92.0,80.0,0.0
37.0,-81.0,73.0,0.0
38.0,-84.0,77.0,0.0
9924.0,-20910.0,19537.0,0.0
9912.0,-20539.0,19633.0,0.0
9885.0,-20141.0,19697.0,0.0
9863.0,-19759.0,19769.0,0.0
9849.0,-19399.0,19857.0,0.0
9829.0,-19026.0,19927.0,0.0
9807.0,-18658.0,19994.0,0.0
9801.0,-18322.0,20091.0,0.0
9777.0,-17953.0,20147.0,0.0
9767.0,-17616.0,20232.0,0.0
9753.0,-17278.0,20309.0,0.0
9737.0,-16936.0,20376.0,0.0
9897.0,-16896.0,20812.0,0.0
10871.0,-18215.0,22972.0,0.0
10193.0,-16758.0,21642.0,0.0
10175.0,-16407.0,21702.0,0.0
10452.0,-16528.0,22395.0,0.0
10762.0,-16686.0,23164.0,0.0
11092.0,-16854.0,23979.0,0.0
813.0,-1212.0,1767.0,0.0
817.0,-1191.0,1782.0,0.0
821.0,-1173.0,1799.0,0.0
12832.0,-17937.0,28212.0,1.0
809.0,-1108.0,1788.0,0.0
811.0,-1085.0,1799.0,0.0
821.0,-1073.0,1827.0,0.0
799.0,-1022.0,1786.0,0.0
816.0,-1019.0,1831.0,0.0
842.0,-1026.0,1895.0,0.0
835.0,-995.0,1888.0,0.0
820.0,-951.0,1860.0,0.0
12526.0,-14172.0,28490.0,1.0
12515.0,-13797.0,28567.0,1.0
823.0,-884.0,1888.0,0.0
833.0,-870.0,1917.0,0.0
836.0,-849.0,1930.0,0.0
818.0,-807.0,1893.0,0.0
817.0,-783.0,1897.0,0.0
832.0,-773.0,1937.0,0.0
826.0,-744.0,1931.0,0.0
820.0,-715.0,1923.0,0.0
12231.0,-10318.0,28744.0,1.0
837.0,-682.0,1975.0,0.0
848.0,-666.0,2006.0,0.0
861.0,-653.0,2044.0,0.0
841.0,-613.0,2001.0,0.0
12574.0,-8819.0,29986.0,1.0
843.0,-566.0,2017.0,0.0
852.0,-549.0,2043.0,0.0
840.0,-518.0,2023.0,0.0
836.0,-490.0,2016.0,0.0
12774.0,-7145.0,30881.0,1.0
838.0,-446.0,2033.0,0.0
850.0,-428.0,2067.0,0.0
849.0,-403.0,2069.0,0.0
836.0,-373.0,2045.0,0.0
815.0,-341.0,1996.0,0.0
842.0,-328.0,2070.0,0.0
833.0,-300.0,2050.0,0.0
823.0,-273.0,2032.0,0.0
842.0,-255.0,2084.0,0.0
838.0,-230.0,2078.0,0.0
3.0,0.0,8.0,0.0
812.0,-176.0,2024.0,0.0
0.0,0.0,0.0,0.0
1.0,0.0,3.0,0.0
3.0,-1.0,10.0,0.0
14.0,-2.0,37.0,0.0
16.0,-1.0,40.0,0.0
13.0,0.0,36.0,0.0
13.0,0.0,35.0,0.0
10.0,0.0,27.0,0.0
8.0,0.0,23.0,0.0
14.0,0.0,37.0,0.0
13.0,1.0,34.0,0.0
18.0,2.0,48.0,0.0
16.0,2.0,44.0,0.0
23.0,4.0,62.0,0.0
19.0,3.0,51.0,0.0
23.0,5.0,61.0,0.0
24.0,7.0,64.0,0.0
28.0,8.0,75.0,0.0
25.0,8.0,66.0,0.0
24.0,8.0,63.0,0.0
25.0,10.0,67.0,0.0
28.0,12.0,75.0,0.0
31.0,14.0,81.0,0.0
27.0,13.0,72.0,0.0
30.0,16.0,79.0,0.0
34.0,19.0,92.0,0.0
33.0,20.0,88.0,0.0
28.0,18.0,76.0,0.0
31.0,20.0,82.0,0.0
33.0,23.0,89.0,0.0
35.0,26.0,94.0,0.0
29.0,23.0,79.0,0.0
32.0,25.0,86.0,0.0
34.0,28.0,92.0,0.0
36.0,32.0,98.0,0.0
33.0,31.0,90.0,0.0
35.0,34.0,95.0,0.0
38.0,38.0,104.0,0.0
36.0,38.0,100.0,0.0
36.0,38.0,98.0,0.0
29.0,31.0,78.0,0.0
29.0,34.0,82.0,0.0
32.0,38.0,88.0,0.0
32.0,38.0,87.0,0.0
32.0,40.0,88.0,0.0
32.0,42.0,89.0,0.0
27.0,36.0,75.0,0.0
26.0,37.0,75.0,0.0
28.0,39.0,76.0,0.0
27.0,40.0,75.0,0.0
30.0,45.0,83.0,0.0
29.0,46.0,82.0,0.0
29.0,46.0,81.0,0.0
27.0,45.0,76.0,0.0
27.0,46.0,75.0,0.0
28.0,48.0,78.0,0.0
26.0,47.0,74.0,0.0
27.0,48.0,75.0,0.0
27.0,52.0,78.0,0.0
29.0,56.0,82.0,0.0
30.0,59.0,84.0,0.0
31.0,62.0,87.0,0.0
32.0,66.0,89.0,0.0
31.0,65.0,87.0,0.0
34.0,73.0,95.0,0.0
34.0,76.0,97.0,0.0
34.0,77.0,95.0,0.0
34.0,80.0,97.0,0.0
34.0,81.0,96.0,0.0
36.0,87.0,102.0,0.0
38.0,94.0,107.0,0.0
37.0,94.0,104.0,0.0
38.0,99.0,107.0,0.0
38.0,102.0,109.0,0.0
39.0,106.0,111.0,0.0
39.0,111.0,113.0,0.0
41.0,114.0,114.0,0.0
39.0,114.0,112.0,0.0
40.0,120.0,114.0,0.0
40.0,121.0,113.0,0.0
41.0,128.0,117.0,0.0
42.0,136.0,122.0,0.0
41.0,134.0,117.0,0.0
60.0,-269.0,71.0,0.0
60.0,-263.0,72.0,0.0
63.0,-271.0,77.0,0.0
62.0,-266.0,79.0,0.0
65.0,-275.0,85.0,0.0
66.0,-273.0,87.0,0.0
65.0,-263.0,88.0,0.0
67.0,-268.0,92.0,0.0
67.0,-262.0,93.0,0.0
70.0,-273.0,100.0,0.0
71.0,-270.0,102.0,0.0
71.0,-268.0,105.0,0.0
73.0,-270.0,109.0,0.0
74.0,-268.0,112.0,0.0
75.0,-271.0,117.0,0.0
76.0,-269.0,119.0,0.0
76.0,-265.0,121.0,0.0
79.0,-268.0,126.0,0.0
80.0,-267.0,129.0,0.0
80.0,-261.0,131.0,0.0
80.0,-258.0,132.0,0.0
81.0,-260.0,138.0,0.0
82.0,-260.0,141.0,0.0
81.0,-252.0,140.0,0.0
85.0,-261.0,148.0,0.0
86.0,-259.0,151.0,0.0
86.0,-253.0,152.0,0.0
80.0,-234.0,144.0,0.0
79.0,-229.0,144.0,0.0
76.0,-213.0,138.0,0.0
73.0,-202.0,133.0,0.0
69.0,-190.0,129.0,0.0
65.0,-174.0,121.0,0.0
60.0,-159.0,113.0,0.0
59.0,-154.0,112.0,0.0
55.0,-143.0,107.0,0.0
52.0,-134.0,103.0,0.0
49.0,-123.0,96.0,0.0
47.0,-116.0,93.0,0.0
45.0,-108.0,89.0,0.0
46.0,-111.0,93.0,0.0
40.0,-94.0,81.0,0.0
44.0,-101.0,90.0,0.0
44.0,-102.0,91.0,0.0
45.0,-101.0,93.0,0.0
9588.0,-20843.0,19556.0,0.0
9573.0,-20467.0,19645.0,0.0
9553.0,-20079.0,19716.0,0.0
9528.0,-19692.0,19781.0,0.0
9522.0,-19343.0,19878.0,0.0
9509.0,-18985.0,19961.0,0.0
9490.0,-18621.0,20032.0,0.0
9478.0,-18271.0,20109.0,0.0
9458.0,-17911.0,20172.0,0.0
9455.0,-17586.0,20269.0,0.0
9433.0,-17228.0,20323.0,0.0
9419.0,-16889.0,20391.0,0.0
9594.0,-16887.0,20871.0,0.0
10512.0,-18157.0,22978.0,0.0
9849.0,-16691.0,21628.0,0.0
9862.0,-16394.0,21756.0,0.0
10150.0,-16545.0,22491.0,0.0
10448.0,-16697.0,23254.0,0.0
10735.0,-16814.0,23995.0,0.0
804.0,-1235.0,1807.0,0.0
12381.0,-18610.0,27907.0,1.0
787.0,-1159.0,1784.0,0.0
12441.0,-17923.0,28270.0,1.0
814.0,-1148.0,1859.0,0.0
820.0,-1131.0,1880.0,0.0
805.0,-1085.0,1852.0,0.0
12262.0,-16155.0,28300.0,1.0
12364.0,-15911.0,28639.0,1.0
789.0,-993.0,1837.0,0.0
797.0,-978.0,1862.0,0.0
822.0,-984.0,1926.0,0.0
812.0,-947.0,1909.0,0.0
800.0,-910.0,1889.0,0.0
790.0,-874.0,1871.0,0.0
801.0,-863.0,1904.0,0.0
12080.0,-12645.0,28769.0,1.0
814.0,-828.0,1947.0,0.0
12000.0,-11850.0,28762.0,1.0
827.0,-792.0,1991.0,0.0
805.0,-746.0,1942.0,0.0
11909.0,-10708.0,28812.0,1.0
799.0,-695.0,1942.0,0.0
812.0,-683.0,1979.0,0.0
12038.0,-9765.0,29387.0,1.0
811.0,-635.0,1989.0,0.0
821.0,-618.0,2018.0,0.0
820.0,-593.0,2021.0,0.0
825.0,-572.0,2039.0,0.0
828.0,-550.0,2051.0,0.0
804.0,-510.0,1996.0,0.0
821.0,-498.0,2046.0,0.0
794.0,-458.0,1984.0,0.0
821.0,-451.0,2057.0,0.0
818.0,-425.0,2053.0,0.0
12592.0,-6167.0,31672.0,1.0
799.0,-369.0,2017.0,0.0
821.0,-355.0,2078.0,0.0
828.0,-333.0,2101.0,0.0
810.0,-302.0,2057.0,0.0
821.0,-282.0,2092.0,0.0
823.0,-258.0,2101.0,0.0
807.0,-229.0,2067.0,0.0
800.0,-204.0,2055.0,0.0
810.0,-182.0,2085.0,0.0
5.0,-1.0,15.0,0.0
815.0,-134.0,2106.0,0.0
11.0,-2.0,32.0,0.0
9.0,-1.0,25.0,0.0
14.0,-1.0,38.0,0.0
8.0,0.0,25.0,0.0
14.0,0.0,40.0,0.0
12.0,0.0,33.0,0.0
19.0,0.0,51.0,0.0
16.0,0.0,43.0,0.0
15.0,0.0,42.0,0.0
14.0,1.0,40.0,0.0
18.0,3.0,49.0,0.0
13.0,2.0,36.0,0.0
21.0,5.0,59.0,0.0
20.0,4.0,53.0,0.0
21.0,6.0,58.0,0.0
20.0,6.0,57.0,0.0
21.0,7.0,60.0,0.0
27.0,10.0,73.0,0.0
24.0,9.0,66.0,0.0
23.0,10.0,64.0,0.0
33.0,15.0,89.0,0.0
34.0,18.0,94.0,0.0
26.0,14.0,72.0,0.0
32.0,19.0,88.0,0.0
32.0,19.0,87.0,0.0
30.0,20.0,84.0,0.0
36.0,25.0,99.0,0.0
33.0,23.0,91.0,0.0
33.0,25.0,92.0,0.0
35.0,27.0,96.0,0.0
35.0,29.0,98.0,0.0
34.0,30.0,95.0,0.0
36.0,33.0,103.0,0.0
35.0,34.0,99.0,0.0
39.0,38.0,111.0,0.0
40.0,40.0,112.0,0.0
33.0,35.0,94.0,0.0
39.0,43.0,111.0,0.0
40.0,44.0,112.0,0.0
33.0,39.0,93.0,0.0
35.0,42.0,99.0,0.0
34.0,42.0,95.0,0.0
31.0,41.0,90.0,0.0
31.0,41.0,88.0,0.0
32.0,44.0,92.0,0.0
28.0,41.0,82.0,0.0
30.0,44.0,88.0,0.0
27.0,41.0,79.0,0.0
27.0,43.0,80.0,0.0
27.0,44.0,80.0,0.0
29.0,47.0,84.0,0.0
26.0,43.0,74.0,0.0
29.0,50.0,82.0,0.0
27.0,48.0,78.0,0.0
30.0,55.0,87.0,0.0
30.0,57.0,89.0,0.0
30.0,58.0,88.0,0.0
29.0,58.0,86.0,0.0
31.0,62.0,88.0,0.0
29.0,62.0,88.0,0.0
32.0,69.0,94.0,0.0
29.0,64.0,86.0,0.0
31.0,69.0,91.0,0.0
33.0,75.0,96.0,0.0
33.0,80.0,99.0,0.0
34.0,83.0,101.0,0.0
35.0,85.0,101.0,0.0
33.0,83.0,98.0,0.0
37.0,94.0,108.0,0.0
35.0,95.0,106.0,0.0
37.0,99.0,109.0,0.0
36.0,99.0,106.0,0.0
37.0,107.0,112.0,0.0
39.0,115.0,117.0,0.0
39.0,115.0,115.0,0.0
38.0,114.0,112.0,0.0
38.0,117.0,112.0,0.0
40.0,125.0,118.0,0.0
40.0,128.0,118.0,0.0
40.0,133.0,119.0,0.0
39.0,131.0,115.0,0.0
55.0,-258.0,68.0,0.0
57.0,-260.0,71.0,0.0
58.0,-264.0,76.0,0.0
58.0,-259.0,77.0,0.0
61.0,-264.0,82.0,0.0
60.0,-260.0,84.0,0.0
62.0,-262.0,88.0,0.0
63.0,-261.0,91.0,0.0
63.0,-258.0,92.0,0.0
64.0,-261.0,97.0,0.0
65.0,-258.0,99.0,0.0
68.0,-263.0,105.0,0.0
71.0,-270.0,110.0,0.0
68.0,-257.0,108.0,0.0
70.0,-260.0,113.0,0.0
70.0,-258.0,116.0,0.0
71.0,-255.0,117.0,0.0
73.0,-258.0,122.0,0.0
74.0,-257.0,125.0,0.0
75.0,-258.0,129.0,0.0
76.0,-257.0,133.0,0.0
75.0,-250.0,132.0,0.0
73.0,-239.0,130.0,0.0
76.0,-244.0,136.0,0.0
80.0,-253.0,144.0,0.0
78.0,-244.0,143.0,0.0
78.0,-238.0,144.0,0.0
72.0,-219.0,136.0,0.0
72.0,-214.0,136.0,0.0
69.0,-204.0,132.0,0.0
67.0,-193.0,128.0,0.0
63.0,-178.0,122.0,0.0
57.0,-159.0,112.0,0.0
55.0,-153.0,109.0,0.0
56.0,-152.0,111.0,0.0
52.0,-139.0,105.0,0.0
49.0,-130.0,100.0,0.0
45.0,-117.0,91.0,0.0
46.0,-117.0,93.0,0.0
42.0,-106.0,87.0,0.0
41.0,-102.0,86.0,0.0
43.0,-106.0,91.0,0.0
38.0,-91.0,80.0,0.0
36.0,-84.0,76.0,0.0
9265.0,-21154.0,19482.0,0.0
31.0,-71.0,66.0,0.0
30.0,-68.0,66.0,0.0
9224.0,-20023.0,19738.0,0.0
9205.0,-19643.0,19808.0,0.0
9185.0,-19264.0,19872.0,0.0
9170.0,-18902.0,19949.0,0.0
9156.0,-18545.0,20023.0,0.0
9150.0,-18209.0,20114.0,0.0
9134.0,-17852.0,20178.0,0.0
9119.0,-17506.0,20248.0,0.0
9095.0,-17143.0,20293.0,0.0
9093.0,-16827.0,20386.0,0.0
9295.0,-16884.0,20939.0,0.0
10152.0,-18095.0,22973.0,0.0
9520.0,-16646.0,21639.0,0.0
9564.0,-16403.0,21837.0,0.0
9833.0,-16537.0,22549.0,0.0
10129.0,-16700.0,23329.0,0.0
763.0,-1233.0,1765.0,0.0
762.0,-1208.0,1773.0,0.0
11999.0,-18605.0,27980.0,1.0
755.0,-1148.0,1771.0,0.0
0.0,0.0,0.0,0.0
775.0,-1127.0,1831.0,0.0
769.0,-1094.0,1822.0,0.0
767.0,-1067.0,1825.0,0.0
767.0,-1041.0,1830.0,0.0
11951.0,-15864.0,28626.0,1.0
11970.0,-15514.0,28774.0,1.0
767.0,-970.0,1850.0,0.0
11891.0,-14671.0,28785.0,1.0
772.0,-929.0,1878.0,0.0
789.0,-925.0,1924.0,0.0
782.0,-893.0,1913.0,0.0
776.0,-861.0,1906.0,0.0
11692.0,-12624.0,28779.0,1.0
791.0,-830.0,1956.0,0.0
11613.0,-11831.0,28767.0,1.0
788.0,-779.0,1960.0,0.0
787.0,-755.0,1965.0,0.0
779.0,-722.0,1949.0,0.0
782.0,-702.0,1963.0,0.0
800.0,-694.0,2015.0,0.0
778.0,-651.0,1965.0,0.0
11789.0,-9513.0,29820.0,1.0
11787.0,-9157.0,29900.0,1.0
793.0,-593.0,2020.0,0.0
11881.0,-8515.0,30309.0,1.0
812.0,-558.0,2081.0,0.0
796.0,-522.0,2044.0,0.0
11901.0,-7456.0,30607.0,1.0
783.0,-467.0,2023.0,0.0
790.0,-449.0,2045.0,0.0
771.0,-414.0,2000.0,0.0
794.0,-403.0,2065.0,0.0
794.0,-378.0,2070.0,0.0
790.0,-353.0,2066.0,0.0
785.0,-327.0,2058.0,0.0
810.0,-312.0,2126.0,0.0
803.0,-286.0,2116.0,0.0
793.0,-258.0,2094.0,0.0
784.0,-230.0,2073.0,0.0
773.0,-204.0,2050.0,0.0
783.0,-183.0,2079.0,0.0
777.0,-158.0,2071.0,0.0
1.0,-1.0,4.0,0.0
7.0,-1.0,19.0,0.0
2.0,0.0,7.0,0.0
7.0,0.0,21.0,0.0
5.0,0.0,16.0,0.0
8.0,0.0,25.0,0.0
5.0,0.0,15.0,0.0
13.0,0.0,37.0,0.0
15.0,0.0,42.0,0.0
9.0,0.0,28.0,0.0
18.0,1.0,51.0,0.0
16.0,2.0,47.0,0.0
22.0,4.0,64.0,0.0
21.0,4.0,59.0,0.0
21.0,5.0,58.0,0.0
19.0,5.0,57.0,0.0
18.0,6.0,53.0,0.0
21.0,7.0,58.0,0.0
25.0,9.0,72.0,0.0
21.0,9.0,59.0,0.0
23.0,10.0,67.0,0.0
21.0,10.0,62.0,0.0
30.0,16.0,86.0,0.0
24.0,14.0,69.0,0.0
32.0,19.0,92.0,0.0
28.0,17.0,80.0,0.0
29.0,20.0,84.0,0.0
28.0,20.0,82.0,0.0
29.0,22.0,86.0,0.0
32.0,25.0,92.0,0.0
32.0,26.0,93.0,0.0
32.0,28.0,94.0,0.0
32.0,29.0,95.0,0.0
34.0,32.0,100.0,0.0
31.0,30.0,89.0,0.0
29.0,30.0,85.0,0.0
30.0,32.0,86.0,0.0
31.0,34.0,91.0,0.0
31.0,36.0,91.0,0.0
30.0,34.0,87.0,0.0
28.0,34.0,83.0,0.0
28.0,35.0,83.0,0.0
27.0,35.0,79.0,0.0
26.0,35.0,77.0,0.0
29.0,40.0,86.0,0.0
26.0,36.0,76.0,0.0
27.0,40.0,81.0,0.0
23.0,36.0,71.0,0.0
26.0,40.0,76.0,0.0
25.0,40.0,75.0,0.0
25.0,42.0,76.0,0.0
22.0,36.0,65.0,0.0
27.0,48.0,82.0,0.0
26.0,47.0,80.0,0.0
25.0,46.0,75.0,0.0
25.0,46.0,75.0,0.0
25.0,50.0,78.0,0.0
25.0,49.0,76.0,0.0
28.0,57.0,84.0,0.0
27.0,56.0,81.0,0.0
28.0,60.0,86.0,0.0
27.0,61.0,84.0,0.0
28.0,63.0,85.0,0.0
29.0,67.0,88.0,0.0
27.0,67.0,85.0,0.0
31.0,76.0,96.0,0.0
29.0,73.0,90.0,0.0
30.0,77.0,93.0,0.0
32.0,85.0,100.0,0.0
32.0,89.0,101.0,0.0
34.0,92.0,104.0,0.0
36.0,100.0,110.0,0.0
34.0,96.0,104.0,0.0
34.0,100.0,106.0,0.0
36.0,108.0,111.0,0.0
35.0,108.0,109.0,0.0
35.0,111.0,109.0,0.0
35.0,114.0,110.0,0.0
37.0,122.0,115.0,0.0
37.0,125.0,116.0,0.0
37.0,128.0,116.0,0.0
37.0,132.0,117.0,0.0
56.0,-274.0,74.0,0.0
55.0,-263.0,73.0,0.0
57.0,-271.0,79.0,0.0
55.0,-256.0,78.0,0.0
60.0,-275.0,86.0,0.0
59.0,-267.0,87.0,0.0
61.0,-269.0,90.0,0.0
63.0,-273.0,96.0,0.0
62.0,-265.0,96.0,0.0
64.0,-266.0,100.0,0.0
66.0,-273.0,105.0,0.0
67.0,-270.0,108.0,0.0
67.0,-267.0,110.0,0.0
69.0,-271.0,115.0,0.0
69.0,-269.0,118.0,0.0
72.0,-273.0,123.0,0.0
72.0,-269.0,125.0,0.0
71.0,-264.0,126.0,0.0
74.0,-268.0,132.0,0.0
74.0,-263.0,133.0,0.0
75.0,-262.0,136.0,0.0
75.0,-260.0,138.0,0.0
78.0,-264.0,145.0,0.0
79.0,-265.0,148.0,0.0
81.0,-266.0,154.0,0.0
77.0,-251.0,148.0,0.0
73.0,-232.0,141.0,0.0
74.0,-231.0,144.0,0.0
68.0,-211.0,134.0,0.0
65.0,-197.0,129.0,0.0
65.0,-193.0,129.0,0.0
62.0,-183.0,125.0,0.0
56.0,-163.0,115.0,0.0
56.0,-160.0,115.0,0.0
56.0,-158.0,116.0,0.0
57.0,-158.0,118.0,0.0
47.0,-128.0,99.0,0.0
47.0,-128.0,101.0,0.0
47.0,-125.0,101.0,0.0
37.0,-96.0,79.0,0.0
37.0,-96.0,81.0,0.0
36.0,-90.0,78.0,0.0
36.0,-89.0,78.0,0.0
8954.0,-21495.0,19429.0,0.0
8933.0,-21089.0,19498.0,0.0
8919.0,-20705.0,19582.0,0.0
8901.0,-20316.0,19653.0,0.0
8885.0,-19937.0,19728.0,0.0
8872.0,-19568.0,19807.0,0.0
8860.0,-19207.0,19887.0,0.0
8857.0,-18866.0,19983.0,0.0
8851.0,-18523.0,20071.0,0.0
8823.0,-18141.0,20110.0,0.0
8813.0,-17798.0,20188.0,0.0
8802.0,-17456.0,20259.0,0.0
8789.0,-17115.0,20327.0,0.0
8796.0,-16815.0,20439.0,0.0
8980.0,-16848.0,20962.0,0.0
9220.0,-16972.0,21618.0,0.0
9236.0,-16679.0,21752.0,0.0
9270.0,-16420.0,21927.0,0.0
9534.0,-16558.0,22647.0,0.0
9822.0,-16723.0,23431.0,0.0
11368.0,-18968.0,27231.0,1.0
11478.0,-18763.0,27605.0,1.0
732.0,-1172.0,1769.0,0.0
11679.0,-18309.0,28313.0,1.0
743.0,-1140.0,1809.0,0.0
11560.0,-17355.0,28240.0,1.0
11486.0,-16865.0,28163.0,1.0
0.0,0.0,0.0,0.0
730.0,-1026.0,1807.0,0.0
755.0,-1036.0,1876.0,0.0
736.0,-986.0,1834.0,0.0
785.0,-1026.0,1962.0,0.0
11623.0,-14804.0,29113.0,1.0
0.0,0.0,0.0,0.0
11519.0,-13937.0,29048.0,1.0
767.0,-904.0,1942.0,0.0
737.0,-844.0,1871.0,0.0
11349.0,-12652.0,28897.0,1.0
11292.0,-12232.0,28843.0,1.0
763.0,-803.0,1956.0,0.0
749.0,-765.0,1928.0,0.0
11314.0,-11193.0,29168.0,1.0
11348.0,-10871.0,29342.0,1.0
784.0,-727.0,2035.0,0.0
785.0,-702.0,2042.0,0.0
765.0,-661.0,1997.0,0.0
763.0,-636.0,1996.0,0.0
11534.0,-9256.0,30257.0,1.0
764.0,-589.0,2012.0,0.0
772.0,-571.0,2040.0,0.0
11545.0,-8192.0,30537.0,1.0
11548.0,-7837.0,30626.0,1.0
11595.0,-7509.0,30831.0,1.0
791.0,-487.0,2109.0,0.0
780.0,-458.0,2085.0,0.0
767.0,-425.0,2056.0,0.0
769.0,-403.0,2067.0,0.0
756.0,-373.0,2038.0,0.0
768.0,-355.0,2076.0,0.0
766.0,-330.0,2076.0,0.0
761.0,-304.0,2067.0,0.0
781.0,-287.0,2127.0,0.0
764.0,-258.0,2086.0,0.0
773.0,-237.0,2116.0,0.0
764.0,-209.0,2093.0,0.0
759.0,-184.0,2087.0,0.0
768.0,-162.0,2116.0,0.0
756.0,-136.0,2087.0,0.0
758.0,-112.0,2097.0,0.0
6.0,-1.0,20.0,0.0
10.0,-1.0,30.0,0.0
6.0,-1.0,19.0,0.0
9.0,0.0,29.0,0.0
10.0,0.0,30.0,0.0
9.0,0.0,28.0,0.0
13.0,0.0,39.0,0.0
9.0,0.0,28.0,0.0
12.0,1.0,37.0,0.0
13.0,2.0,41.0,0.0
20.0,4.0,58.0,0.0
16.0,3.0,49.0,0.0
24.0,6.0,68.0,0.0
20.0,6.0,60.0,0.0
20.0,6.0,59.0,0.0
21.0,8.0,64.0,0.0
23.0,9.0,68.0,0.0
25.0,11.0,76.0,0.0
24.0,11.0,71.0,0.0
28.0,14.0,82.0,0.0
27.0,14.0,80.0,0.0
28.0,16.0,85.0,0.0
25.0,15.0,74.0,0.0
24.0,15.0,72.0,0.0
27.0,18.0,81.0,0.0
30.0,22.0,89.0,0.0
28.0,21.0,83.0,0.0
31.0,25.0,95.0,0.0
31.0,26.0,93.0,0.0
31.0,27.0,92.0,0.0
34.0,31.0,102.0,0.0
37.0,35.0,109.0,0.0
34.0,34.0,102.0,0.0
33.0,34.0,99.0,0.0
36.0,39.0,108.0,0.0
31.0,36.0,95.0,0.0
31.0,36.0,97.0,0.0
30.0,36.0,93.0,0.0
30.0,38.0,94.0,0.0
30.0,39.0,92.0,0.0
29.0,38.0,88.0,0.0
29.0,40.0,89.0,0.0
25.0,36.0,77.0,0.0
30.0,45.0,94.0,0.0
28.0,42.0,86.0,0.0
26.0,40.0,80.0,0.0
29.0,46.0,89.0,0.0
28.0,46.0,86.0,0.0
26.0,45.0,83.0,0.0
24.0,42.0,73.0,0.0
25.0,46.0,80.0,0.0
27.0,50.0,85.0,0.0
27.0,51.0,84.0,0.0
26.0,52.0,82.0,0.0
25.0,51.0,79.0,0.0
27.0,56.0,85.0,0.0
26.0,56.0,83.0,0.0
26.0,58.0,83.0,0.0
27.0,60.0,85.0,0.0
27.0,63.0,88.0,0.0
29.0,67.0,90.0,0.0
28.0,68.0,90.0,0.0
30.0,74.0,95.0,0.0
28.0,71.0,89.0,0.0
30.0,78.0,95.0,0.0
31.0,81.0,98.0,0.0
32.0,86.0,101.0,0.0
32.0,89.0,103.0,0.0
31.0,90.0,101.0,0.0
33.0,97.0,106.0,0.0
33.0,98.0,105.0,0.0
34.0,105.0,111.0,0.0
34.0,109.0,113.0,0.0
35.0,113.0,113.0,0.0
35.0,113.0,111.0,0.0
35.0,118.0,115.0,0.0
35.0,119.0,113.0,0.0
37.0,130.0,120.0,0.0
35.0,126.0,114.0,0.0
36.0,133.0,119.0,0.0
52.0,-262.0,71.0,0.0
50.0,-256.0,72.0,0.0
51.0,-254.0,74.0,0.0
53.0,-259.0,79.0,0.0
56.0,-267.0,85.0,0.0
55.0,-259.0,86.0,0.0
57.0,-263.0,90.0,0.0
58.0,-259.0,91.0,0.0
59.0,-259.0,94.0,0.0
59.0,-258.0,97.0,0.0
61.0,-262.0,102.0,0.0
61.0,-258.0,104.0,0.0
61.0,-253.0,106.0,0.0
64.0,-260.0,111.0,0.0
63.0,-256.0,113.0,0.0
66.0,-259.0,118.0,0.0
64.0,-250.0,116.0,0.0
68.0,-261.0,125.0,0.0
68.0,-258.0,127.0,0.0
68.0,-253.0,129.0,0.0
