//X,Y,Z,Classification
-9030,-7043,19198,0.0
-9036,-7283,19149,0.0
-9038,-7523,19093,0.0
-9042,-7762,19038,0.0
-9049,-8006,18990,0.0
-9040,-8236,18906,0.0
-9041,-8475,18844,0.0
-9064,-8735,18825,0.0
-9050,-8961,18729,0.0
-9047,-9199,18657,0.0
-9055,-9446,18603,0.0
-9046,-9679,18515,0.0
-9053,-9928,18459,0.0
-9063,-10182,18408,0.0
-9062,-10424,18333,0.0
-9061,-10667,18258,0.0
-9068,-10921,18196,0.0
-9057,-11153,18099,0.0
-9061,-11405,18029,0.0
-9061,-11652,17951,0.0
-9072,-11915,17894,0.0
-9076,-12169,17819,0.0
-9079,-12426,17744,0.0
-9064,-12656,17632,0.0
-9075,-12925,17568,0.0
-9079,-13185,17490,0.0
-9096,-13465,17435,0.0
-9029,-13623,17222,0.0
-8992,-13820,17059,0.0
-8924,-13973,16844,0.0
-8771,-13984,16463,0.0
-8563,-13900,15984,0.0
-8452,-13966,15690,0.0
-8236,-13850,15201,0.0
-8104,-13866,14869,0.0
-8007,-13939,14604,0.0
-8014,-14188,14526,0.0
-8037,-14470,14478,0.0
-8052,-14743,14413,0.0
-8069,-15017,14348,0.0
-8100,-15323,14307,0.0
-8115,-15604,14237,0.0
-8136,-15897,14174,0.0
-8146,-16173,14091,0.0
-8185,-16506,14052,0.0
-8199,-16796,13971,0.0
-8226,-17116,13910,0.0
-8252,-17437,13843,0.0
-8272,-17750,13764,0.0
-8301,-18086,13700,0.0
-8328,-18421,13626,0.0
-8356,-18764,13554,0.0
-8376,-19093,13466,0.0
-8408,-19454,13393,0.0
-8449,-19841,13332,0.0
-8465,-20174,13227,0.0
-8504,-20568,13158,0.0
-8526,-20926,13057,0.0
-8548,-21289,12954,0.0
0,0,0,0.0
0,0,0,0.0
-758,-1973,1112,0.0
-775,-2046,1123,0.0
-777,-2081,1112,0.0
-775,-2106,1096,0.0
-743,-2048,1036,0.0
-741,-2072,1020,0.0
-755,-2143,1025,0.0
-60,-172,80,0.0
-66,-193,88,0.0
-69,-208,91,0.0
-72,-220,93,0.0
-74,-227,93,0.0
-86,-267,106,0.0
-90,-284,110,0.0
-102,-325,122,0.0
-102,-329,119,0.0
-99,-328,114,0.0
-99,-333,112,0.0
-98,-335,108,0.0
-97,-333,104,0.0
-93,-326,98,0.0
-94,-332,95,0.0
-92,-334,92,0.0
-93,-338,90,0.0
-89,-332,85,0.0
-92,-344,83,0.0
-6129,17400,15133,0.0
-6099,16956,15070,0.0
-6087,16574,15052,0.0
-6082,16218,15051,0.0
-6118,15979,15153,0.0
-13304,34019,32970,0.0
-13251,33177,32860,0.0
-13343,32707,33107,0.0
-13339,32007,33113,0.0
0,0,0,0.0
0,0,0,0.0
-12737,28652,31656,0.0
0,0,0,0.0
-12881,27737,32031,0.0
-12626,26594,31403,0.0
-7410,15266,18435,0.0
-12545,25269,31209,0.0
-12742,25091,31701,0.0
-12657,24364,31492,0.0
-12642,23779,31452,0.0
-12326,22654,30666,0.0
-12268,22025,30518,0.0
-12234,21447,30429,0.0
-12199,20880,30337,0.0
-12368,20662,30752,0.0
-12318,20079,30620,0.0
-12470,19828,30986,0.0
-12541,19445,31153,0.0
-13676,20670,33961,0.0
-13643,20091,33864,0.0
-13607,19519,33761,0.0
-13546,18920,33595,0.0
-13515,18371,33503,0.0
-13480,17825,33397,0.0
-13417,17250,33223,0.0
-13411,16756,33188,0.0
-13335,16182,32980,0.0
-13310,15678,32895,0.0
-13322,15225,32903,0.0
-7979,8840,19692,0.0
-7961,8545,19634,0.0
-7937,8249,19561,0.0
-7919,7960,19498,0.0
-7904,7680,19446,0.0
-7878,7391,19364,0.0
-7854,7110,19288,0.0
-7843,6841,19244,0.0
-7831,6576,19196,0.0
-7808,6304,19118,0.0
-7786,6038,19047,0.0
-7771,5779,18989,0.0
-7752,5520,18924,0.0
-7747,5273,18887,0.0
-7735,5024,18839,0.0
-7723,4778,18786,0.0
-7693,4524,18691,0.0
-7652,4266,18569,0.0
-7650,4032,18539,0.0
-7636,3795,18483,0.0
-7645,3570,18478,0.0
-7641,3342,18445,0.0
-7633,3112,18400,0.0
-7616,2880,18332,0.0
-7606,2654,18284,0.0
-7589,2428,18214,0.0
-7481,2175,17926,0.0
-7570,1983,18113,0.0
-7562,1764,18064,0.0
-7551,1546,18008,0.0
-7705,1358,18345,0.0
-7998,1183,19013,0.0
-8054,964,19111,0.0
-8414,770,19933,0.0
-8604,547,20347,0.0
-8952,319,21132,0.0
-8966,71,21124,0.0
-8968,-177,21088,0.0
-8960,-425,21033,0.0
-8958,-671,20986,0.0
-8965,-918,20959,0.0
-8958,-1163,20900,0.0
-8958,-1407,20860,0.0
-8952,-1651,20803,0.0
-8967,-1897,20792,0.0
-8961,-2139,20732,0.0
-8956,-2381,20676,0.0
-8936,-2616,20584,0.0
-8948,-2862,20563,0.0
-8940,-3101,20501,0.0
-12191,-4555,27887,1.0
-12230,-4899,27913,1.0
-12193,-5212,27759,1.0
-12202,-5542,27710,1.0
-12673,-6096,28709,1.0
-8966,-4553,20260,0.0
-13002,-6950,29301,1.0
-13047,-7323,29324,1.0
-12957,-7618,29046,1.0
-12531,-7703,28015,1.0
-12204,-7828,27208,1.0
-12215,-8162,27155,1.0
-12188,-8470,27017,1.0
-12219,-8819,27008,1.0
-12198,-9130,26881,1.0
-12203,-9462,26813,1.0
-12229,-9810,26788,1.0
-13032,-10805,28458,1.0
-13033,-11156,28370,1.0
-12845,-11342,27871,1.0
-12568,-11435,27182,1.0
-12262,-11489,26430,1.0
-12258,-11817,26333,1.0
-12270,-12160,26267,1.0
-9007,-9172,19216,0.0
-8999,-9408,19127,0.0
-11362,-12190,24064,0.0
-9011,-9915,19016,0.0
-10940,-12337,22999,0.0
-10721,-12384,22452,0.0
-8989,-10630,18749,0.0
-10733,-12993,22301,0.0
-9006,-11152,18635,0.0
-9055,-11465,18660,0.0
-8991,-11635,18450,0.0
-9017,-11923,18425,0.0
-9041,-12210,18395,0.0
-9032,-12452,18293,0.0
-9054,-12742,18257,0.0
-9056,-13003,18176,0.0
-9054,-13260,18086,0.0
-9048,-13513,17990,0.0
-9047,-13773,17898,0.0
-9065,-14064,17844,0.0
-8861,-14007,17354,0.0
-8732,-14061,17013,0.0
-8543,-14009,16556,0.0
-8326,-13903,16050,0.0
-8189,-13919,15699,0.0
-8037,-13903,15320,0.0
-7892,-13891,14957,0.0
-7752,-13883,14607,0.0
-7763,-14140,14539,0.0
-7783,-14417,14486,0.0
-7755,-14608,14345,0.0
-7809,-14956,14352,0.0
-7833,-15251,14302,0.0
-7850,-15531,14235,0.0
-7870,-15824,14175,0.0
-7891,-16121,14113,0.0
-7926,-16454,14075,0.0
-7941,-16745,13995,0.0
-7956,-17042,13917,0.0
-7974,-17348,13842,0.0
-8001,-17679,13780,0.0
-8027,-18009,13713,0.0
-8037,-18309,13615,0.0
-8074,-18674,13561,0.0
-8102,-19022,13489,0.0
-8129,-19374,13413,0.0
-8164,-19752,13348,0.0
-8188,-20106,13259,0.0
-8209,-20458,13164,0.0
-8234,-20827,13073,0.0
-8271,-21230,12997,0.0
-8226,-21426,12790,0.0
-750,-1986,1155,0.0
-756,-2030,1151,0.0
-755,-2057,1137,0.0
-737,-2035,1095,0.0
-740,-2075,1087,0.0
-718,-2043,1041,0.0
-735,-2119,1051,0.0
-727,-2130,1027,0.0
-54,-160,75,0.0
-59,-181,82,0.0
-69,-212,94,0.0
-68,-213,91,0.0
-72,-227,95,0.0
-76,-242,97,0.0
-82,-269,105,0.0
-94,-312,117,0.0
-99,-332,122,0.0
-97,-333,118,0.0
-95,-330,112,0.0
-95,-334,109,0.0
-93,-330,105,0.0
-93,-335,102,0.0
-90,-330,97,0.0
-90,-334,94,0.0
-89,-338,91,0.0
-86,-331,85,0.0
-86,-334,82,0.0
-6018,17646,15439,0.0
-6105,17529,15670,0.0
0,0,0,0.0
-5847,16097,15026,0.0
-6056,16324,15572,0.0
-6115,16135,15728,0.0
-12627,32614,32490,0.0
-6949,17569,17887,0.0
-6941,17176,17871,0.0
-6936,16797,17863,0.0
-12472,29553,32125,0.0
-6808,15783,17537,0.0
-6857,15551,17666,0.0
-6946,15411,17899,0.0
-12222,26517,31490,0.0
-7258,15399,18700,0.0
-11985,24858,30877,0.0
-12109,24552,31195,0.0
-12084,23944,31126,0.0
-11909,23058,30671,0.0
-11891,22491,30618,0.0
-11815,21824,30413,0.0
0,0,0,0.0
0,0,0,0.0
-11976,20577,30797,0.0
-11993,20104,30830,0.0
-12116,19809,31134,0.0
-12107,19298,31095,0.0
-13213,20528,33920,0.0
0,0,0,0.0
-13149,19383,33720,0.0
-13048,18725,33443,0.0
-13055,18231,33440,0.0
-13032,17702,33362,0.0
-13008,17176,33277,0.0
-12988,16666,33205,0.0
-12994,16191,33192,0.0
-12906,15609,32945,0.0
-7724,9062,19703,0.0
-7714,8773,19662,0.0
-7694,8476,19594,0.0
-7687,8197,19559,0.0
-7656,7895,19460,0.0
-7645,7620,19416,0.0
-7622,7335,19340,0.0
-7607,7061,19282,0.0
-7587,6788,19215,0.0
-7569,6517,19148,0.0
-7556,6255,19095,0.0
-7534,5987,19015,0.0
-7529,5737,18982,0.0
-7514,5483,18924,0.0
-7498,5229,18861,0.0
-7478,4975,18787,0.0
-7477,4736,18761,0.0
-7450,4485,18672,0.0
-7431,4240,18599,0.0
-7404,3993,18505,0.0
-7380,3753,18423,0.0
-7417,3543,18490,0.0
-7402,3309,18425,0.0
-7386,3077,18358,0.0
-7376,2850,18308,0.0
-7365,2624,18253,0.0
-7362,2403,18219,0.0
-7243,2148,17895,0.0
-7267,1939,17925,0.0
-7215,1713,17770,0.0
-7324,1524,18008,0.0
-7522,1346,18464,0.0
-7758,1162,19011,0.0
-7832,946,19160,0.0
-8185,752,19987,0.0
-8461,534,20624,0.0
-8914,308,21690,0.0
-8923,53,21670,0.0
-8933,-200,21653,0.0
-12926,-656,31270,1.0
-12939,-1022,31242,1.0
-12102,-1298,29163,1.0
-12119,-1640,29145,1.0
-12126,-1981,29103,1.0
-12135,-2323,29062,1.0
-12402,-2719,29639,1.0
-12774,-3156,30462,1.0
-12938,-3557,30785,1.0
-12963,-3923,30774,1.0
-12948,-4277,30671,1.0
-12600,-4511,29778,1.0
-12141,-4682,28626,1.0
-12149,-5021,28577,1.0
-12158,-5360,28531,1.0
-12147,-5689,28433,1.0
-12600,-6248,29422,1.0
-12969,-6788,30207,1.0
-12960,-7139,30107,1.0
-12973,-7502,30059,1.0
-12878,-7799,29757,1.0
-12420,-7864,28623,1.0
-12157,-8031,27940,1.0
-12150,-8360,27845,1.0
-12133,-8682,27729,1.0
-12184,-9053,27764,1.0
-12163,-9373,27635,1.0
-12166,-9710,27559,1.0
-12208,-10081,27571,1.0
-13001,-11095,29274,1.0
-12984,-11438,29143,1.0
-12697,-11537,28410,1.0
-12400,-11610,27653,1.0
-12181,-11744,27077,1.0
-12170,-12072,26962,1.0
-12186,-12427,26904,1.0
-12132,-12712,26693,1.0
-11479,-12348,25167,0.0
-11214,-12378,24498,0.0
-11046,-12504,24043,0.0
-10769,-12495,23355,0.0
-10658,-12667,23025,0.0
-10643,-12953,22906,0.0
-10662,-13280,22857,0.0
-10643,-13560,22725,0.0
-12204,-15899,25953,1.0
-13007,-17319,27546,1.0
-12926,-17584,27259,1.0
-12981,-18036,27257,1.0
-12772,-18121,26704,1.0
-12561,-18189,26145,1.0
-12325,-18210,25538,1.0
-12310,-18552,25390,1.0
-9010,-13846,18495,0.0
-9041,-14163,18469,0.0
-9027,-14414,18352,0.0
-8756,-14245,17712,0.0
-8510,-14103,17125,0.0
-8323,-14048,16664,0.0
-8100,-13920,16131,0.0
-7933,-13879,15713,0.0
-7816,-13918,15397,0.0
-7677,-13911,15038,0.0
-7512,-13849,14630,0.0
-7498,-14062,14516,0.0
-7424,-14159,14287,0.0
-7502,-14551,14348,0.0
-7563,-14914,14375,0.0
-7572,-15180,14299,0.0
-7591,-15469,14241,0.0
-7615,-15771,14190,0.0
-7630,-16060,14122,0.0
-7653,-16365,14064,0.0
-7672,-16669,13998,0.0
-7693,-16980,13933,0.0
-7703,-17269,13847,0.0
-7735,-17610,13795,0.0
-7758,-17938,13728,0.0
-7780,-18267,13654,0.0
-7797,-18590,13571,0.0
-7822,-18932,13497,0.0
-7839,-19264,13410,0.0
-7876,-19649,13351,0.0
-7892,-19985,13253,0.0
-7924,-20368,13181,0.0
-7952,-20744,13097,0.0
-7978,-21123,13010,0.0
-7960,-21388,12845,0.0
0,0,0,0.0
0,0,0,0.0
-707,-1989,1105,0.0
0,0,0,0.0
-700,-2025,1068,0.0
-722,-2119,1087,0.0
-717,-2135,1066,0.0
-56,-173,84,0.0
-52,-165,77,0.0
-62,-194,89,0.0
-60,-192,85,0.0
-66,-214,92,0.0
-71,-233,98,0.0
-72,-239,97,0.0
-81,-274,107,0.0
-88,-301,115,0.0
-94,-327,120,0.0
-94,-330,117,0.0
-92,-327,112,0.0
-91,-331,110,0.0
-89,-329,105,0.0
-89,-333,103,0.0
-89,-336,99,0.0
-85,-331,94,0.0
-86,-335,91,0.0
-85,-337,88,0.0
-83,-333,83,0.0
-6084,18451,16235,0.0
-6095,18097,16271,0.0
-6107,17753,16310,0.0
-6085,17314,16255,0.0
-6099,16985,16294,0.0
-6078,16566,16240,0.0
-6012,16040,16068,0.0
-6065,15834,16210,0.0
-6929,17703,18523,0.0
-6907,17267,18466,0.0
-6937,16964,18542,0.0
-11957,28602,31959,0.0
-6651,15563,17777,0.0
-6773,15499,18100,0.0
-6887,15410,18403,0.0
-7009,15330,18721,0.0
-11989,25636,32019,0.0
-11682,24412,31190,0.0
-11621,23731,31018,0.0
-11459,22859,30573,0.0
-11446,22301,30528,0.0
-11410,21708,30419,0.0
-11295,20982,30102,0.0
-11409,20686,30393,0.0
-11625,20562,30948,0.0
-11659,20117,31023,0.0
-11714,19711,31154,0.0
-11756,19286,31250,0.0
-12753,20386,33875,0.0
-12751,19856,33849,0.0
-12673,19216,33619,0.0
-12642,18659,33513,0.0
-12606,18104,33395,0.0
-12583,17572,33307,0.0
-12551,17038,33198,0.0
-12513,16505,33073,0.0
-12498,16006,33004,0.0
-12459,15484,32873,0.0
-7463,8997,19677,0.0
-7456,8710,19636,0.0
-7447,8426,19595,0.0
-7426,8133,19524,0.0
-7415,7852,19473,0.0
-7371,7544,19341,0.0
-7376,7287,19332,0.0
-7345,6998,19230,0.0
-7331,6730,19172,0.0
-7327,6473,19140,0.0
-7306,6205,19066,0.0
-7296,5948,19014,0.0
-7273,5684,18933,0.0
-7266,5436,18892,0.0
-7255,5187,18839,0.0
-7238,4937,18774,0.0
-7230,4694,18726,0.0
-7216,4451,18667,0.0
-7197,4207,18593,0.0
-7156,3954,18462,0.0
-7187,3741,18515,0.0
-7178,3509,18463,0.0
-7167,3279,18412,0.0
-7152,3047,18344,0.0
-7143,2822,18293,0.0
-7131,2596,18236,0.0
-7123,2374,18188,0.0
-6834,2068,17419,0.0
-7113,1936,18101,0.0
-7102,1717,18045,0.0
-7085,1500,17971,0.0
-7298,1326,18482,0.0
-7511,1140,18986,0.0
-7625,930,19241,0.0
-7974,736,20088,0.0
-8364,526,21029,0.0
-12407,414,31135,1.0
-12711,51,31839,1.0
-12853,-323,32135,1.0
-12911,-700,32216,1.0
-12882,-1073,32081,1.0
-12099,-1358,30073,1.0
-12091,-1707,29990,1.0
-12094,-2055,29936,1.0
-12100,-2404,29888,1.0
-12297,-2796,30310,1.0
-12655,-3239,31123,1.0
-12923,-3677,31713,1.0
-12876,-4031,31529,1.0
-12910,-4408,31538,1.0
-12614,-4666,30748,1.0
-12108,-4823,29445,1.0
-12101,-5163,29357,1.0
-12122,-5515,29338,1.0
-12115,-5854,29247,1.0
-12561,-6424,30250,1.0
-12927,-6978,31054,1.0
-12928,-7343,30976,1.0
-12952,-7722,30953,1.0
-12785,-7983,30474,1.0
-12344,-8056,29345,1.0
-12144,-8268,28791,1.0
-12147,-8613,28719,1.0
-12120,-8935,28573,1.0
-12152,-9303,28565,1.0
-12157,-9650,28495,1.0
-12140,-9981,28373,1.0
-12982,-11041,30248,1.0
-12983,-11411,30159,1.0
-12886,-11691,29842,1.0
-12578,-11770,29038,1.0
-12237,-11801,28162,1.0
-12152,-12066,27876,1.0
-12180,-12441,27846,1.0
-12165,-12774,27718,1.0
-11803,-12734,26803,1.0
-11319,-12539,25615,0.0
-11082,-12597,24990,0.0
-10864,-12663,24409,0.0
-10642,-12714,23825,0.0
-10637,-13017,23723,0.0
-10632,-13322,23623,0.0
-10635,-13639,23540,0.0
-12155,-15946,26799,1.0
-12113,-16248,26600,1.0
-12820,-17578,28038,1.0
-12693,-17782,27646,1.0
-12659,-18112,27455,1.0
-12554,-18341,27112,1.0
-12326,-18380,26505,1.0
-12211,-18580,26140,1.0
-12222,-18968,26043,1.0
-12202,-19311,25881,1.0
-12284,-19820,25933,1.0
-12517,-20583,26298,1.0
-8519,-14275,17811,0.0
-8291,-14155,17250,0.0
-8089,-14064,16743,0.0
-7880,-13952,16228,0.0
-7681,-13845,15734,0.0
-7605,-13951,15491,0.0
-7463,-13933,15119,0.0
-7286,-13841,14678,0.0
-7265,-14039,14552,0.0
-7283,-14317,14503,0.0
-7294,-14580,14437,0.0
-7307,-14852,14374,0.0
-7331,-15149,14331,0.0
-7345,-15431,14267,0.0
-7366,-15726,14213,0.0
-7387,-16028,14157,0.0
-7402,-16321,14089,0.0
-7414,-16608,14012,0.0
-7429,-16908,13939,0.0
-7445,-17213,13868,0.0
-7467,-17537,13805,0.0
-7493,-17870,13742,0.0
-7517,-18208,13678,0.0
-7533,-18528,13595,0.0
-7557,-18874,13524,0.0
-7572,-19202,13436,0.0
-7595,-19555,13359,0.0
-7618,-19913,13279,0.0
-7643,-20282,13198,0.0
-7672,-20665,13122,0.0
-7703,-21061,13046,0.0
-7670,-21286,12859,0.0
0,0,0,0.0
-716,-2048,1176,0.0
0,0,0,0.0
-698,-2056,1120,0.0
0,0,0,0.0
-700,-2125,1097,0.0
-687,-2117,1065,0.0
-54,-170,83,0.0
-54,-176,83,0.0
-62,-203,94,0.0
-59,-195,87,0.0
-66,-223,97,0.0
-74,-255,107,0.0
-76,-262,107,0.0
-78,-274,109,0.0
-85,-303,117,0.0
-93,-335,125,0.0
-92,-338,121,0.0
-92,-341,118,0.0
-93,-348,116,0.0
-90,-344,111,0.0
-88,-340,106,0.0
-87,-342,102,0.0
-86,-345,98,0.0
-86,-348,97,0.0
-83,-346,91,0.0
-83,-348,88,0.0
-5994,18826,16658,0.0
-5966,18341,16584,0.0
-5940,17872,16511,0.0
-5904,17385,16411,0.0
-5875,16928,16330,0.0
-5846,16483,16247,0.0
-5792,15979,16095,0.0
-5837,15756,16220,0.0
-6888,18190,19136,0.0
-6879,17768,19106,0.0
-6861,17337,19054,0.0
-6830,16878,18961,0.0
-6797,16427,18866,0.0
-6552,15483,18179,0.0
-6725,15534,18651,0.0
-6760,15266,18743,0.0
-11317,24974,31360,0.0
-11342,24457,31415,0.0
-11353,23917,31430,0.0
-11117,22876,30761,0.0
-11034,22172,30514,0.0
0,0,0,0.0
0,0,0,0.0
-11027,20607,30441,0.0
-10996,20047,30335,0.0
-11200,19915,30877,0.0
-11303,19596,31139,0.0
-12349,20866,33996,0.0
-12290,20235,33809,0.0
-12256,19655,33690,0.0
-12265,19149,33686,0.0
-12189,18521,33450,0.0
-12191,18022,33430,0.0
-12162,17482,33321,0.0
-10982,15342,30061,0.0
-10953,14864,29954,0.0
-10927,14396,29855,0.0
-10917,13957,29800,0.0
-7218,8947,19682,0.0
-7187,8635,19580,0.0
-7192,8368,19572,0.0
-7173,8076,19500,0.0
-7149,7783,19414,0.0
-7138,7508,19362,0.0
-7132,7239,19323,0.0
-7114,6964,19253,0.0
-7094,6690,19177,0.0
-7085,6429,19130,0.0
-7063,6160,19049,0.0
-7062,5911,19019,0.0
-7041,5649,18939,0.0
-7036,5402,18902,0.0
-7018,5149,18829,0.0
-6997,4896,18749,0.0
-6983,4650,18685,0.0
-6986,4418,18666,0.0
-6970,4177,18597,0.0
-6964,3943,18557,0.0
-6947,3706,18485,0.0
-6948,3480,18458,0.0
-6917,3240,18350,0.0
-6919,3018,18326,0.0
-6910,2793,18275,0.0
-6902,2570,18226,0.0
-6899,2351,18188,0.0
-6620,2047,17424,0.0
-6892,1915,18110,0.0
-6876,1696,18037,0.0
-6866,1480,17978,0.0
-7101,1312,18564,0.0
-7290,1122,19024,0.0
-7423,915,19336,0.0
-7738,719,20121,0.0
-8057,503,20913,0.0
-12211,394,31633,1.0
-12548,26,32444,1.0
-12842,-358,33139,1.0
-12802,-741,32971,1.0
-12830,-1126,32977,1.0
0,0,0,0.0
-12044,-1773,30834,1.0
-12078,-2136,30855,1.0
-12059,-2489,30743,1.0
-12159,-2868,30930,1.0
-12522,-3322,31788,1.0
-12853,-3787,32555,1.0
-12841,-4160,32452,1.0
-12890,-4553,32502,1.0
-12703,-4858,31958,1.0
-12082,-4973,30324,1.0
-12112,-5338,30329,1.0
-12073,-5672,30157,1.0
-12111,-6043,30178,1.0
-12505,-6602,31082,1.0
-12896,-7184,31978,1.0
-12858,-7535,31800,1.0
-12859,-7909,31719,1.0
-12710,-8186,31271,1.0
-12291,-8273,30160,1.0
-12099,-8495,29609,1.0
-12072,-8826,29462,1.0
-12112,-9208,29477,1.0
-12110,-9558,29388,1.0
-12124,-9923,29340,1.0
-12102,-10257,29200,1.0
-12943,-11347,31137,1.0
-12916,-11700,30978,1.0
-12757,-11930,30505,1.0
-12408,-11968,29580,1.0
-12134,-12059,28833,1.0
-12127,-12408,28724,1.0
-12120,-12759,28615,1.0
-12094,-13088,28459,1.0
-11440,-12719,26830,1.0
-11146,-12723,26051,1.0
0,0,0,0.0
-10659,-12803,24740,0.0
-10594,-13042,24501,0.0
-10608,-13379,24444,0.0
-10606,-13695,24348,0.0
-12161,-16072,27813,1.0
-12146,-16421,27672,1.0
-12541,-17337,28460,1.0
-12523,-17695,28306,1.0
-12460,-17990,28050,1.0
0,0,0,0.0
-12302,-18522,27463,1.0
-12152,-18676,27014,1.0
-12180,-19100,26956,1.0
-12165,-19461,26805,1.0
-12204,-19909,26770,1.0
-12197,-20285,26630,1.0
-12176,-20642,26460,1.0
-8233,-14223,17807,0.0
-8070,-14202,17367,0.0
-7851,-14073,16813,0.0
-7665,-13991,16332,0.0
-7447,-13839,15784,0.0
-7409,-14016,15622,0.0
-7214,-13889,15129,0.0
-7073,-13856,14750,0.0
-7024,-14000,14568,0.0
-7034,-14261,14504,0.0
-7054,-14545,14459,0.0
-7058,-14798,14380,0.0
-7070,-15073,14317,0.0
-7088,-15362,14263,0.0
-7102,-15645,14200,0.0
-7123,-15949,14148,0.0
-7145,-16258,14097,0.0
-7152,-16536,14013,0.0
-7178,-16864,13966,0.0
-7190,-17160,13888,0.0
-7206,-17471,13817,0.0
-7219,-17779,13739,0.0
-7243,-18117,13676,0.0
-7261,-18445,13602,0.0
-7281,-18783,13527,0.0
-7303,-19132,13456,0.0
-7315,-19457,13361,0.0
-7338,-19816,13284,0.0
-7361,-20184,13206,0.0
-7380,-20546,13118,0.0
-7408,-20939,13043,0.0
-7419,-21286,12932,0.0
-7377,-21485,12729,0.0
0,0,0,0.0
0,0,0,0.0
0,0,0,0.0
-672,-2079,1110,0.0
-668,-2099,1091,0.0
-669,-2132,1078,0.0
-648,-2099,1034,0.0
-57,-190,91,0.0
-57,-193,89,0.0
-61,-211,95,0.0
-64,-223,98,0.0
-71,-251,107,0.0
-75,-270,112,0.0
-76,-277,111,0.0
-82,-301,116,0.0
-89,-334,125,0.0
-88,-332,120,0.0
-89,-339,118,0.0
-87,-342,116,0.0
-86,-339,111,0.0
-83,-334,105,0.0
-83,-338,102,0.0
-82,-341,99,0.0
-79,-336,94,0.0
-79,-340,91,0.0
-78,-343,88,0.0
-5228,17032,15152,0.0
-5713,18210,16554,0.0
-5690,17745,16482,0.0
-5259,16048,15231,0.0
-5567,16616,16115,0.0
-5584,16309,16161,0.0
-5582,15947,16149,0.0
-6631,18530,19176,0.0
-6645,18162,19208,0.0
-6618,17692,19124,0.0
-6193,16190,17888,0.0
-6542,16721,18884,0.0
-6205,15506,17902,0.0
-6325,15453,18239,0.0
-6445,15389,18573,0.0
-6491,15149,18697,0.0
-11063,25226,31842,0.0
-10967,24429,31544,0.0
-10653,23180,30622,0.0
-10667,22668,30641,0.0
-10610,22014,30455,0.0
-10572,21412,30323,0.0
-10602,20955,30385,0.0
-10712,20659,30678,0.0
-10624,19984,30399,0.0
-10788,19790,30845,0.0
-10916,19520,31184,0.0
-11896,20730,33953,0.0
-11863,20139,33828,0.0
-11799,19507,33616,0.0
-11772,18946,33507,0.0
-11755,18411,33428,0.0
-11733,17874,33333,0.0
-11723,17363,33273,0.0
-10739,15454,30446,0.0
-10910,15251,30902,0.0
-10978,14895,31058,0.0
-10969,14439,30999,0.0
-6953,8874,19629,0.0
-6939,8582,19571,0.0
-6944,8315,19560,0.0
-6909,8005,19439,0.0
-6900,7728,19390,0.0
-6873,7437,19292,0.0
-6871,7175,19265,0.0
-6855,6902,19196,0.0
-6842,6635,19135,0.0
-6830,6372,19077,0.0
-6828,6121,19046,0.0
-6817,5865,18990,0.0
-6810,5615,18946,0.0
-6782,5351,18843,0.0
-6774,5106,18794,0.0
-6772,4867,18762,0.0
-6762,4625,18709,0.0
-6745,4380,18634,0.0
-6740,4146,18593,0.0
-6733,3912,18546,0.0
-6721,3678,18484,0.0
-6708,3445,18420,0.0
-6701,3218,18372,0.0
-6690,2991,18313,0.0
-6678,2765,18252,0.0
-6667,2542,18192,0.0
-6662,2322,18147,0.0
-6578,2080,17888,0.0
-6653,1889,18063,0.0
-6640,1671,17994,0.0
-6655,1463,18006,0.0
-6863,1290,18536,0.0
-7044,1102,18990,0.0
-7197,899,19368,0.0
-7529,703,20226,0.0
-7772,483,20836,0.0
-12051,375,32249,1.0
-12341,1,32962,1.0
-12597,-389,33580,1.0
0,0,0,0.0
0,0,0,0.0
-12579,-1547,33330,1.0
-12010,-1845,31758,1.0
-12020,-2212,31716,1.0
-12030,-2581,31676,1.0
-12031,-2946,31610,1.0
-12410,-3414,32536,1.0
-12790,-3904,33459,1.0
-12773,-4284,33339,1.0
-12835,-4692,33426,1.0
-12772,-5053,33186,1.0
-12066,-5136,31279,1.0
-12055,-5492,31178,1.0
-12055,-5854,31104,1.0
-12053,-6213,31023,1.0
-12449,-6791,31964,1.0
-12862,-7400,32942,1.0
-12877,-7793,32898,1.0
-12847,-8159,32736,1.0
0,0,0,0.0
-12203,-8479,30934,1.0
-12071,-8747,30515,1.0
-12065,-9103,30418,1.0
-12044,-9448,30283,1.0
-12040,-9806,30188,1.0
-12075,-10196,30189,1.0
-12055,-10540,30052,1.0
-12828,-11602,31886,1.0
-12876,-12033,31910,1.0
-12629,-12183,31205,1.0
-12258,-12194,30195,1.0
-12091,-12393,29691,1.0
-12085,-12754,29585,1.0
-12109,-13147,29546,1.0
-11744,-13108,28564,1.0
-11258,-12909,27291,1.0
-11000,-12951,26577,1.0
-10748,-12983,25878,1.0
-10575,-13101,25374,0.0
-10579,-13432,25294,0.0
-10575,-13754,25194,0.0
-10575,-14083,25102,0.0
-12100,-16492,28616,1.0
-12251,-17081,28863,1.0
-12313,-17556,28898,1.0
-12206,-17788,28534,1.0
0,0,0,0.0
-12079,-18372,28012,1.0
-12123,-18828,27999,1.0
-12089,-19165,27804,1.0
-12052,-19496,27600,1.0
0,0,0,0.0
-11943,-20100,27110,1.0
-11888,-20398,26864,1.0
-11864,-20751,26687,1.0
-11833,-21090,26493,1.0
-7820,-14201,17426,0.0
-7624,-14104,16908,0.0
-7428,-13993,16391,0.0
-7245,-13897,15906,0.0
-7175,-14008,15669,0.0
-6975,-13859,15152,0.0
-6872,-13896,14848,0.0
-6781,-13953,14573,0.0
-6790,-14212,14509,0.0
-6807,-14490,14460,0.0
-6820,-14766,14405,0.0
-6829,-15033,14338,0.0
-6835,-15300,14263,0.0
-6860,-15609,14225,0.0
-6864,-15875,14143,0.0
-6879,-16171,14082,0.0
-6898,-16480,14026,0.0
-6917,-16791,13968,0.0
-6934,-17100,13903,0.0
-6944,-17400,13823,0.0
-6968,-17734,13768,0.0
-6985,-18062,13699,0.0
-6997,-18376,13616,0.0
-7013,-18705,13538,0.0
-7032,-19051,13465,0.0
-7054,-19404,13392,0.0
-7070,-19751,13309,0.0
-7086,-20101,13221,0.0
-7109,-20477,13144,0.0
-7126,-20840,13052,0.0
-7149,-21228,12970,0.0
-7077,-21334,12712,0.0
-652,-1995,1159,0.0
0,0,0,0.0
-663,-2094,1155,0.0
-657,-2108,1133,0.0
-639,-2081,1089,0.0
-642,-2123,1081,0.0
-51,-172,85,0.0
-48,-166,80,0.0
-55,-194,91,0.0
-58,-206,94,0.0
-58,-211,93,0.0
-60,-221,95,0.0
-69,-255,105,0.0
-75,-283,113,0.0
-78,-296,116,0.0
-82,-316,120,0.0
-86,-340,124,0.0
-84,-337,119,0.0
-84,-342,117,0.0
-82,-340,111,0.0
-81,-343,109,0.0
-82,-348,106,0.0
-81,-350,103,0.0
-79,-344,97,0.0
-78,-347,93,0.0
-75,-343,89,0.0
-5038,17049,15248,0.0
-5421,17943,16397,0.0
-5245,16982,15856,0.0
-5331,16881,16105,0.0
-5218,16162,15756,0.0
-5284,16005,15944,0.0
-5363,15891,16176,0.0
-6379,18481,19224,0.0
-6365,18034,19171,0.0
-6336,17550,19068,0.0
0,0,0,0.0
-6175,16350,18558,0.0
-6234,16132,18720,0.0
-6250,15807,18753,0.0
-6229,15395,18675,0.0
-10458,25254,31328,0.0
-10502,24774,31431,0.0
-10402,23968,31106,0.0
-10243,23049,30604,0.0
0,0,0,0.0
-10213,21905,30459,0.0
-10299,21560,30688,0.0
0,0,0,0.0
-10342,20608,30759,0.0
-10774,20937,32012,0.0
-10459,19816,31045,0.0
-10503,19393,31140,0.0
-11432,20569,33863,0.0
-11401,19982,33736,0.0
-11366,19395,33596,0.0
-11354,18858,33525,0.0
-11353,18344,33484,0.0
-11327,17800,33371,0.0
-11307,17274,33277,0.0
-10333,15336,30373,0.0
-10262,14791,30131,0.0
-10250,14337,30058,0.0
-10266,13931,30073,0.0
-6722,8842,19667,0.0
-6698,8536,19572,0.0
-6687,8250,19516,0.0
-6671,7963,19446,0.0
-6656,7680,19376,0.0
-6645,7405,19319,0.0
-6630,7129,19251,0.0
-6624,6867,19207,0.0
-6610,6599,19141,0.0
-6599,6336,19082,0.0
-6591,6081,19033,0.0
-6575,5821,18961,0.0
-6564,5568,18901,0.0
-6550,5315,18835,0.0
-6548,5075,18802,0.0
-6538,4831,18745,0.0
-6538,4596,18718,0.0
-6519,4351,18637,0.0
-6511,4114,18585,0.0
-6503,3881,18531,0.0
-6496,3650,18481,0.0
-6479,3416,18406,0.0
-6472,3190,18357,0.0
-6465,2965,18306,0.0
-6451,2739,18235,0.0
-6450,2520,18205,0.0
-6447,2302,18163,0.0
-6425,2080,18070,0.0
-6427,1866,18045,0.0
-6420,1651,17992,0.0
-6453,1447,18052,0.0
-6690,1282,18681,0.0
-6810,1083,18982,0.0
-6980,883,19420,0.0
-7287,686,20237,0.0
-7581,470,21014,0.0
-11965,357,33102,1.0
-12157,-24,33568,1.0
-12282,-417,33846,1.0
-12355,-812,33979,1.0
-12340,-1201,33869,1.0
-12332,-1589,33779,1.0
-12000,-1924,32801,1.0
-12001,-2301,32736,1.0
-11969,-2670,32580,1.0
-11987,-3048,32558,1.0
-12255,-3498,33215,1.0
-12516,-3962,33845,1.0
-12545,-4361,33848,1.0
-12562,-4756,33818,1.0
0,0,0,0.0
-12060,-5312,32318,1.0
-11998,-5656,32078,1.0
-12040,-6047,32113,1.0
-12004,-6399,31937,1.0
0,0,0,0.0
-12595,-7490,33345,1.0
-12602,-7882,33281,1.0
-12617,-8280,33237,1.0
-12603,-8657,33113,1.0
-12076,-8667,31646,1.0
-12021,-8998,31420,1.0
-12034,-9378,31368,1.0
-12011,-9730,31222,1.0
-12023,-10111,31168,1.0
-12015,-10476,31061,1.0
-12102,-10927,31197,1.0
-12449,-11625,31999,1.0
-12533,-12091,32119,1.0
-12434,-12383,31771,1.0
-12060,-12386,30723,1.0
-12060,-12761,30629,1.0
-12050,-13128,30510,1.0
-12036,-13489,30377,1.0
-11396,-13130,28671,1.0
-11091,-13128,27813,1.0
-10770,-13088,26917,1.0
-10573,-13183,26337,1.0
-10550,-13490,26190,1.0
-10557,-13837,26118,1.0
-10532,-14141,25965,1.0
-12053,-16569,29606,1.0
0,0,0,0.0
-11993,-17263,29244,1.0
-11975,-17625,29089,1.0
-11864,-17849,28708,1.0
-11860,-18232,28588,1.0
-11819,-18559,28377,1.0
-11820,-18953,28266,1.0
-11755,-19240,27994,1.0
-11745,-19617,27854,1.0
-11685,-19912,27595,1.0
-11679,-20297,27460,1.0
-11583,-20525,27116,1.0
-11515,-20799,26835,1.0
-11515,-21196,26712,1.0
-7574,-14205,17488,0.0
-7387,-14113,16975,0.0
-7196,-14003,16458,0.0
-7016,-13900,15965,0.0
-6910,-13938,15646,0.0
-6752,-13863,15210,0.0
-6644,-13884,14889,0.0
-6541,-13907,14579,0.0
-6541,-14149,14499,0.0
-6555,-14422,14448,0.0
-6542,-14640,14338,0.0
-6577,-14967,14329,0.0
-6587,-15243,14268,0.0
-6601,-15530,14211,0.0
-6614,-15818,14149,0.0
-6629,-16115,14092,0.0
-6648,-16425,14039,0.0
-6657,-16713,13964,0.0
-6674,-17029,13905,0.0
-6686,-17332,13831,0.0
-6699,-17645,13759,0.0
-6712,-17959,13685,0.0
-6723,-18275,13604,0.0
-6752,-18642,13556,0.0
-6759,-18955,13462,0.0
-6777,-19305,13389,0.0
-6792,-19652,13308,0.0
-6811,-20014,13231,0.0
-6828,-20371,13144,0.0
-6845,-20743,13060,0.0
-6866,-21126,12976,0.0
-6826,-21329,12778,0.0
0,0,0,0.0
-638,-2058,1172,0.0
-616,-2016,1119,0.0
-637,-2117,1144,0.0
-603,-2038,1073,0.0
-622,-2136,1094,0.0
-48,-168,84,0.0
-50,-180,87,0.0
-52,-188,88,0.0
-55,-205,94,0.0
-57,-215,95,0.0
-59,-227,98,0.0
-64,-249,104,0.0
-68,-269,109,0.0
-75,-299,117,0.0
-82,-333,127,0.0
-81,-331,121,0.0
-80,-334,119,0.0
-80,-338,116,0.0
-77,-334,111,0.0
-77,-338,108,0.0
-75,-333,102,0.0
-75,-338,100,0.0
-74,-340,97,0.0
-74,-342,94,0.0
-71,-338,88,0.0
-4446,17044,15473,0.0
-4534,16983,15752,0.0
-4614,16888,16004,0.0
-4710,16848,16314,0.0
-4796,16759,16580,0.0
-4767,16279,16456,0.0
-4810,16049,16577,0.0
-4978,16226,17126,0.0
-5189,16523,17823,0.0
-5288,16452,18137,0.0
-5390,16382,18457,0.0
-5464,16222,18682,0.0
-5578,16174,19041,0.0
-5628,15934,19180,0.0
-5666,15667,19281,0.0
-5665,15294,19249,0.0
-5703,15031,19347,0.0
-9127,23479,30913,0.0
-6995,17560,23654,0.0
-9021,22095,30455,0.0
-7168,17130,24165,0.0
-7284,16976,24515,0.0
-7286,16559,24485,0.0
-7278,16127,24421,0.0
-7276,15714,24377,0.0
-7279,15317,24347,0.0
-7272,14905,24285,0.0
-7240,14452,24143,0.0
-7251,14091,24144,0.0
-10083,19066,33515,0.0
-10082,18546,33461,0.0
-10081,18033,33407,0.0
-10067,17504,33307,0.0
-10061,16995,33233,0.0
-9240,15158,30475,0.0
-9212,14666,30331,0.0
-9199,14208,30241,0.0
-5965,8933,19580,0.0
-5960,8647,19530,0.0
-5955,8366,19482,0.0
-5951,8090,19439,0.0
-5938,7805,19363,0.0
-5932,7533,19313,0.0
-5930,7270,19276,0.0
-5923,7004,19221,0.0
-5905,6728,19132,0.0
-5899,6469,19080,0.0
-5896,6216,19040,0.0
-5872,5944,18929,0.0
-5874,5704,18905,0.0
-5871,5459,18863,0.0
-5860,5210,18798,0.0
-5856,4969,18751,0.0
-5841,4723,18671,0.0
-5826,4479,18592,0.0
-5826,4248,18557,0.0
-5830,4024,18540,0.0
-5808,3782,18438,0.0
-5807,3558,18401,0.0
-5805,3334,18362,0.0
-5806,3113,18330,0.0
-5783,2882,18225,0.0
-5782,2665,18190,0.0
-5778,2448,18143,0.0
-5772,2231,18092,0.0
-5772,2018,18056,0.0
-5774,1808,18030,0.0
-5766,1595,17970,0.0
-5871,1410,18263,0.0
-6093,1244,18916,0.0
-6107,1028,18922,0.0
-6328,838,19571,0.0
-6577,638,20298,0.0
0,0,0,0.0
0,0,0,0.0
-11353,-100,34827,1.0
-11376,-500,34828,1.0
0,0,0,0.0
-11466,-1303,34957,1.0
0,0,0,0.0
0,0,0,0.0
-11501,-2500,34842,1.0
-11533,-2905,34867,1.0
0,0,0,0.0
-11556,-3703,34784,1.0
-11508,-4081,34564,1.0
0,0,0,0.0
-11505,-4865,34399,1.0
-11482,-5245,34250,1.0
-11542,-5664,34351,1.0
0,0,0,0.0
-11630,-6497,34449,1.0
-11574,-6858,34201,1.0
-11565,-7244,34093,1.0
-11538,-7618,33932,1.0
-11522,-7998,33802,1.0
0,0,0,0.0
-11554,-8801,33724,1.0
-11582,-9215,33720,1.0
0,0,0,0.0
-11629,-10041,33683,1.0
0,0,0,0.0
-11677,-10876,33644,1.0
-11621,-11218,33391,1.0
-11621,-11615,33300,1.0
0,0,0,0.0
-11605,-12392,33070,1.0
0,0,0,0.0
-11539,-13113,32693,1.0
-11500,-13464,32488,1.0
-11497,-13858,32384,1.0
-11500,-14260,32296,1.0
-11454,-14600,32069,1.0
0,0,0,0.0
-11332,-15235,31529,1.0
-10445,-14409,28970,1.0
0,0,0,0.0
-11270,-16342,31058,1.0
-11281,-16758,30984,1.0
0,0,0,0.0
-11216,-17462,30597,1.0
-11141,-17748,30290,1.0
-11083,-18055,30023,1.0
-11029,-18367,29771,1.0
0,0,0,0.0
-10955,-19047,29356,1.0
-10885,-19329,29062,1.0
-10848,-19667,28853,1.0
-10873,-20118,28808,1.0
-10847,-20477,28624,1.0
-10748,-20698,28250,1.0
-10698,-21011,28005,1.0
-10662,-21348,27793,1.0
-10594,-21623,27500,1.0
-6849,-14246,17702,0.0
-6686,-14169,17206,0.0
-6526,-14088,16718,0.0
-6345,-13951,16182,0.0
-6186,-13850,15702,0.0
-6088,-13881,15383,0.0
-5983,-13883,15041,0.0
-5854,-13827,14647,0.0
-5837,-14031,14531,0.0
-5842,-14288,14468,0.0
-5838,-14527,14384,0.0
-5856,-14823,14350,0.0
-5859,-15086,14280,0.0
-5869,-15370,14225,0.0
-5881,-15660,14172,0.0
-5887,-15942,14105,0.0
-5899,-16242,14050,0.0
-5904,-16525,13975,0.0
-5916,-16834,13916,0.0
-5924,-17135,13847,0.0
-5938,-17459,13789,0.0
-5946,-17767,13714,0.0
-5958,-18094,13648,0.0
-5964,-18405,13565,0.0
-5980,-18756,13505,0.0
-5988,-19086,13423,0.0
-6002,-19441,13353,0.0
-6017,-19800,13278,0.0
-6018,-20121,13175,0.0
-6030,-20486,13092,0.0
-6046,-20872,13017,0.0
-6058,-21251,12930,0.0
-6002,-21393,12696,0.0
-568,-2059,1192,0.0
0,0,0,0.0
-557,-2085,1146,0.0
-551,-2095,1121,0.0
-39,-153,79,0.0
-39,-156,79,0.0
-42,-168,83,0.0
-41,-167,79,0.0
-45,-191,89,0.0
-45,-194,88,0.0
-49,-212,93,0.0
-58,-252,107,0.0
-55,-247,102,0.0
-59,-266,107,0.0
-64,-295,115,0.0
-69,-320,121,0.0
-69,-330,120,0.0
-70,-340,120,0.0
-68,-335,114,0.0
-66,-330,108,0.0
-66,-334,105,0.0
-65,-338,103,0.0
-65,-342,99,0.0
-63,-336,95,0.0
-63,-341,92,0.0
-3634,16988,15699,0.0
-3711,16917,15973,0.0
-3791,16858,16261,0.0
-3869,16776,16533,0.0
-3951,16709,16824,0.0
-3906,16115,16578,0.0
-4104,16515,17361,0.0
-4119,16167,17365,0.0
-4115,15756,17294,0.0
-4379,16353,18344,0.0
-4480,16321,18712,0.0
-4568,16234,19023,0.0
-4647,16105,19291,0.0
-4759,16085,19699,0.0
-4821,15890,19896,0.0
-4822,15500,19847,0.0
-4850,15196,19902,0.0
-5158,15757,21108,0.0
-5275,15707,21527,0.0
-5384,15623,21910,0.0
-5492,15529,22290,0.0
-5605,15442,22691,0.0
-5727,15368,23121,0.0
-5842,15266,23524,0.0
-5949,15139,23898,0.0
-6077,15053,24348,0.0
-6010,14485,24018,0.0
-6134,14382,24451,0.0
-6177,14087,24565,0.0
-6589,14610,26140,0.0
-8434,18173,33375,0.0
-7088,14838,27982,0.0
-8405,17087,33102,0.0
-8415,16608,33066,0.0
-8406,16095,32951,0.0
-7821,14523,30586,0.0
-7830,14092,30552,0.0
-5016,8746,19530,0.0
-5000,8439,19419,0.0
-5005,8174,19396,0.0
-5006,7904,19356,0.0
-5008,7641,19324,0.0
-4998,7362,19241,0.0
-4995,7098,19189,0.0
-4987,6828,19111,0.0
-4987,6574,19070,0.0
-4991,6329,19049,0.0
-4984,6071,18977,0.0
-4980,5822,18924,0.0
-4980,5577,18880,0.0
-4972,5328,18807,0.0
-4965,5083,18742,0.0
-4969,4851,18715,0.0
-4955,4605,18625,0.0
-4949,4370,18562,0.0
-4953,4145,18538,0.0
-4952,3918,18494,0.0
-4940,3683,18409,0.0
-4942,3463,18376,0.0
-4934,3238,18312,0.0
-4932,3018,18264,0.0
-4922,2795,18189,0.0
-4928,2583,18171,0.0
-4921,2367,18109,0.0
-4879,2136,17915,0.0
-4908,1940,17984,0.0
-4919,1735,17985,0.0
-4903,1522,17889,0.0
-5042,1353,18357,0.0
-5196,1178,18876,0.0
-5227,967,18949,0.0
-5460,785,19751,0.0
-5685,583,20521,0.0
-9901,611,35663,1.0
-9924,208,35665,1.0
-9963,-194,35732,1.0
-9970,-598,35677,1.0
0,0,0,0.0
-10015,-1406,35681,1.0
-10026,-1808,35646,1.0
0,0,0,0.0
0,0,0,0.0
0,0,0,0.0
-10164,-3448,35814,1.0
-10178,-3855,35784,1.0
0,0,0,0.0
0,0,0,0.0
-10197,-5066,35608,1.0
0,0,0,0.0
0,0,0,0.0
-10217,-6277,35434,1.0
-10210,-6672,35328,1.0
-10231,-7086,35316,1.0
-10214,-7474,35174,1.0
-10194,-7858,35022,1.0
0,0,0,0.0
-10190,-8651,34842,1.0
-10220,-9076,34861,1.0
0,0,0,0.0
-10227,-9882,34713,1.0
0,0,0,0.0
0,0,0,0.0
-10211,-11071,34401,1.0
0,0,0,0.0
0,0,0,0.0
0,0,0,0.0
-10193,-12663,33987,1.0
0,0,0,0.0
0,0,0,0.0
0,0,0,0.0
-10329,-14484,34074,1.0
-10283,-14834,33829,1.0
-10273,-15235,33702,1.0
-10212,-15559,33409,1.0
-10043,-15709,32760,1.0
0,0,0,0.0
-9997,-16457,32420,1.0
0,0,0,0.0
0,0,0,0.0
0,0,0,0.0
-9963,-18062,31928,1.0
-9855,-18283,31483,1.0
-9748,-18499,31045,1.0
-9736,-18892,30908,1.0
-9752,-19343,30860,1.0
0,0,0,0.0
-9617,-19911,30233,1.0
-9552,-20194,29927,1.0
0,0,0,0.0
-9394,-20695,29231,1.0
-9358,-21037,29018,1.0
-9295,-21318,28722,1.0
0,0,0,0.0
-9143,-21808,28045,1.0
-9097,-22123,27802,1.0
-5741,-14231,17479,0.0
-5600,-14148,16985,0.0
-5446,-14017,16451,0.0
-5308,-13919,15970,0.0
-5211,-13918,15614,0.0
-5105,-13890,15236,0.0
-5018,-13902,14911,0.0
-4917,-13871,14549,0.0
-4918,-14124,14487,0.0
-4912,-14360,14405,0.0
-4901,-14585,14309,0.0
-4922,-14909,14305,0.0
-4925,-15180,14244,0.0
-29,-91,84,0.0
-4933,-15743,14128,0.0
-4936,-16029,14066,0.0
-24,-81,69,0.0
-4938,-16596,13924,0.0
-4947,-16915,13876,0.0
-4949,-17214,13806,0.0
-4959,-17541,13752,0.0
-22,-80,62,0.0
-4959,-18152,13595,0.0
-4962,-18471,13518,0.0
-4970,-18820,13458,0.0
-4975,-19161,13385,0.0
-4977,-19496,13302,0.0
-4977,-19830,13213,0.0
-4986,-20209,13147,0.0
-4989,-20563,13058,0.0
-5000,-20962,12992,0.0
-4982,-21247,12849,0.0
-479,-2080,1227,0.0
-469,-2071,1191,0.0
-464,-2085,1169,0.0
-29,-137,74,0.0
-32,-154,82,0.0
-34,-167,86,0.0
-34,-172,86,0.0
-34,-171,83,0.0
-38,-191,91,0.0
-38,-198,91,0.0
-41,-214,96,0.0
-41,-221,96,0.0
-43,-234,99,0.0
-48,-267,110,0.0
-49,-276,110,0.0
-52,-297,115,0.0
-56,-326,123,0.0
-57,-344,124,0.0
-56,-341,120,0.0
-54,-337,114,0.0
-54,-339,110,0.0
-53,-344,108,0.0
-52,-339,103,0.0
-51,-340,99,0.0
-51,-345,97,0.0
-3619,34205,32635,0.0
-3693,33679,32826,0.0
-1966,17306,17231,0.0
-1989,16903,17192,0.0
-2243,18420,19142,0.0
-2270,18012,19122,0.0
-2280,17496,18979,0.0
-2295,17039,18883,0.0
-2311,16597,18797,0.0
-2330,16197,18745,0.0
-2321,15619,18474,0.0
-2351,15320,18521,0.0
-2774,17512,21641,0.0
-2694,16479,20820,0.0
0,0,0,0.0
-2834,16274,21498,0.0
-2725,15163,20486,0.0
-2845,15344,21205,0.0
-2882,15069,21306,0.0
-2902,14703,21274,0.0
-4192,20594,30501,0.0
-4233,20153,30554,0.0
-4292,19807,30751,0.0
-4367,19538,31068,0.0
-3865,16753,27294,0.0
-3959,16633,27771,0.0
-3951,16080,27522,0.0
-4045,15952,27998,0.0
-4064,15524,27949,0.0
-3936,14562,26903,0.0
-3925,14055,26658,0.0
-3996,13853,26983,0.0
-3974,13329,26677,0.0
-4305,13966,28732,0.0
-3966,12442,26323,0.0
-4560,13824,30096,0.0
-2966,8690,19478,0.0
-2975,8414,19428,0.0
-2976,8122,19332,0.0
-2983,7854,19284,0.0
-2998,7610,19287,0.0
-2997,7329,19189,0.0
-3006,7074,19149,0.0
-3006,6806,19063,0.0
-3009,6549,19001,0.0
-3021,6311,18982,0.0
-3021,6056,18906,0.0
-3028,5813,18861,0.0
-3027,5561,18775,0.0
-3033,5326,18734,0.0
-3035,5087,18673,0.0
-3038,4853,18619,0.0
-3044,4626,18583,0.0
-3049,4399,18543,0.0
-3052,4173,18492,0.0
-3051,3942,18414,0.0
-3058,3725,18386,0.0
-3062,3507,18345,0.0
-3064,3288,18290,0.0
-3065,3070,18233,0.0
-3068,2857,18187,0.0
-3073,2647,18158,0.0
-3075,2437,18111,0.0
-3062,2217,17979,0.0
-3003,1970,17569,0.0
-3073,1810,17925,0.0
-3078,1608,17897,0.0
-3114,1420,18048,0.0
-3222,1258,18616,0.0
-3271,1064,18842,0.0
-3362,877,19311,0.0
-3505,689,20078,0.0
-3656,486,20880,0.0
-6543,455,37263,1.0
-6590,44,37428,1.0
-6604,-369,37402,1.0
0,0,0,0.0
-6633,-1196,37363,1.0
-6645,-1609,37330,1.0
0,0,0,0.0
-6623,-2417,37018,1.0
-6717,-2861,37443,1.0
0,0,0,0.0
0,0,0,0.0
-6833,-4156,37808,1.0
-6867,-4592,37901,1.0
0,0,0,0.0
0,0,0,0.0
-6723,-5712,36849,1.0
-6709,-6103,36684,1.0
-6785,-6580,37011,1.0
0,0,0,0.0
-6874,-7493,37332,1.0
0,0,0,0.0
-6886,-8335,37230,1.0
-6890,-8756,37173,1.0
-6885,-9165,37062,1.0
0,0,0,0.0
0,0,0,0.0
-6737,-10191,36036,1.0
0,0,0,0.0
0,0,0,0.0
-6795,-11525,36123,1.0
-6856,-12050,36372,1.0
0,0,0,0.0
0,0,0,0.0
0,0,0,0.0
-6694,-13433,35241,1.0
-6741,-13952,35418,1.0
-6751,-14400,35402,1.0
0,0,0,0.0
-6752,-15265,35273,1.0
-6685,-15545,34858,1.0
0,0,0,0.0
0,0,0,0.0
0,0,0,0.0
0,0,0,0.0
-6572,-17454,33964,1.0
0,0,0,0.0
0,0,0,0.0
0,0,0,0.0
-6440,-18874,33050,1.0
-6375,-19131,32660,1.0
-6318,-19410,32312,1.0
0,0,0,0.0
0,0,0,0.0
0,0,0,0.0
-6101,-20531,30997,1.0
-6036,-20765,30613,1.0
-5989,-21063,30327,1.0
-5910,-21241,29876,1.0
-5850,-21486,29528,1.0
0,0,0,0.0
-5778,-22150,29074,1.0
-5715,-22379,28713,1.0
-5658,-22625,28379,1.0
-3488,-14241,17466,0.0
-3395,-14153,16973,0.0
-3305,-14064,16496,0.0
-3214,-13964,16019,0.0
-3126,-13865,15557,0.0
-3087,-13978,15341,0.0
-2999,-13861,14883,0.0
-2933,-13835,14531,0.0
-2911,-14019,14405,0.0
-2902,-14259,14333,0.0
-2850,-14293,14056,0.0
-2886,-14776,14216,0.0
-2878,-15039,14156,0.0
-2871,-15311,14100,0.0
-2867,-15603,14056,0.0
-14,-79,70,0.0
-15,-83,71,0.0
-13,-77,64,0.0
-15,-91,75,0.0
-16,-97,78,0.0
-15,-93,74,0.0
-17,-107,82,0.0
-18,-119,90,0.0
-16,-103,76,0.0
-2780,-18655,13436,0.0
-2762,-18942,13333,0.0
-2750,-19275,13256,0.0
-2741,-19633,13190,0.0
-2728,-19979,13110,0.0
-2714,-20329,13026,0.0
-2699,-20680,12936,0.0
-17,-134,81,0.0
-17,-138,82,0.0
-18,-149,87,0.0
-18,-153,87,0.0
-18,-158,87,0.0
-19,-164,88,0.0
-21,-183,95,0.0
-20,-183,93,0.0
-20,-186,92,0.0
-23,-218,105,0.0
-22,-221,104,0.0
-22,-221,101,0.0
-22,-237,105,0.0
-23,-253,108,0.0
-25,-280,117,0.0
-24,-272,111,0.0
-25,-303,119,0.0
-26,-315,120,0.0
-26,-331,122,0.0
-25,-328,117,0.0
-25,-335,116,0.0
-24,-338,113,0.0
-24,-342,110,0.0
-22,-338,105,0.0
-22,-342,102,0.0
-483,15150,14675,0.0
-518,14959,14803,0.0
-641,17102,17286,0.0
-1287,31875,32915,0.0
0,0,0,0.0
-1381,29804,32121,0.0
0,0,0,0.0
0,0,0,0.0
-1558,27934,32113,0.0
-1570,26589,31237,0.0
-1629,26111,31351,0.0
-1665,25296,31044,0.0
-1128,16278,20421,0.0
-1142,15674,20101,0.0
-1182,15450,20260,0.0
-1271,15828,21225,0.0
-1309,15564,21347,0.0
-1348,15299,21464,0.0
-1928,20927,30040,0.0
-1990,20650,30334,0.0
-2060,20470,30779,0.0
-2090,19892,30621,0.0
-2156,19675,31014,0.0
-2201,19263,31102,0.0
-2436,20444,33819,0.0
-1960,15783,26758,0.0
-2121,16404,28511,0.0
-2092,15531,27683,0.0
-2136,15233,27857,0.0
-2162,14806,27786,0.0
-2186,14380,27705,0.0
-2217,14008,27719,0.0
-2237,13585,27622,0.0
-2254,13147,27483,0.0
-2209,12377,26609,0.0
-1637,8810,19492,0.0
-1649,8519,19408,0.0
-1659,8226,19308,0.0
-1674,7970,19285,0.0
-1685,7695,19210,0.0
-1698,7435,19163,0.0
-1711,7183,19125,0.0
-1717,6905,19013,0.0
-1733,6674,19020,0.0
-1744,6420,18955,0.0
-1750,6159,18859,0.0
-1761,5921,18821,0.0
-1766,5668,18729,0.0
-1781,5448,18736,0.0
-1792,5219,18709,0.0
-1798,4978,18626,0.0
-1808,4751,18586,0.0
-1813,4519,18518,0.0
-1824,4299,18491,0.0
-1831,4076,18441,0.0
-1839,3858,18404,0.0
-1844,3635,18336,0.0
-1848,3413,18264,0.0
-1856,3202,18234,0.0
-1864,2993,18205,0.0
-1865,2774,18109,0.0
-1873,2570,18093,0.0
-1876,2360,18024,0.0
-1883,2155,17989,0.0
-1883,1947,17903,0.0
-1893,1749,17903,0.0
-1897,1548,17856,0.0
-1947,1381,18239,0.0
-2024,1221,18878,0.0
-2028,1011,18819,0.0
-2103,831,19439,0.0
-2191,641,20168,0.0
-2272,434,20824,0.0
0,0,0,0.0
-4141,-36,37658,1.0
-4172,-450,37794,1.0
0,0,0,0.0
-4239,-1289,38127,1.0
-4266,-1711,38238,1.0
0,0,0,0.0
-4278,-2541,38089,1.0
0,0,0,0.0
0,0,0,0.0
0,0,0,0.0
0,0,0,0.0
0,0,0,0.0
-4323,-5034,37827,1.0
-4317,-5434,37676,1.0
-4340,-5871,37779,1.0
-4309,-6235,37419,1.0
-4279,-6596,37073,1.0
0,0,0,0.0
-4325,-7483,37302,1.0
-4331,-7903,37277,1.0
-4322,-8297,37127,1.0
0,0,0,0.0
0,0,0,0.0
0,0,0,0.0
0,0,0,0.0
-4295,-10305,36582,1.0
-4284,-10693,36426,1.0
0,0,0,0.0
-4279,-11523,36292,1.0
-4278,-11942,36234,1.0
-4278,-12370,36197,1.0
-4257,-12737,35978,1.0
-4249,-13144,35876,1.0
-4264,-13630,35978,1.0
-4250,-14024,35829,1.0
-4233,-14410,35664,1.0
-4223,-14820,35552,1.0
-4228,-15288,35576,1.0
-4206,-15664,35378,1.0
-4172,-15990,35072,1.0
-4152,-16372,34898,1.0
-4166,-16897,35016,1.0
0,0,0,0.0
-4139,-17734,34785,1.0
0,0,0,0.0
0,0,0,0.0
0,0,0,0.0
-3977,-18945,33464,1.0
-3937,-19247,33148,1.0
-3886,-19494,32745,1.0
-3850,-19807,32462,1.0
-3799,-20045,32058,1.0
-3766,-20375,31807,1.0
-3713,-20601,31401,1.0
-3653,-20782,30936,1.0
0,0,0,0.0
-3577,-21384,30381,1.0
-3525,-21601,29987,1.0
-3471,-21796,29574,1.0
-3423,-22037,29228,1.0
0,0,0,0.0
-3339,-22585,28635,1.0
-2060,-14279,17703,0.0
-2000,-14217,17239,0.0
-1938,-14118,16744,0.0
-1878,-14035,16284,0.0
-1817,-13918,15797,0.0
-1777,-13956,15497,0.0
-1726,-13904,15105,0.0
-1682,-13900,14775,0.0
-1634,-13859,14415,0.0
-1619,-14094,14342,0.0
-1607,-14355,14293,0.0
-1584,-14532,14160,0.0
-1580,-14879,14185,0.0
-1567,-15155,14137,0.0
-1553,-15436,14088,0.0
-1537,-15708,14028,0.0
-1521,-15983,13965,0.0
-1505,-16270,13907,0.0
-1489,-16561,13848,0.0
-1472,-16851,13781,0.0
-1453,-17148,13717,0.0
-1435,-17451,13652,0.0
-1416,-17751,13580,0.0
-8,-102,77,0.0
-9,-119,87,0.0
-1353,-18669,13343,0.0
-1332,-19001,13273,0.0
-1312,-19364,13217,0.0
-1288,-19685,13126,0.0
-1265,-20034,13049,0.0
-1240,-20385,12967,0.0
-1216,-20742,12881,0.0
-1190,-21111,12797,0.0
-8,-156,93,0.0
-8,-161,92,0.0
-8,-156,88,0.0
-8,-172,94,0.0
-9,-189,101,0.0
-8,-185,96,0.0
-9,-207,105,0.0
-8,-207,102,0.0
-8,-204,98,0.0
-8,-235,110,0.0
-8,-238,108,0.0
-7,-239,105,0.0
-7,-263,112,0.0
-7,-254,105,0.0
-6,-270,108,0.0
-7,-293,114,0.0
-6,-317,119,0.0
-6,-334,122,0.0
-5,-339,119,0.0
-5,-342,117,0.0
-4,-339,111,0.0
-4,-342,108,0.0
-3,-343,105,0.0
273,15150,14787,0.0
236,14771,14726,0.0
200,14405,14670,0.0
193,16379,17040,0.0
157,16382,17411,0.0
119,16077,17456,0.0
95,18297,20297,0.0
52,18049,20459,0.0
11,17813,20632,0.0
-29,17489,20700,0.0
-69,16967,20525,0.0
-108,16667,20607,0.0
-148,16417,20749,0.0
-187,16200,20932,0.0
-220,15593,20601,0.0
-264,15785,21327,0.0
-301,15474,21383,0.0
-337,15164,21436,0.0
-522,20840,30141,0.0
-575,20600,30489,0.0
-615,19901,30152,0.0
-674,19840,30774,0.0
-724,19511,30991,0.0
-835,20732,33732,0.0
0,0,0,0.0
-729,15515,26509,0.0
-762,15100,26451,0.0
-802,14835,26651,0.0
-867,14995,27635,0.0
-904,14643,27695,0.0
-931,14176,27529,0.0
-933,13365,26657,0.0
-982,13252,27162,0.0
-1023,13015,27425,0.0
-1049,12600,27311,0.0
-765,8691,19387,0.0
-785,8436,19378,0.0
-802,8151,19292,0.0
-821,7896,19268,0.0
-837,7628,19203,0.0
-851,7353,19112,0.0
-868,7106,19085,0.0
-883,6856,19041,0.0
-899,6609,19003,0.0
-912,6354,18927,0.0
-924,6101,18850,0.0
-938,5864,18811,0.0
-951,5630,18774,0.0
-963,5387,18702,0.0
-972,5142,18604,0.0
-986,4922,18593,0.0
-998,4693,18544,0.0
-1008,4470,18499,0.0
-1016,4234,18398,0.0
-1029,4026,18402,0.0
-1036,3800,18323,0.0
-1049,3591,18314,0.0
-1055,3370,18236,0.0
-1064,3157,18187,0.0
-1075,2951,18170,0.0
-1081,2739,18106,0.0
-1088,2531,18054,0.0
-1096,2325,18007,0.0
-1102,2119,17947,0.0
-1110,1921,17936,0.0
-1114,1714,17840,0.0
-1121,1517,17815,0.0
-1156,1351,18217,0.0
-1205,1194,18869,0.0
-1213,987,18844,0.0
-1264,809,19503,0.0
-1329,623,20378,0.0
0,0,0,0.0
0,0,0,0.0
0,0,0,0.0
0,0,0,0.0
0,0,0,0.0
-2570,-1319,38080,1.0
-2591,-1739,38198,1.0
0,0,0,0.0
0,0,0,0.0
-2601,-2962,37829,1.0
0,0,0,0.0
-2581,-3733,37244,1.0
0,0,0,0.0
0,0,0,0.0
0,0,0,0.0
-2577,-5299,36701,1.0
0,0,0,0.0
-2583,-6100,36597,1.0
0,0,0,0.0
0,0,0,0.0
-2602,-7340,36619,1.0
0,0,0,0.0
-2583,-8083,36220,1.0
-2581,-8479,36137,1.0
-2584,-8895,36136,1.0
-2566,-9238,35851,1.0
-2577,-9686,35963,1.0
0,0,0,0.0
0,0,0,0.0
-2496,-10597,34784,1.0
-2512,-11081,35004,1.0
0,0,0,0.0
0,0,0,0.0
-2493,-12268,34767,1.0
0,0,0,0.0
-2483,-13093,34683,1.0
0,0,0,0.0
-2462,-13885,34490,1.0
0,0,0,0.0
-2454,-14762,34486,1.0
-2429,-15083,34203,1.0
0,0,0,0.0
-2464,-16286,34858,1.0
0,0,0,0.0
-2429,-17077,34571,1.0
-2411,-17469,34418,1.0
0,0,0,0.0
0,0,0,0.0
-2360,-18722,34087,1.0
0,0,0,0.0
-2297,-19342,33473,1.0
-2259,-19609,33101,1.0
-2222,-19873,32730,1.0
-2191,-20185,32446,1.0
-2166,-20572,32280,1.0
0,0,0,0.0
0,0,0,0.0
-2047,-21298,31135,1.0
-2006,-21523,30743,1.0
0,0,0,0.0
-1916,-21885,29859,1.0
-1871,-22066,29432,1.0
0,0,0,0.0
-1788,-22485,28674,1.0
-1754,-22800,28435,1.0
-1059,-14227,17354,0.0
-1016,-14133,16863,0.0
-977,-14074,16427,0.0
-937,-13961,15943,0.0
-899,-13881,15510,0.0
-872,-13977,15280,0.0
-833,-13863,14830,0.0
-802,-13849,14496,0.0
-780,-14019,14360,0.0
-762,-14269,14302,0.0
-723,-14093,13823,0.0
-725,-14757,14164,0.0
-708,-15045,14131,0.0
-687,-15300,14062,0.0
-669,-15588,14018,0.0
-649,-15885,13978,0.0
-628,-16180,13929,0.0
-3,-104,87,0.0
-3,-88,72,0.0
-3,-103,82,0.0
-3,-104,82,0.0
-4,-121,93,0.0
-3,-119,90,0.0
-2,-98,72,0.0
-432,-18529,13350,0.0
-405,-18853,13277,0.0
-377,-19236,13238,0.0
-347,-19545,13143,0.0
-317,-19895,13070,0.0
-286,-20248,12991,0.0
-254,-20596,12903,0.0
-221,-20949,12813,0.0
-186,-21260,12690,0.0
-15,-2110,1229,0.0
-1,-163,92,0.0
-1,-178,99,0.0
0,-186,100,0.0
0,-186,97,0.0
0,-187,96,0.0
0,-208,103,0.0
0,-212,102,0.0
1,-216,101,0.0
1,-232,107,0.0
1,-243,107,0.0
2,-261,113,0.0
3,-261,110,0.0
4,-276,112,0.0
4,-281,110,0.0
5,-306,117,0.0
6,-339,126,0.0
7,-336,120,0.0
7,-340,117,0.0
8,-345,115,0.0
8,-346,112,0.0
9,-351,109,0.0
1216,14971,14707,0.0
1173,14649,14700,0.0
1127,14286,14643,0.0
1108,14244,14915,0.0
1238,16159,17285,0.0
1206,15982,17466,0.0
1520,20452,22836,0.0
1024,13994,15966,0.0
997,13863,16161,0.0
1374,19417,23132,0.0
1339,19249,23436,0.0
1308,19133,23811,0.0
1283,19096,24293,0.0
1019,15461,20110,0.0
996,15387,20463,0.0
969,15271,20769,0.0
952,15296,21278,0.0
923,15135,21538,0.0
889,14880,21665,0.0
1025,17526,26116,0.0
995,17409,26553,0.0
963,17233,26912,0.0
916,16769,26817,0.0
878,16467,26976,0.0
793,15267,25626,0.0
804,15897,27348,0.0
737,14997,26453,0.0
696,14560,26339,0.0
637,13750,25517,0.0
613,13650,25999,0.0
619,14250,27869,0.0
586,13966,28055,0.0
562,13919,28734,0.0
533,13699,29074,0.0
332,8887,19403,0.0
307,8604,19332,0.0
284,8345,19309,0.0
261,8073,19250,0.0
238,7801,19177,0.0
217,7552,19157,0.0
196,7291,19095,0.0
175,7025,19013,0.0
155,6783,18986,0.0
137,6536,18937,0.0
119,6282,18861,0.0
100,6038,18805,0.0
83,5802,18764,0.0
66,5563,18705,0.0
50,5329,18655,0.0
34,5099,18607,0.0
19,4868,18551,0.0
4,4639,18488,0.0
-9,4419,18453,0.0
-23,4198,18411,0.0
-36,3974,18340,0.0
-49,3757,18293,0.0
-61,3547,18268,0.0
-73,3330,18202,0.0
-85,3120,18161,0.0
-96,2911,18115,0.0
-107,2699,18040,0.0
-117,2497,18016,0.0
-126,2290,17956,0.0
-135,2086,17891,0.0
-144,1884,17832,0.0
-153,1685,17798,0.0
-162,1488,17760,0.0
-174,1323,18147,0.0
-188,1169,18824,0.0
-196,963,18820,0.0
-214,793,19642,0.0
-229,602,20361,0.0
0,0,0,0.0
0,0,0,0.0
-443,-103,36033,1.0
-455,-493,36015,1.0
-468,-884,36107,1.0
-481,-1283,36352,1.0
0,0,0,0.0
-501,-2080,36496,1.0
-513,-2493,36745,1.0
-521,-2895,36774,1.0
-528,-3298,36798,1.0
0,0,0,0.0
-540,-4096,36746,1.0
0,0,0,0.0
-543,-4841,36279,1.0
-545,-5214,36097,1.0
0,0,0,0.0
0,0,0,0.0
-539,-6263,35236,1.0
-534,-6584,34851,1.0
-529,-6903,34490,1.0
-534,-7357,34797,1.0
-532,-7730,34706,1.0
0,0,0,0.0
-528,-8507,34643,1.0
-525,-8902,34636,1.0
0,0,0,0.0
-515,-9650,34437,1.0
-509,-10038,34382,1.0
0,0,0,0.0
0,0,0,0.0
-487,-11156,34066,1.0
-478,-11532,33967,1.0
0,0,0,0.0
0,0,0,0.0
-449,-12690,33740,1.0
-440,-13122,33776,1.0
0,0,0,0.0
0,0,0,0.0
0,0,0,0.0
0,0,0,0.0
0,0,0,0.0
-366,-15856,34086,1.0
-349,-16218,33902,1.0
-328,-16467,33486,1.0
0,0,0,0.0
0,0,0,0.0
-281,-18264,34288,1.0
-260,-18638,34097,1.0
-236,-18889,33687,1.0
0,0,0,0.0
-188,-19515,33104,1.0
-165,-19895,32932,1.0
0,0,0,0.0
-112,-20419,32205,1.0
-86,-20735,31937,1.0
0,0,0,0.0
-31,-21339,31362,1.0
-3,-21527,30915,1.0
0,0,0,0.0
0,0,0,0.0
82,-22186,29757,1.0
112,-22360,29323,1.0
142,-22531,28896,1.0
172,-22686,28454,1.0
126,-14238,17468,0.0
143,-14163,16998,0.0
160,-14097,16552,0.0
