//X,Y,Z,Classification
897.0,-689.0,1989.0,0.0
908.0,-673.0,2020.0,0.0
898.0,-641.0,2001.0,0.0
893.0,-613.0,1998.0,0.0
905.0,-598.0,2029.0,0.0
891.0,-564.0,2003.0,0.0
898.0,-545.0,2026.0,0.0
911.0,-528.0,2060.0,0.0
911.0,-504.0,2067.0,0.0
903.0,-474.0,2054.0,0.0
877.0,-439.0,2001.0,0.0
4.0,-2.0,11.0,0.0
906.0,-404.0,2078.0,0.0
903.0,-379.0,2076.0,0.0
8.0,-4.0,19.0,0.0
8.0,-3.0,19.0,0.0
16.0,-6.0,38.0,0.0
9.0,-3.0,25.0,0.0
6.0,-2.0,15.0,0.0
5.0,-2.0,13.0,0.0
6.0,-2.0,14.0,0.0
8.0,-2.0,19.0,0.0
8.0,-1.0,20.0,0.0
11.0,-1.0,26.0,0.0
3.0,0.0,8.0,0.0
18.0,-1.0,44.0,0.0
18.0,-1.0,45.0,0.0
18.0,0.0,44.0,0.0
17.0,0.0,42.0,0.0
22.0,0.0,53.0,0.0
15.0,0.0,39.0,0.0
23.0,1.0,56.0,0.0
22.0,2.0,53.0,0.0
25.0,3.0,60.0,0.0
28.0,3.0,70.0,0.0
25.0,4.0,60.0,0.0
25.0,5.0,64.0,0.0
27.0,6.0,67.0,0.0
31.0,8.0,78.0,0.0
36.0,10.0,87.0,0.0
32.0,10.0,80.0,0.0
31.0,11.0,79.0,0.0
33.0,13.0,82.0,0.0
36.0,15.0,90.0,0.0
36.0,16.0,92.0,0.0
33.0,16.0,84.0,0.0
38.0,19.0,96.0,0.0
37.0,20.0,92.0,0.0
38.0,22.0,97.0,0.0
41.0,25.0,104.0,0.0
44.0,28.0,111.0,0.0
38.0,26.0,98.0,0.0
45.0,32.0,114.0,0.0
40.0,30.0,100.0,0.0
41.0,32.0,103.0,0.0
45.0,36.0,114.0,0.0
43.0,36.0,109.0,0.0
45.0,38.0,112.0,0.0
45.0,40.0,113.0,0.0
43.0,40.0,109.0,0.0
43.0,42.0,109.0,0.0
42.0,41.0,106.0,0.0
34.0,36.0,88.0,0.0
39.0,43.0,101.0,0.0
36.0,41.0,94.0,0.0
36.0,41.0,91.0,0.0
36.0,44.0,95.0,0.0
38.0,46.0,98.0,0.0
34.0,43.0,88.0,0.0
36.0,47.0,94.0,0.0
35.0,47.0,91.0,0.0
36.0,50.0,94.0,0.0
36.0,51.0,93.0,0.0
33.0,48.0,86.0,0.0
35.0,52.0,90.0,0.0
37.0,56.0,94.0,0.0
37.0,60.0,98.0,0.0
37.0,61.0,97.0,0.0
35.0,58.0,91.0,0.0
34.0,59.0,89.0,0.0
34.0,60.0,88.0,0.0
36.0,65.0,95.0,0.0
38.0,70.0,99.0,0.0
36.0,68.0,94.0,0.0
36.0,71.0,95.0,0.0
36.0,71.0,93.0,0.0
38.0,79.0,101.0,0.0
37.0,78.0,98.0,0.0
39.0,82.0,100.0,0.0
39.0,85.0,102.0,0.0
39.0,87.0,101.0,0.0
42.0,96.0,111.0,0.0
43.0,100.0,113.0,0.0
42.0,100.0,110.0,0.0
43.0,104.0,111.0,0.0
43.0,107.0,113.0,0.0
42.0,109.0,112.0,0.0
46.0,119.0,120.0,0.0
44.0,120.0,118.0,0.0
45.0,124.0,119.0,0.0
43.0,123.0,116.0,0.0
46.0,131.0,121.0,0.0
46.0,134.0,121.0,0.0
45.0,134.0,119.0,0.0
45.0,137.0,118.0,0.0
69.0,-289.0,74.0,0.0
72.0,-292.0,78.0,0.0
73.0,-293.0,82.0,0.0
75.0,-295.0,86.0,0.0
76.0,-294.0,88.0,0.0
74.0,-283.0,89.0,0.0
77.0,-291.0,95.0,0.0
77.0,-284.0,96.0,0.0
78.0,-286.0,100.0,0.0
78.0,-280.0,101.0,0.0
79.0,-282.0,106.0,0.0
80.0,-281.0,109.0,0.0
83.0,-286.0,114.0,0.0
83.0,-282.0,116.0,0.0
84.0,-278.0,118.0,0.0
86.0,-283.0,124.0,0.0
84.0,-272.0,123.0,0.0
87.0,-275.0,128.0,0.0
87.0,-272.0,130.0,0.0
88.0,-269.0,132.0,0.0
87.0,-264.0,133.0,0.0
90.0,-269.0,140.0,0.0
93.0,-275.0,146.0,0.0
93.0,-269.0,148.0,0.0
95.0,-271.0,153.0,0.0
101.0,-285.0,164.0,0.0
101.0,-280.0,166.0,0.0
95.0,-261.0,158.0,0.0
94.0,-252.0,157.0,0.0
91.0,-240.0,153.0,0.0
86.0,-225.0,147.0,0.0
83.0,-215.0,144.0,0.0
79.0,-201.0,139.0,0.0
74.0,-184.0,130.0,0.0
70.0,-173.0,124.0,0.0
70.0,-169.0,125.0,0.0
66.0,-156.0,118.0,0.0
61.0,-144.0,112.0,0.0
60.0,-139.0,110.0,0.0
57.0,-131.0,106.0,0.0
51.0,-114.0,95.0,0.0
46.0,-103.0,87.0,0.0
55.0,-121.0,105.0,0.0
44.0,-95.0,85.0,0.0
10133.0,-21053.0,19144.0,0.0
46.0,-95.0,89.0,0.0
10101.0,-20307.0,19330.0,0.0
10074.0,-19916.0,19397.0,0.0
10040.0,-19517.0,19447.0,0.0
10017.0,-19145.0,19520.0,0.0
10003.0,-18791.0,19603.0,0.0
9989.0,-18442.0,19687.0,0.0
9970.0,-18088.0,19759.0,0.0
9943.0,-17724.0,19814.0,0.0
9935.0,-17395.0,19903.0,0.0
9889.0,-17003.0,19914.0,0.0
9922.0,-16752.0,20084.0,0.0
9998.0,-16569.0,20338.0,0.0
10214.0,-16615.0,20882.0,0.0
10413.0,-16620.0,21391.0,0.0
10723.0,-16788.0,22132.0,0.0
847.0,-1301.0,1757.0,0.0
834.0,-1257.0,1741.0,0.0
855.0,-1261.0,1789.0,0.0
842.0,-1218.0,1771.0,0.0
855.0,-1211.0,1805.0,0.0
868.0,-1204.0,1841.0,0.0
850.0,-1155.0,1812.0,0.0
854.0,-1134.0,1826.0,0.0
842.0,-1095.0,1808.0,0.0
859.0,-1091.0,1851.0,0.0
870.0,-1079.0,1882.0,0.0
873.0,-1059.0,1897.0,0.0
865.0,-1024.0,1886.0,0.0
0.0,0.0,0.0,0.0
862.0,-972.0,1894.0,0.0
0.0,0.0,0.0,0.0
864.0,-924.0,1910.0,0.0
14147.0,-14745.0,31393.0,1.0
855.0,-867.0,1906.0,0.0
867.0,-855.0,1938.0,0.0
854.0,-818.0,1916.0,0.0
871.0,-810.0,1960.0,0.0
875.0,-790.0,1977.0,0.0
867.0,-758.0,1964.0,0.0
856.0,-725.0,1946.0,0.0
888.0,-726.0,2023.0,0.0
868.0,-686.0,1984.0,0.0
886.0,-676.0,2033.0,0.0
875.0,-643.0,2012.0,0.0
892.0,-631.0,2057.0,0.0
878.0,-597.0,2031.0,0.0
893.0,-582.0,2071.0,0.0
897.0,-560.0,2087.0,0.0
880.0,-525.0,2053.0,0.0
11.0,-6.0,28.0,0.0
879.0,-476.0,2061.0,0.0
4.0,-2.0,12.0,0.0
18.0,-9.0,42.0,0.0
6.0,-3.0,14.0,0.0
3.0,-2.0,10.0,0.0
855.0,-346.0,2033.0,0.0
9.0,-4.0,23.0,0.0
6.0,-2.0,15.0,0.0
15.0,-5.0,38.0,0.0
9.0,-2.0,22.0,0.0
12.0,-3.0,30.0,0.0
18.0,-4.0,43.0,0.0
12.0,-3.0,32.0,0.0
9.0,-1.0,22.0,0.0
14.0,-2.0,35.0,0.0
15.0,-2.0,37.0,0.0
15.0,-2.0,37.0,0.0
18.0,-1.0,44.0,0.0
20.0,0.0,50.0,0.0
21.0,0.0,54.0,0.0
24.0,0.0,60.0,0.0
26.0,0.0,65.0,0.0
26.0,1.0,64.0,0.0
26.0,1.0,65.0,0.0
26.0,2.0,65.0,0.0
26.0,4.0,64.0,0.0
27.0,5.0,69.0,0.0
26.0,5.0,66.0,0.0
28.0,7.0,72.0,0.0
29.0,8.0,76.0,0.0
31.0,9.0,80.0,0.0
38.0,12.0,99.0,0.0
38.0,14.0,98.0,0.0
37.0,14.0,95.0,0.0
35.0,15.0,92.0,0.0
38.0,17.0,99.0,0.0
40.0,20.0,102.0,0.0
43.0,22.0,110.0,0.0
41.0,23.0,106.0,0.0
39.0,23.0,101.0,0.0
43.0,27.0,111.0,0.0
42.0,27.0,109.0,0.0
45.0,30.0,116.0,0.0
43.0,31.0,112.0,0.0
39.0,29.0,101.0,0.0
46.0,36.0,120.0,0.0
44.0,36.0,114.0,0.0
47.0,39.0,120.0,0.0
42.0,38.0,110.0,0.0
43.0,40.0,113.0,0.0
45.0,43.0,118.0,0.0
44.0,44.0,114.0,0.0
42.0,43.0,111.0,0.0
39.0,43.0,105.0,0.0
38.0,43.0,101.0,0.0
41.0,46.0,107.0,0.0
38.0,45.0,102.0,0.0
40.0,49.0,105.0,0.0
38.0,48.0,101.0,0.0
34.0,44.0,91.0,0.0
35.0,48.0,96.0,0.0
39.0,54.0,104.0,0.0
37.0,52.0,97.0,0.0
37.0,54.0,99.0,0.0
34.0,52.0,93.0,0.0
36.0,55.0,96.0,0.0
37.0,59.0,100.0,0.0
34.0,57.0,94.0,0.0
34.0,57.0,92.0,0.0
36.0,64.0,99.0,0.0
38.0,66.0,101.0,0.0
41.0,74.0,109.0,0.0
36.0,68.0,100.0,0.0
36.0,69.0,98.0,0.0
38.0,75.0,105.0,0.0
36.0,73.0,98.0,0.0
37.0,77.0,101.0,0.0
38.0,79.0,103.0,0.0
37.0,80.0,102.0,0.0
39.0,84.0,104.0,0.0
39.0,87.0,107.0,0.0
37.0,86.0,102.0,0.0
40.0,93.0,108.0,0.0
40.0,97.0,109.0,0.0
43.0,105.0,116.0,0.0
42.0,105.0,113.0,0.0
40.0,105.0,110.0,0.0
42.0,112.0,116.0,0.0
44.0,120.0,122.0,0.0
45.0,124.0,123.0,0.0
43.0,123.0,119.0,0.0
41.0,119.0,112.0,0.0
43.0,125.0,116.0,0.0
45.0,134.0,122.0,0.0
46.0,142.0,126.0,0.0
43.0,137.0,119.0,0.0
64.0,-272.0,71.0,0.0
66.0,-277.0,75.0,0.0
67.0,-281.0,79.0,0.0
67.0,-277.0,81.0,0.0
68.0,-274.0,83.0,0.0
69.0,-275.0,87.0,0.0
71.0,-277.0,91.0,0.0
71.0,-272.0,93.0,0.0
74.0,-279.0,98.0,0.0
74.0,-277.0,101.0,0.0
74.0,-274.0,104.0,0.0
75.0,-270.0,106.0,0.0
77.0,-275.0,111.0,0.0
78.0,-271.0,113.0,0.0
78.0,-268.0,115.0,0.0
79.0,-271.0,120.0,0.0
80.0,-267.0,122.0,0.0
80.0,-266.0,125.0,0.0
83.0,-270.0,131.0,0.0
83.0,-264.0,130.0,0.0
81.0,-255.0,130.0,0.0
84.0,-259.0,135.0,0.0
86.0,-262.0,140.0,0.0
85.0,-254.0,139.0,0.0
88.0,-260.0,148.0,0.0
96.0,-277.0,161.0,0.0
94.0,-270.0,161.0,0.0
89.0,-250.0,153.0,0.0
85.0,-236.0,148.0,0.0
82.0,-224.0,144.0,0.0
82.0,-220.0,144.0,0.0
76.0,-202.0,136.0,0.0
69.0,-181.0,125.0,0.0
66.0,-170.0,121.0,0.0
65.0,-167.0,121.0,0.0
62.0,-155.0,115.0,0.0
64.0,-157.0,120.0,0.0
51.0,-123.0,96.0,0.0
61.0,-146.0,117.0,0.0
51.0,-118.0,96.0,0.0
47.0,-109.0,91.0,0.0
49.0,-110.0,94.0,0.0
43.0,-97.0,85.0,0.0
38.0,-84.0,75.0,0.0
35.0,-77.0,71.0,0.0
9764.0,-20572.0,19221.0,0.0
36.0,-76.0,74.0,0.0
36.0,-74.0,73.0,0.0
9713.0,-19458.0,19469.0,0.0
9688.0,-19081.0,19532.0,0.0
9679.0,-18738.0,19626.0,0.0
9647.0,-18353.0,19669.0,0.0
9641.0,-18023.0,19764.0,0.0
9605.0,-17638.0,19793.0,0.0
9617.0,-17346.0,19921.0,0.0
9590.0,-16988.0,19967.0,0.0
9598.0,-16693.0,20085.0,0.0
9704.0,-16567.0,20407.0,0.0
9995.0,-16746.0,21119.0,0.0
10139.0,-16669.0,21528.0,0.0
10399.0,-16768.0,22180.0,0.0
12612.0,-19946.0,27025.0,1.0
826.0,-1281.0,1779.0,0.0
12828.0,-19492.0,27731.0,1.0
12886.0,-19185.0,27976.0,1.0
826.0,-1205.0,1804.0,0.0
827.0,-1181.0,1811.0,0.0
817.0,-1143.0,1798.0,0.0
822.0,-1124.0,1816.0,0.0
829.0,-1110.0,1840.0,0.0
830.0,-1086.0,1849.0,0.0
821.0,-1049.0,1835.0,0.0
816.0,-1018.0,1829.0,0.0
845.0,-1031.0,1904.0,0.0
831.0,-990.0,1879.0,0.0
842.0,-978.0,1912.0,0.0
839.0,-949.0,1910.0,0.0
838.0,-925.0,1916.0,0.0
848.0,-911.0,1945.0,0.0
843.0,-881.0,1939.0,0.0
845.0,-858.0,1950.0,0.0
0.0,0.0,0.0,0.0
841.0,-805.0,1953.0,0.0
842.0,-782.0,1961.0,0.0
842.0,-759.0,1969.0,0.0
828.0,-722.0,1941.0,0.0
841.0,-710.0,1980.0,0.0
854.0,-696.0,2015.0,0.0
867.0,-682.0,2052.0,0.0
873.0,-661.0,2071.0,0.0
848.0,-619.0,2018.0,0.0
834.0,-585.0,1990.0,0.0
851.0,-573.0,2036.0,0.0
844.0,-544.0,2026.0,0.0
844.0,-519.0,2032.0,0.0
853.0,-501.0,2060.0,0.0
849.0,-474.0,2055.0,0.0
839.0,-446.0,2035.0,0.0
845.0,-425.0,2055.0,0.0
1.0,-1.0,6.0,0.0
1.0,0.0,3.0,0.0
3.0,-2.0,9.0,0.0
6.0,-2.0,16.0,0.0
0.0,0.0,0.0,0.0
4.0,-1.0,11.0,0.0
3.0,-1.0,8.0,0.0
1.0,-1.0,4.0,0.0
7.0,-2.0,21.0,0.0
7.0,-2.0,21.0,0.0
6.0,-1.0,15.0,0.0
14.0,-3.0,37.0,0.0
7.0,-1.0,21.0,0.0
14.0,-2.0,38.0,0.0
19.0,-1.0,50.0,0.0
13.0,0.0,36.0,0.0
13.0,0.0,36.0,0.0
16.0,0.0,43.0,0.0
16.0,0.0,43.0,0.0
21.0,1.0,54.0,0.0
19.0,1.0,49.0,0.0
20.0,2.0,54.0,0.0
18.0,2.0,47.0,0.0
23.0,4.0,62.0,0.0
21.0,4.0,56.0,0.0
25.0,6.0,68.0,0.0
21.0,6.0,54.0,0.0
27.0,8.0,70.0,0.0
31.0,11.0,82.0,0.0
30.0,11.0,78.0,0.0
31.0,13.0,83.0,0.0
31.0,13.0,81.0,0.0
33.0,15.0,86.0,0.0
34.0,18.0,93.0,0.0
33.0,17.0,86.0,0.0
31.0,17.0,82.0,0.0
36.0,21.0,94.0,0.0
36.0,22.0,95.0,0.0
34.0,24.0,94.0,0.0
36.0,25.0,96.0,0.0
36.0,26.0,95.0,0.0
40.0,31.0,108.0,0.0
34.0,28.0,93.0,0.0
38.0,32.0,103.0,0.0
37.0,32.0,101.0,0.0
36.0,34.0,99.0,0.0
38.0,36.0,102.0,0.0
42.0,42.0,116.0,0.0
38.0,39.0,104.0,0.0
37.0,40.0,101.0,0.0
33.0,36.0,90.0,0.0
30.0,35.0,84.0,0.0
33.0,39.0,91.0,0.0
34.0,41.0,94.0,0.0
29.0,37.0,81.0,0.0
32.0,42.0,89.0,0.0
28.0,37.0,75.0,0.0
31.0,42.0,84.0,0.0
32.0,45.0,89.0,0.0
31.0,46.0,87.0,0.0
34.0,51.0,94.0,0.0
33.0,50.0,91.0,0.0
29.0,46.0,81.0,0.0
30.0,49.0,85.0,0.0
28.0,48.0,79.0,0.0
30.0,51.0,82.0,0.0
33.0,58.0,91.0,0.0
30.0,56.0,86.0,0.0
32.0,60.0,89.0,0.0
30.0,58.0,86.0,0.0
29.0,57.0,82.0,0.0
31.0,62.0,87.0,0.0
32.0,68.0,93.0,0.0
32.0,68.0,92.0,0.0
33.0,72.0,93.0,0.0
34.0,75.0,96.0,0.0
32.0,73.0,91.0,0.0
36.0,83.0,100.0,0.0
36.0,86.0,103.0,0.0
37.0,91.0,105.0,0.0
36.0,90.0,103.0,0.0
35.0,91.0,101.0,0.0
37.0,95.0,104.0,0.0
38.0,101.0,108.0,0.0
39.0,105.0,110.0,0.0
41.0,112.0,114.0,0.0
41.0,117.0,117.0,0.0
41.0,120.0,117.0,0.0
38.0,115.0,110.0,0.0
40.0,120.0,112.0,0.0
40.0,126.0,116.0,0.0
42.0,136.0,121.0,0.0
41.0,134.0,117.0,0.0
62.0,-279.0,73.0,0.0
63.0,-278.0,76.0,0.0
66.0,-284.0,81.0,0.0
64.0,-276.0,82.0,0.0
68.0,-285.0,88.0,0.0
68.0,-284.0,91.0,0.0
68.0,-277.0,92.0,0.0
69.0,-278.0,96.0,0.0
70.0,-276.0,98.0,0.0
73.0,-282.0,104.0,0.0
71.0,-271.0,104.0,0.0
74.0,-276.0,109.0,0.0
74.0,-271.0,110.0,0.0
77.0,-277.0,116.0,0.0
76.0,-271.0,118.0,0.0
76.0,-269.0,119.0,0.0
76.0,-265.0,121.0,0.0
79.0,-269.0,127.0,0.0
80.0,-267.0,129.0,0.0
82.0,-271.0,135.0,0.0
80.0,-259.0,133.0,0.0
82.0,-263.0,139.0,0.0
84.0,-264.0,143.0,0.0
82.0,-254.0,141.0,0.0
88.0,-267.0,152.0,0.0
91.0,-272.0,159.0,0.0
91.0,-270.0,161.0,0.0
88.0,-257.0,158.0,0.0
84.0,-242.0,153.0,0.0
79.0,-223.0,144.0,0.0
79.0,-219.0,145.0,0.0
71.0,-193.0,131.0,0.0
68.0,-183.0,128.0,0.0
68.0,-181.0,128.0,0.0
60.0,-159.0,116.0,0.0
63.0,-164.0,122.0,0.0
58.0,-150.0,114.0,0.0
55.0,-137.0,108.0,0.0
49.0,-121.0,97.0,0.0
49.0,-117.0,97.0,0.0
46.0,-109.0,91.0,0.0
47.0,-112.0,96.0,0.0
44.0,-101.0,89.0,0.0
43.0,-97.0,87.0,0.0
42.0,-95.0,87.0,0.0
35.0,-78.0,73.0,0.0
32.0,-70.0,67.0,0.0
9403.0,-19765.0,19407.0,0.0
9373.0,-19370.0,19457.0,0.0
9368.0,-19030.0,19557.0,0.0
9340.0,-18649.0,19608.0,0.0
9328.0,-18301.0,19687.0,0.0
9329.0,-17984.0,19795.0,0.0
9301.0,-17613.0,19837.0,0.0
9299.0,-17296.0,19935.0,0.0
9281.0,-16952.0,19997.0,0.0
9288.0,-16655.0,20110.0,0.0
9384.0,-16516.0,20413.0,0.0
9662.0,-16688.0,21119.0,0.0
9837.0,-16672.0,21604.0,0.0
10120.0,-16823.0,22325.0,0.0
795.0,-1295.0,1762.0,0.0
797.0,-1275.0,1776.0,0.0
799.0,-1253.0,1788.0,0.0
793.0,-1218.0,1782.0,0.0
12619.0,-18968.0,28444.0,1.0
799.0,-1176.0,1810.0,0.0
814.0,-1173.0,1850.0,0.0
817.0,-1153.0,1866.0,0.0
0.0,0.0,0.0,0.0
13010.0,-17537.0,29910.0,1.0
813.0,-1073.0,1879.0,0.0
824.0,-1061.0,1911.0,0.0
809.0,-1017.0,1882.0,0.0
818.0,-1004.0,1910.0,0.0
811.0,-971.0,1902.0,0.0
816.0,-952.0,1919.0,0.0
810.0,-921.0,1912.0,0.0
802.0,-887.0,1899.0,0.0
811.0,-873.0,1927.0,0.0
808.0,-846.0,1927.0,0.0
0.0,0.0,0.0,0.0
810.0,-800.0,1942.0,0.0
807.0,-773.0,1943.0,0.0
814.0,-756.0,1965.0,0.0
835.0,-751.0,2021.0,0.0
826.0,-719.0,2007.0,0.0
829.0,-697.0,2020.0,0.0
841.0,-682.0,2055.0,0.0
825.0,-645.0,2023.0,0.0
832.0,-626.0,2046.0,0.0
832.0,-602.0,2052.0,0.0
807.0,-560.0,1992.0,0.0
835.0,-555.0,2069.0,0.0
820.0,-521.0,2038.0,0.0
815.0,-494.0,2032.0,0.0
825.0,-475.0,2059.0,0.0
818.0,-449.0,2049.0,0.0
804.0,-418.0,2017.0,0.0
825.0,-404.0,2075.0,0.0
821.0,-378.0,2070.0,0.0
820.0,-354.0,2074.0,0.0
0.0,0.0,0.0,0.0
0.0,0.0,0.0,0.0
10.0,-3.0,26.0,0.0
0.0,0.0,0.0,0.0
7.0,-2.0,18.0,0.0
8.0,-2.0,22.0,0.0
9.0,-2.0,25.0,0.0
11.0,-3.0,32.0,0.0
7.0,-2.0,18.0,0.0
11.0,-1.0,31.0,0.0
12.0,-1.0,34.0,0.0
17.0,-1.0,44.0,0.0
14.0,-1.0,39.0,0.0
16.0,0.0,43.0,0.0
23.0,0.0,63.0,0.0
18.0,0.0,50.0,0.0
14.0,0.0,39.0,0.0
17.0,1.0,48.0,0.0
17.0,1.0,48.0,0.0
26.0,3.0,69.0,0.0
17.0,2.0,46.0,0.0
22.0,5.0,60.0,0.0
19.0,4.0,52.0,0.0
23.0,6.0,62.0,0.0
26.0,8.0,69.0,0.0
23.0,8.0,64.0,0.0
26.0,9.0,72.0,0.0
32.0,13.0,88.0,0.0
30.0,13.0,82.0,0.0
34.0,16.0,94.0,0.0
34.0,17.0,95.0,0.0
33.0,19.0,93.0,0.0
38.0,22.0,105.0,0.0
34.0,21.0,94.0,0.0
35.0,23.0,97.0,0.0
38.0,26.0,105.0,0.0
40.0,29.0,112.0,0.0
42.0,32.0,116.0,0.0
38.0,30.0,107.0,0.0
38.0,31.0,104.0,0.0
39.0,34.0,111.0,0.0
38.0,34.0,105.0,0.0
39.0,37.0,109.0,0.0
38.0,37.0,105.0,0.0
39.0,40.0,111.0,0.0
38.0,39.0,106.0,0.0
41.0,45.0,117.0,0.0
34.0,39.0,97.0,0.0
35.0,42.0,102.0,0.0
36.0,43.0,102.0,0.0
32.0,41.0,93.0,0.0
31.0,40.0,89.0,0.0
31.0,42.0,90.0,0.0
33.0,45.0,93.0,0.0
30.0,43.0,86.0,0.0
31.0,45.0,89.0,0.0
33.0,50.0,95.0,0.0
31.0,48.0,90.0,0.0
28.0,46.0,82.0,0.0
32.0,52.0,91.0,0.0
30.0,51.0,86.0,0.0
32.0,56.0,94.0,0.0
31.0,55.0,90.0,0.0
32.0,58.0,92.0,0.0
32.0,62.0,95.0,0.0
32.0,63.0,95.0,0.0
32.0,64.0,94.0,0.0
34.0,69.0,99.0,0.0
32.0,68.0,95.0,0.0
33.0,70.0,96.0,0.0
31.0,68.0,90.0,0.0
33.0,74.0,97.0,0.0
31.0,71.0,92.0,0.0
34.0,81.0,101.0,0.0
33.0,79.0,96.0,0.0
35.0,87.0,104.0,0.0
34.0,86.0,100.0,0.0
36.0,94.0,107.0,0.0
35.0,93.0,105.0,0.0
36.0,98.0,106.0,0.0
37.0,101.0,108.0,0.0
36.0,103.0,107.0,0.0
38.0,110.0,112.0,0.0
38.0,114.0,114.0,0.0
36.0,112.0,110.0,0.0
38.0,115.0,111.0,0.0
39.0,124.0,116.0,0.0
39.0,127.0,116.0,0.0
39.0,130.0,117.0,0.0
39.0,134.0,118.0,0.0
59.0,-279.0,74.0,0.0
58.0,-268.0,74.0,0.0
61.0,-277.0,80.0,0.0
61.0,-270.0,81.0,0.0
62.0,-271.0,84.0,0.0
62.0,-268.0,87.0,0.0
65.0,-276.0,93.0,0.0
64.0,-266.0,93.0,0.0
65.0,-266.0,95.0,0.0
67.0,-270.0,100.0,0.0
67.0,-267.0,102.0,0.0
68.0,-263.0,105.0,0.0
71.0,-270.0,111.0,0.0
71.0,-265.0,112.0,0.0
70.0,-261.0,114.0,0.0
73.0,-266.0,120.0,0.0
73.0,-263.0,121.0,0.0
73.0,-258.0,122.0,0.0
76.0,-263.0,128.0,0.0
75.0,-258.0,129.0,0.0
77.0,-258.0,133.0,0.0
75.0,-251.0,133.0,0.0
78.0,-254.0,138.0,0.0
79.0,-254.0,142.0,0.0
85.0,-268.0,154.0,0.0
85.0,-264.0,156.0,0.0
83.0,-255.0,153.0,0.0
80.0,-241.0,149.0,0.0
78.0,-231.0,146.0,0.0
74.0,-217.0,141.0,0.0
69.0,-197.0,131.0,0.0
67.0,-191.0,130.0,0.0
60.0,-169.0,118.0,0.0
60.0,-165.0,118.0,0.0
54.0,-146.0,107.0,0.0
56.0,-149.0,112.0,0.0
49.0,-128.0,99.0,0.0
51.0,-132.0,103.0,0.0
46.0,-119.0,96.0,0.0
41.0,-103.0,85.0,0.0
46.0,-114.0,96.0,0.0
43.0,-106.0,90.0,0.0
34.0,-82.0,73.0,0.0
40.0,-94.0,85.0,0.0
35.0,-82.0,76.0,0.0
31.0,-71.0,67.0,0.0
30.0,-67.0,64.0,0.0
9070.0,-19689.0,19409.0,0.0
9052.0,-19315.0,19478.0,0.0
9043.0,-18966.0,19566.0,0.0
9020.0,-18591.0,19620.0,0.0
9017.0,-18263.0,19719.0,0.0
8995.0,-17900.0,19773.0,0.0
8986.0,-17565.0,19854.0,0.0
8964.0,-17210.0,19905.0,0.0
8954.0,-16879.0,19980.0,0.0
8963.0,-16586.0,20094.0,0.0
9096.0,-16519.0,20487.0,0.0
9328.0,-16626.0,21108.0,0.0
9518.0,-16643.0,21635.0,0.0
9805.0,-16816.0,22387.0,0.0
760.0,-1278.0,1743.0,0.0
11932.0,-19672.0,27481.0,1.0
770.0,-1245.0,1783.0,0.0
772.0,-1223.0,1795.0,0.0
767.0,-1190.0,1791.0,0.0
782.0,-1188.0,1834.0,0.0
780.0,-1160.0,1836.0,0.0
786.0,-1143.0,1857.0,0.0
769.0,-1094.0,1822.0,0.0
788.0,-1096.0,1876.0,0.0
790.0,-1075.0,1889.0,0.0
774.0,-1027.0,1856.0,0.0
766.0,-994.0,1844.0,0.0
12726.0,-16097.0,30701.0,1.0
798.0,-985.0,1933.0,0.0
800.0,-962.0,1945.0,0.0
796.0,-933.0,1943.0,0.0
794.0,-907.0,1945.0,0.0
798.0,-887.0,1960.0,0.0
793.0,-857.0,1954.0,0.0
801.0,-841.0,1979.0,0.0
797.0,-813.0,1977.0,0.0
811.0,-802.0,2017.0,0.0
776.0,-743.0,1935.0,0.0
791.0,-734.0,1980.0,0.0
790.0,-709.0,1982.0,0.0
800.0,-694.0,2014.0,0.0
795.0,-666.0,2007.0,0.0
800.0,-646.0,2027.0,0.0
783.0,-608.0,1989.0,0.0
808.0,-603.0,2058.0,0.0
816.0,-584.0,2083.0,0.0
822.0,-564.0,2105.0,0.0
800.0,-525.0,2054.0,0.0
801.0,-502.0,2063.0,0.0
792.0,-472.0,2044.0,0.0
797.0,-452.0,2062.0,0.0
783.0,-420.0,2030.0,0.0
0.0,0.0,0.0,0.0
7.0,-4.0,21.0,0.0
0.0,0.0,0.0,0.0
3.0,-2.0,9.0,0.0
1.0,-1.0,5.0,0.0
7.0,-3.0,21.0,0.0
7.0,-2.0,21.0,0.0
3.0,-1.0,9.0,0.0
3.0,-1.0,9.0,0.0
1.0,-1.0,6.0,0.0
5.0,-1.0,17.0,0.0
0.0,0.0,0.0,0.0
9.0,-2.0,27.0,0.0
13.0,-2.0,37.0,0.0
14.0,-1.0,39.0,0.0
8.0,0.0,26.0,0.0
13.0,0.0,38.0,0.0
15.0,0.0,42.0,0.0
15.0,0.0,42.0,0.0
15.0,0.0,42.0,0.0
15.0,1.0,44.0,0.0
16.0,1.0,47.0,0.0
25.0,3.0,68.0,0.0
18.0,3.0,50.0,0.0
15.0,3.0,45.0,0.0
22.0,6.0,64.0,0.0
23.0,6.0,66.0,0.0
26.0,8.0,75.0,0.0
26.0,9.0,74.0,0.0
26.0,10.0,74.0,0.0
26.0,11.0,74.0,0.0
30.0,13.0,85.0,0.0
28.0,14.0,80.0,0.0
33.0,18.0,96.0,0.0
29.0,16.0,82.0,0.0
30.0,18.0,87.0,0.0
29.0,19.0,85.0,0.0
32.0,21.0,91.0,0.0
31.0,21.0,87.0,0.0
32.0,23.0,91.0,0.0
34.0,26.0,98.0,0.0
36.0,30.0,105.0,0.0
39.0,33.0,112.0,0.0
34.0,31.0,100.0,0.0
35.0,33.0,104.0,0.0
33.0,32.0,96.0,0.0
34.0,34.0,98.0,0.0
33.0,35.0,96.0,0.0
31.0,34.0,91.0,0.0
31.0,35.0,90.0,0.0
31.0,37.0,91.0,0.0
30.0,36.0,86.0,0.0
30.0,37.0,86.0,0.0
27.0,36.0,81.0,0.0
28.0,37.0,83.0,0.0
28.0,38.0,83.0,0.0
29.0,41.0,85.0,0.0
27.0,41.0,83.0,0.0
30.0,45.0,88.0,0.0
28.0,43.0,84.0,0.0
27.0,43.0,81.0,0.0
29.0,48.0,86.0,0.0
25.0,43.0,75.0,0.0
30.0,52.0,90.0,0.0
26.0,48.0,80.0,0.0
28.0,51.0,84.0,0.0
28.0,54.0,86.0,0.0
26.0,52.0,81.0,0.0
27.0,54.0,82.0,0.0
28.0,58.0,86.0,0.0
27.0,56.0,81.0,0.0
30.0,66.0,93.0,0.0
28.0,62.0,86.0,0.0
28.0,65.0,88.0,0.0
27.0,63.0,82.0,0.0
30.0,72.0,93.0,0.0
29.0,70.0,88.0,0.0
29.0,73.0,89.0,0.0
30.0,76.0,92.0,0.0
32.0,85.0,100.0,0.0
32.0,88.0,101.0,0.0
34.0,91.0,103.0,0.0
34.0,97.0,106.0,0.0
33.0,96.0,103.0,0.0
33.0,98.0,103.0,0.0
36.0,107.0,110.0,0.0
35.0,108.0,108.0,0.0
33.0,106.0,105.0,0.0
35.0,113.0,109.0,0.0
35.0,116.0,110.0,0.0
35.0,117.0,108.0,0.0
36.0,124.0,112.0,0.0
36.0,127.0,112.0,0.0
58.0,-284.0,76.0,0.0
58.0,-277.0,78.0,0.0
60.0,-283.0,82.0,0.0
60.0,-279.0,84.0,0.0
61.0,-280.0,88.0,0.0
63.0,-283.0,92.0,0.0
64.0,-281.0,95.0,0.0
65.0,-281.0,98.0,0.0
65.0,-274.0,99.0,0.0
66.0,-275.0,104.0,0.0
66.0,-272.0,105.0,0.0
68.0,-278.0,111.0,0.0
68.0,-274.0,113.0,0.0
69.0,-271.0,115.0,0.0
69.0,-268.0,118.0,0.0
72.0,-273.0,123.0,0.0
73.0,-271.0,126.0,0.0
72.0,-265.0,126.0,0.0
74.0,-269.0,133.0,0.0
75.0,-266.0,134.0,0.0
75.0,-263.0,137.0,0.0
76.0,-263.0,140.0,0.0
80.0,-272.0,149.0,0.0
83.0,-278.0,156.0,0.0
83.0,-272.0,157.0,0.0
81.0,-261.0,155.0,0.0
80.0,-254.0,154.0,0.0
75.0,-237.0,148.0,0.0
71.0,-218.0,138.0,0.0
71.0,-214.0,140.0,0.0
61.0,-183.0,122.0,0.0
59.0,-173.0,119.0,0.0
62.0,-178.0,124.0,0.0
56.0,-159.0,114.0,0.0
54.0,-153.0,113.0,0.0
56.0,-154.0,116.0,0.0
56.0,-151.0,116.0,0.0
50.0,-135.0,106.0,0.0
48.0,-127.0,102.0,0.0
50.0,-128.0,106.0,0.0
40.0,-104.0,87.0,0.0
43.0,-110.0,95.0,0.0
40.0,-100.0,88.0,0.0
33.0,-80.0,72.0,0.0
38.0,-91.0,84.0,0.0
37.0,-87.0,82.0,0.0
8768.0,-20014.0,19361.0,0.0
8752.0,-19638.0,19433.0,0.0
8732.0,-19260.0,19495.0,0.0
8721.0,-18905.0,19574.0,0.0
8692.0,-18517.0,19613.0,0.0
8692.0,-18191.0,19711.0,0.0
8684.0,-17855.0,19793.0,0.0
8674.0,-17518.0,19869.0,0.0
8667.0,-17188.0,19948.0,0.0
8665.0,-16873.0,20039.0,0.0
8661.0,-16555.0,20123.0,0.0
8814.0,-16537.0,20574.0,0.0
9017.0,-16599.0,21141.0,0.0
9235.0,-16677.0,21748.0,0.0
9506.0,-16837.0,22485.0,0.0
749.0,-1302.0,1782.0,0.0
744.0,-1268.0,1777.0,0.0
11585.0,-19329.0,27750.0,1.0
759.0,-1241.0,1827.0,0.0
759.0,-1215.0,1834.0,0.0
770.0,-1207.0,1868.0,0.0
753.0,-1157.0,1835.0,0.0
756.0,-1134.0,1847.0,0.0
767.0,-1128.0,1883.0,0.0
772.0,-1110.0,1903.0,0.0
745.0,-1045.0,1841.0,0.0
773.0,-1059.0,1917.0,0.0
764.0,-1024.0,1905.0,0.0
756.0,-988.0,1890.0,0.0
758.0,-967.0,1902.0,0.0
767.0,-953.0,1929.0,0.0
771.0,-932.0,1945.0,0.0
777.0,-916.0,1969.0,0.0
761.0,-872.0,1933.0,0.0
772.0,-861.0,1967.0,0.0
758.0,-821.0,1939.0,0.0
791.0,-832.0,2030.0,0.0
767.0,-783.0,1973.0,0.0
768.0,-759.0,1980.0,0.0
782.0,-749.0,2025.0,0.0
774.0,-717.0,2009.0,0.0
783.0,-701.0,2038.0,0.0
777.0,-671.0,2028.0,0.0
783.0,-652.0,2049.0,0.0
784.0,-629.0,2061.0,0.0
784.0,-605.0,2065.0,0.0
777.0,-575.0,2053.0,0.0
775.0,-549.0,2049.0,0.0
783.0,-531.0,2079.0,0.0
775.0,-502.0,2063.0,0.0
784.0,-482.0,2091.0,0.0
763.0,-447.0,2039.0,0.0
792.0,-440.0,2126.0,0.0
3.0,-2.0,10.0,0.0
0.0,0.0,0.0,0.0
10.0,-5.0,28.0,0.0
8.0,-4.0,25.0,0.0
4.0,-1.0,13.0,0.0
750.0,-277.0,2040.0,0.0
1.0,-1.0,6.0,0.0
5.0,-2.0,17.0,0.0
2.0,-1.0,9.0,0.0
4.0,-2.0,14.0,0.0
6.0,-1.0,21.0,0.0
5.0,-1.0,18.0,0.0
8.0,-1.0,25.0,0.0
10.0,-1.0,30.0,0.0
14.0,-1.0,41.0,0.0
9.0,-1.0,27.0,0.0
16.0,0.0,45.0,0.0
12.0,0.0,36.0,0.0
13.0,0.0,39.0,0.0
12.0,0.0,34.0,0.0
18.0,1.0,54.0,0.0
21.0,2.0,61.0,0.0
17.0,3.0,51.0,0.0
17.0,3.0,51.0,0.0
21.0,5.0,63.0,0.0
24.0,6.0,72.0,0.0
20.0,6.0,60.0,0.0
24.0,8.0,72.0,0.0
27.0,10.0,79.0,0.0
25.0,10.0,74.0,0.0
28.0,12.0,85.0,0.0
25.0,12.0,74.0,0.0
27.0,14.0,81.0,0.0
31.0,17.0,91.0,0.0
31.0,18.0,91.0,0.0
30.0,19.0,90.0,0.0
28.0,19.0,85.0,0.0
31.0,21.0,91.0,0.0
34.0,24.0,100.0,0.0
34.0,25.0,100.0,0.0
34.0,26.0,100.0,0.0
37.0,30.0,109.0,0.0
35.0,30.0,105.0,0.0
37.0,34.0,110.0,0.0
35.0,34.0,107.0,0.0
37.0,36.0,111.0,0.0
36.0,38.0,109.0,0.0
37.0,40.0,112.0,0.0
35.0,39.0,107.0,0.0
33.0,38.0,100.0,0.0
34.0,42.0,104.0,0.0
32.0,40.0,98.0,0.0
31.0,41.0,95.0,0.0
30.0,40.0,91.0,0.0
33.0,45.0,100.0,0.0
30.0,44.0,95.0,0.0
32.0,48.0,100.0,0.0
29.0,45.0,91.0,0.0
30.0,47.0,93.0,0.0
29.0,49.0,92.0,0.0
29.0,49.0,91.0,0.0
28.0,48.0,86.0,0.0
26.0,47.0,83.0,0.0
29.0,54.0,93.0,0.0
30.0,56.0,94.0,0.0
29.0,57.0,93.0,0.0
29.0,57.0,91.0,0.0
31.0,63.0,98.0,0.0
31.0,64.0,97.0,0.0
30.0,64.0,94.0,0.0
31.0,67.0,98.0,0.0
30.0,66.0,93.0,0.0
30.0,68.0,94.0,0.0
30.0,72.0,97.0,0.0
29.0,69.0,92.0,0.0
30.0,73.0,94.0,0.0
28.0,70.0,89.0,0.0
30.0,79.0,98.0,0.0
32.0,84.0,102.0,0.0
32.0,88.0,103.0,0.0
32.0,89.0,103.0,0.0
34.0,95.0,108.0,0.0
33.0,96.0,106.0,0.0
32.0,96.0,104.0,0.0
34.0,103.0,109.0,0.0
34.0,108.0,112.0,0.0
35.0,113.0,113.0,0.0
35.0,115.0,114.0,0.0
33.0,114.0,111.0,0.0
33.0,113.0,108.0,0.0
34.0,121.0,112.0,0.0
34.0,121.0,109.0,0.0
34.0,129.0,114.0,0.0
54.0,-275.0,74.0,0.0
55.0,-278.0,78.0,0.0
55.0,-271.0,79.0,0.0
56.0,-268.0,82.0,0.0
57.0,-268.0,85.0,0.0
57.0,-264.0,87.0,0.0
59.0,-272.0,93.0,0.0
58.0,-262.0,92.0,0.0
61.0,-270.0,99.0,0.0
61.0,-266.0,101.0,0.0
61.0,-263.0,102.0,0.0
63.0,-267.0,107.0,0.0
63.0,-262.0,108.0,0.0
65.0,-267.0,114.0,0.0
66.0,-265.0,117.0,0.0
66.0,-259.0,118.0,0.0
66.0,-258.0,120.0,0.0
68.0,-260.0,126.0,0.0
68.0,-258.0,127.0,0.0
71.0,-261.0,133.0,0.0
71.0,-259.0,135.0,0.0
70.0,-252.0,135.0,0.0
72.0,-256.0,140.0,0.0
76.0,-262.0,148.0,0.0
74.0,-254.0,147.0,0.0
74.0,-248.0,147.0,0.0
72.0,-241.0,147.0,0.0
68.0,-224.0,140.0,0.0
67.0,-214.0,137.0,0.0
65.0,-204.0,134.0,0.0
61.0,-191.0,128.0,0.0
53.0,-161.0,111.0,0.0
57.0,-172.0,121.0,0.0
54.0,-158.0,114.0,0.0
52.0,-153.0,113.0,0.0
47.0,-134.0,101.0,0.0
45.0,-128.0,99.0,0.0
44.0,-124.0,98.0,0.0
39.0,-104.0,85.0,0.0
37.0,-101.0,84.0,0.0
32.0,-85.0,72.0,0.0
37.0,-98.0,85.0,0.0
34.0,-88.0,79.0,0.0
25.0,-64.0,59.0,0.0
31.0,-78.0,72.0,0.0
8447.0,-20296.0,19268.0,0.0
8439.0,-19934.0,19356.0,0.0
8431.0,-19577.0,19444.0,0.0
8405.0,-19183.0,19487.0,0.0
8388.0,-18812.0,19549.0,0.0
8384.0,-18476.0,19638.0,0.0
8381.0,-18144.0,19728.0,0.0
8384.0,-17831.0,19834.0,0.0
8375.0,-17494.0,19909.0,0.0
8343.0,-17111.0,19926.0,0.0
8355.0,-16824.0,20047.0,0.0
8347.0,-16499.0,20118.0,0.0
8551.0,-16588.0,20705.0,0.0
8703.0,-16566.0,21165.0,0.0
8927.0,-16668.0,21803.0,0.0
9167.0,-16788.0,22486.0,0.0
714.0,-1283.0,1761.0,0.0
11060.0,-19464.0,27350.0,1.0
711.0,-1226.0,1766.0,0.0
727.0,-1231.0,1816.0,0.0
723.0,-1196.0,1809.0,0.0
738.0,-1198.0,1858.0,0.0
743.0,-1178.0,1875.0,0.0
739.0,-1147.0,1871.0,0.0
736.0,-1117.0,1871.0,0.0
743.0,-1103.0,1895.0,0.0
0.0,0.0,0.0,0.0
745.0,-1056.0,1915.0,0.0
0.0,0.0,0.0,0.0
11912.0,-16074.0,30797.0,1.0
743.0,-978.0,1928.0,0.0
758.0,-973.0,1973.0,0.0
736.0,-920.0,1923.0,0.0
747.0,-909.0,1957.0,0.0
0.0,0.0,0.0,0.0
746.0,-860.0,1969.0,0.0
722.0,-808.0,1911.0,0.0
739.0,-803.0,1964.0,0.0
738.0,-778.0,1965.0,0.0
738.0,-755.0,1972.0,0.0
748.0,-741.0,2006.0,0.0
745.0,-714.0,2004.0,0.0
752.0,-696.0,2025.0,0.0
747.0,-667.0,2019.0,0.0
726.0,-625.0,1967.0,0.0
754.0,-626.0,2050.0,0.0
746.0,-595.0,2034.0,0.0
760.0,-582.0,2078.0,0.0
755.0,-554.0,2069.0,0.0
755.0,-530.0,2074.0,0.0
741.0,-496.0,2040.0,0.0
741.0,-473.0,2047.0,0.0
747.0,-454.0,2069.0,0.0
760.0,-437.0,2108.0,0.0
770.0,-418.0,2142.0,0.0
1.0,0.0,3.0,0.0
0.0,0.0,0.0,0.0
4.0,-3.0,13.0,0.0
10.0,-4.0,30.0,0.0
3.0,-1.0,11.0,0.0
0.0,0.0,0.0,0.0
746.0,-237.0,2113.0,0.0
0.0,0.0,2.0,0.0
2.0,0.0,8.0,0.0
6.0,-1.0,21.0,0.0
5.0,-1.0,16.0,0.0
6.0,-1.0,19.0,0.0
2.0,0.0,7.0,0.0
7.0,-1.0,23.0,0.0
10.0,-1.0,29.0,0.0
10.0,-1.0,32.0,0.0
10.0,0.0,30.0,0.0
10.0,0.0,33.0,0.0
15.0,0.0,48.0,0.0
11.0,1.0,36.0,0.0
14.0,1.0,42.0,0.0
14.0,2.0,44.0,0.0
13.0,2.0,39.0,0.0
15.0,3.0,47.0,0.0
19.0,5.0,59.0,0.0
15.0,4.0,47.0,0.0
22.0,7.0,68.0,0.0
22.0,8.0,66.0,0.0
21.0,8.0,62.0,0.0
21.0,9.0,63.0,0.0
20.0,9.0,62.0,0.0
26.0,14.0,81.0,0.0
23.0,12.0,71.0,0.0
26.0,15.0,81.0,0.0
27.0,17.0,86.0,0.0
29.0,20.0,89.0,0.0
32.0,23.0,99.0,0.0
27.0,21.0,87.0,0.0
30.0,24.0,93.0,0.0
30.0,25.0,94.0,0.0
29.0,25.0,89.0,0.0
31.0,29.0,98.0,0.0
29.0,28.0,90.0,0.0
30.0,31.0,95.0,0.0
30.0,32.0,97.0,0.0
31.0,34.0,98.0,0.0
33.0,36.0,102.0,0.0
33.0,38.0,104.0,0.0
32.0,38.0,99.0,0.0
26.0,33.0,83.0,0.0
28.0,37.0,90.0,0.0
25.0,33.0,79.0,0.0
28.0,37.0,87.0,0.0
26.0,37.0,83.0,0.0
25.0,37.0,80.0,0.0
24.0,37.0,78.0,0.0
25.0,39.0,80.0,0.0
24.0,39.0,79.0,0.0
23.0,37.0,74.0,0.0
25.0,43.0,82.0,0.0
25.0,46.0,83.0,0.0
23.0,41.0,74.0,0.0
26.0,48.0,83.0,0.0
25.0,48.0,82.0,0.0
26.0,52.0,85.0,0.0
27.0,54.0,87.0,0.0
26.0,53.0,83.0,0.0
23.0,49.0,76.0,0.0
28.0,62.0,93.0,0.0
25.0,57.0,83.0,0.0
23.0,56.0,80.0,0.0
25.0,60.0,83.0,0.0
26.0,63.0,87.0,0.0
27.0,68.0,90.0,0.0
26.0,67.0,88.0,0.0
26.0,68.0,87.0,0.0
26.0,71.0,89.0,0.0
28.0,76.0,92.0,0.0
28.0,80.0,94.0,0.0
29.0,83.0,97.0,0.0
29.0,86.0,98.0,0.0
28.0,87.0,96.0,0.0
30.0,94.0,102.0,0.0
30.0,97.0,103.0,0.0
30.0,97.0,101.0,0.0
31.0,105.0,106.0,0.0
30.0,104.0,104.0,0.0
30.0,107.0,104.0,0.0
30.0,110.0,106.0,0.0
31.0,113.0,106.0,0.0
31.0,118.0,107.0,0.0
32.0,125.0,113.0,0.0
54.0,-291.0,79.0,0.0
55.0,-288.0,82.0,0.0
56.0,-287.0,85.0,0.0
57.0,-289.0,89.0,0.0
58.0,-290.0,93.0,0.0
58.0,-288.0,95.0,0.0
59.0,-285.0,98.0,0.0
59.0,-283.0,101.0,0.0
62.0,-286.0,106.0,0.0
63.0,-285.0,109.0,0.0
61.0,-275.0,108.0,0.0
64.0,-283.0,114.0,0.0
66.0,-285.0,120.0,0.0
66.0,-283.0,122.0,0.0
66.0,-278.0,123.0,0.0
67.0,-276.0,126.0,0.0
70.0,-281.0,132.0,0.0
69.0,-275.0,134.0,0.0
69.0,-273.0,136.0,0.0
72.0,-278.0,142.0,0.0
73.0,-274.0,144.0,0.0
70.0,-262.0,141.0,0.0
75.0,-278.0,153.0,0.0
79.0,-284.0,162.0,0.0
77.0,-274.0,159.0,0.0
78.0,-271.0,162.0,0.0
72.0,-247.0,152.0,0.0
69.0,-235.0,147.0,0.0
64.0,-214.0,138.0,0.0
65.0,-213.0,140.0,0.0
63.0,-203.0,137.0,0.0
61.0,-192.0,133.0,0.0
52.0,-164.0,116.0,0.0
56.0,-172.0,125.0,0.0
52.0,-156.0,116.0,0.0
52.0,-156.0,118.0,0.0
51.0,-152.0,118.0,0.0
42.0,-123.0,97.0,0.0
45.0,-129.0,105.0,0.0
45.0,-127.0,106.0,0.0
41.0,-111.0,95.0,0.0
37.0,-101.0,88.0,0.0
41.0,-109.0,97.0,0.0
37.0,-97.0,88.0,0.0
36.0,-91.0,85.0,0.0
8137.0,-20263.0,19308.0,0.0
8133.0,-19907.0,19400.0,0.0
8117.0,-19526.0,19463.0,0.0
8102.0,-19157.0,19530.0,0.0
8091.0,-18796.0,19599.0,0.0
8082.0,-18448.0,19676.0,0.0
8073.0,-18103.0,19751.0,0.0
8067.0,-17769.0,19831.0,0.0
8050.0,-17412.0,19882.0,0.0
8007.0,-17004.0,19864.0,0.0
8051.0,-16785.0,20064.0,0.0
8079.0,-16532.0,20224.0,0.0
8262.0,-16589.0,20769.0,0.0
8422.0,-16591.0,21262.0,0.0
8651.0,-16719.0,21934.0,0.0
8878.0,-16825.0,22602.0,0.0
692.0,-1286.0,1770.0,0.0
713.0,-1300.0,1833.0,0.0
695.0,-1242.0,1794.0,0.0
10773.0,-18834.0,27863.0,1.0
707.0,-1212.0,1839.0,0.0
715.0,-1200.0,1867.0,0.0
716.0,-1175.0,1875.0,0.0
717.0,-1152.0,1886.0,0.0
708.0,-1112.0,1866.0,0.0
718.0,-1102.0,1899.0,0.0
716.0,-1075.0,1904.0,0.0
721.0,-1056.0,1921.0,0.0
724.0,-1036.0,1937.0,0.0
732.0,-1022.0,1963.0,0.0
0.0,0.0,0.0,0.0
728.0,-967.0,1967.0,0.0
737.0,-955.0,1999.0,0.0
0.0,0.0,0.0,0.0
739.0,-906.0,2014.0,0.0
0.0,0.0,0.0,0.0
724.0,-838.0,1985.0,0.0
741.0,-833.0,2038.0,0.0
726.0,-791.0,2002.0,0.0
736.0,-779.0,2038.0,0.0
738.0,-756.0,2048.0,0.0
717.0,-710.0,1996.0,0.0
737.0,-707.0,2058.0,0.0
733.0,-678.0,2053.0,0.0
731.0,-652.0,2054.0,0.0
733.0,-629.0,2063.0,0.0
744.0,-614.0,2099.0,0.0
746.0,-591.0,2112.0,0.0
734.0,-558.0,2084.0,0.0
741.0,-539.0,2110.0,0.0
747.0,-518.0,2131.0,0.0
730.0,-482.0,2087.0,0.0
737.0,-463.0,2114.0,0.0
725.0,-432.0,2086.0,0.0
735.0,-414.0,2118.0,0.0
5.0,-3.0,17.0,0.0
752.0,-374.0,2178.0,0.0
6.0,-3.0,21.0,0.0
723.0,-311.0,2105.0,0.0
6.0,-3.0,19.0,0.0
3.0,-1.0,11.0,0.0
5.0,-2.0,15.0,0.0
8.0,-3.0,28.0,0.0
3.0,-1.0,13.0,0.0
6.0,-2.0,19.0,0.0
7.0,-2.0,24.0,0.0
7.0,-2.0,23.0,0.0
8.0,-1.0,29.0,0.0
11.0,-1.0,35.0,0.0
13.0,-1.0,43.0,0.0
12.0,0.0,39.0,0.0
14.0,0.0,44.0,0.0
14.0,0.0,43.0,0.0
15.0,0.0,48.0,0.0
18.0,1.0,56.0,0.0
19.0,2.0,58.0,0.0
17.0,3.0,55.0,0.0
21.0,4.0,68.0,0.0
21.0,4.0,66.0,0.0
17.0,4.0,56.0,0.0
21.0,7.0,68.0,0.0
30.0,11.0,93.0,0.0
21.0,8.0,67.0,0.0
24.0,10.0,74.0,0.0
25.0,12.0,79.0,0.0
33.0,17.0,103.0,0.0
31.0,17.0,98.0,0.0
30.0,17.0,96.0,0.0
26.0,16.0,84.0,0.0
31.0,20.0,98.0,0.0
33.0,23.0,104.0,0.0
31.0,23.0,99.0,0.0
34.0,26.0,107.0,0.0
33.0,27.0,104.0,0.0
34.0,29.0,109.0,0.0
36.0,33.0,117.0,0.0
39.0,36.0,125.0,0.0
40.0,39.0,130.0,0.0
37.0,37.0,117.0,0.0
36.0,38.0,117.0,0.0
33.0,37.0,108.0,0.0
37.0,43.0,120.0,0.0
32.0,38.0,104.0,0.0
32.0,39.0,103.0,0.0
34.0,44.0,113.0,0.0
32.0,43.0,105.0,0.0
32.0,44.0,106.0,0.0
30.0,43.0,99.0,0.0
29.0,43.0,96.0,0.0
32.0,48.0,104.0,0.0
28.0,45.0,95.0,0.0
29.0,48.0,100.0,0.0
31.0,51.0,103.0,0.0
28.0,50.0,97.0,0.0
30.0,54.0,102.0,0.0
27.0,50.0,91.0,0.0
27.0,51.0,91.0,0.0
27.0,52.0,92.0,0.0
30.0,61.0,103.0,0.0
30.0,61.0,101.0,0.0
29.0,61.0,99.0,0.0
29.0,63.0,99.0,0.0
29.0,63.0,97.0,0.0
30.0,70.0,104.0,0.0
33.0,76.0,111.0,0.0
29.0,71.0,101.0,0.0
30.0,74.0,105.0,0.0
30.0,77.0,106.0,0.0
29.0,75.0,100.0,0.0
29.0,78.0,102.0,0.0
30.0,83.0,106.0,0.0
31.0,86.0,108.0,0.0
31.0,89.0,108.0,0.0
31.0,92.0,110.0,0.0
31.0,93.0,107.0,0.0
32.0,99.0,113.0,0.0
31.0,96.0,108.0,0.0
31.0,99.0,108.0,0.0
33.0,108.0,115.0,0.0
31.0,108.0,112.0,0.0
32.0,111.0,114.0,0.0
33.0,116.0,116.0,0.0
32.0,116.0,113.0,0.0
30.0,115.0,111.0,0.0
31.0,118.0,111.0,0.0
32.0,126.0,116.0,0.0
32.0,128.0,116.0,0.0
50.0,-280.0,77.0,0.0
50.0,-276.0,79.0,0.0
51.0,-275.0,82.0,0.0
52.0,-277.0,86.0,0.0
53.0,-276.0,89.0,0.0
54.0,-276.0,92.0,0.0
54.0,-275.0,95.0,0.0
55.0,-271.0,97.0,0.0
56.0,-276.0,102.0,0.0
56.0,-270.0,103.0,0.0
56.0,-264.0,104.0,0.0
58.0,-272.0,111.0,0.0
61.0,-273.0,115.0,0.0
61.0,-271.0,118.0,0.0
62.0,-269.0,120.0,0.0
63.0,-272.0,125.0,0.0
63.0,-267.0,126.0,0.0
64.0,-264.0,128.0,0.0
65.0,-268.0,134.0,0.0
66.0,-264.0,136.0,0.0
65.0,-258.0,136.0,0.0
66.0,-254.0,138.0,0.0
73.0,-279.0,155.0,0.0
68.0,-257.0,147.0,0.0
72.0,-263.0,155.0,0.0
70.0,-255.0,153.0,0.0
64.0,-231.0,142.0,0.0
63.0,-221.0,139.0,0.0
58.0,-202.0,131.0,0.0
60.0,-205.0,136.0,0.0
54.0,-181.0,122.0,0.0
51.0,-169.0,118.0,0.0
53.0,-173.0,123.0,0.0
47.0,-152.0,111.0,0.0
47.0,-149.0,111.0,0.0
44.0,-136.0,104.0,0.0
41.0,-125.0,97.0,0.0
38.0,-117.0,93.0,0.0
36.0,-106.0,87.0,0.0
29.0,-87.0,73.0,0.0
39.0,-111.0,96.0,0.0
36.0,-101.0,89.0,0.0
35.0,-98.0,88.0,0.0
37.0,-100.0,91.0,0.0
29.0,-80.0,74.0,0.0
29.0,-77.0,74.0,0.0
7804.0,-19817.0,19383.0,0.0
28.0,-72.0,72.0,0.0
7788.0,-19097.0,19536.0,0.0
7770.0,-18722.0,19588.0,0.0
7761.0,-18371.0,19660.0,0.0
7764.0,-18052.0,19760.0,0.0
7739.0,-17671.0,19786.0,0.0
7743.0,-17360.0,19885.0,0.0
7734.0,-17026.0,19952.0,0.0
7739.0,-16724.0,20052.0,0.0
7797.0,-16537.0,20290.0,0.0
7962.0,-16571.0,20807.0,0.0
8119.0,-16575.0,21303.0,0.0
8350.0,-16722.0,22001.0,0.0
670.0,-1317.0,1775.0,0.0
668.0,-1286.0,1775.0,0.0
694.0,-1311.0,1853.0,0.0
666.0,-1232.0,1783.0,0.0
676.0,-1225.0,1817.0,0.0
10413.0,-18468.0,28078.0,1.0
672.0,-1167.0,1819.0,0.0
689.0,-1170.0,1872.0,0.0
692.0,-1152.0,1889.0,0.0
687.0,-1118.0,1882.0,0.0
700.0,-1114.0,1925.0,0.0
691.0,-1073.0,1905.0,0.0
687.0,-1042.0,1900.0,0.0
689.0,-1022.0,1913.0,0.0
698.0,-1009.0,1942.0,0.0
0.0,0.0,0.0,0.0
700.0,-961.0,1960.0,0.0
699.0,-937.0,1966.0,0.0
693.0,-904.0,1954.0,0.0
699.0,-888.0,1978.0,0.0
706.0,-872.0,2005.0,0.0
712.0,-855.0,2028.0,0.0
701.0,-817.0,2002.0,0.0
714.0,-807.0,2043.0,0.0
709.0,-778.0,2038.0,0.0
0.0,0.0,0.0,0.0
719.0,-738.0,2077.0,0.0
693.0,-688.0,2007.0,0.0
708.0,-679.0,2056.0,0.0
720.0,-664.0,2094.0,0.0
713.0,-634.0,2083.0,0.0
712.0,-609.0,2084.0,0.0
708.0,-581.0,2079.0,0.0
716.0,-564.0,2106.0,0.0
712.0,-536.0,2102.0,0.0
710.0,-510.0,2101.0,0.0
704.0,-482.0,2087.0,0.0
713.0,-465.0,2121.0,0.0
719.0,-444.0,2146.0,0.0
709.0,-414.0,2120.0,0.0
707.0,-388.0,2120.0,0.0
2.0,-1.0,7.0,0.0
697.0,-335.0,2097.0,0.0
0.0,0.0,0.0,0.0
0.0,0.0,0.0,0.0
1.0,-1.0,4.0,0.0
0.0,0.0,2.0,0.0
2.0,0.0,8.0,0.0
4.0,-1.0,15.0,0.0
6.0,-1.0,21.0,0.0
0.0,0.0,0.0,0.0
2.0,0.0,8.0,0.0
9.0,-2.0,32.0,0.0
7.0,-1.0,25.0,0.0
2.0,0.0,7.0,0.0
3.0,0.0,14.0,0.0
8.0,0.0,26.0,0.0
12.0,0.0,37.0,0.0
13.0,0.0,42.0,0.0
12.0,0.0,38.0,0.0
13.0,1.0,44.0,0.0
15.0,2.0,50.0,0.0
12.0,2.0,41.0,0.0
17.0,4.0,55.0,0.0
14.0,3.0,47.0,0.0
13.0,4.0,45.0,0.0
14.0,5.0,49.0,0.0
18.0,6.0,61.0,0.0
21.0,9.0,70.0,0.0
24.0,11.0,78.0,0.0
25.0,13.0,85.0,0.0
24.0,14.0,80.0,0.0
23.0,14.0,77.0,0.0
25.0,16.0,83.0,0.0
24.0,16.0,81.0,0.0
28.0,20.0,92.0,0.0
27.0,20.0,90.0,0.0
28.0,22.0,93.0,0.0
31.0,27.0,104.0,0.0
29.0,26.0,99.0,0.0
28.0,26.0,95.0,0.0
30.0,30.0,103.0,0.0
31.0,31.0,105.0,0.0
31.0,32.0,105.0,0.0
32.0,35.0,108.0,0.0
32.0,35.0,106.0,0.0
30.0,36.0,102.0,0.0
30.0,37.0,103.0,0.0
29.0,38.0,102.0,0.0
28.0,37.0,94.0,0.0
28.0,39.0,97.0,0.0
26.0,37.0,90.0,0.0
27.0,40.0,94.0,0.0
26.0,40.0,90.0,0.0
24.0,39.0,86.0,0.0
23.0,39.0,83.0,0.0
22.0,36.0,76.0,0.0
26.0,44.0,89.0,0.0
26.0,47.0,91.0,0.0
23.0,43.0,82.0,0.0
22.0,41.0,77.0,0.0
24.0,47.0,85.0,0.0
24.0,48.0,85.0,0.0
25.0,52.0,88.0,0.0
25.0,54.0,90.0,0.0
22.0,50.0,81.0,0.0
25.0,55.0,88.0,0.0
24.0,54.0,83.0,0.0
26.0,63.0,94.0,0.0
25.0,61.0,89.0,0.0
24.0,62.0,88.0,0.0
26.0,67.0,94.0,0.0
26.0,69.0,96.0,0.0
26.0,71.0,95.0,0.0
25.0,72.0,94.0,0.0
26.0,74.0,96.0,0.0
24.0,73.0,90.0,0.0
27.0,79.0,98.0,0.0
27.0,83.0,99.0,0.0
27.0,83.0,98.0,0.0
27.0,86.0,98.0,0.0
28.0,94.0,106.0,0.0
24.0,85.0,92.0,0.0
27.0,95.0,102.0,0.0
28.0,101.0,106.0,0.0
28.0,102.0,106.0,0.0
29.0,110.0,110.0,0.0
29.0,110.0,108.0,0.0
29.0,113.0,109.0,0.0
29.0,117.0,111.0,0.0
29.0,119.0,110.0,0.0
29.0,122.0,111.0,0.0
47.0,-283.0,78.0,0.0
47.0,-276.0,80.0,0.0
49.0,-282.0,86.0,0.0
50.0,-280.0,88.0,0.0
51.0,-282.0,92.0,0.0
52.0,-281.0,95.0,0.0
52.0,-280.0,98.0,0.0
53.0,-277.0,101.0,0.0
55.0,-280.0,105.0,0.0
56.0,-283.0,109.0,0.0
57.0,-279.0,111.0,0.0
57.0,-277.0,113.0,0.0
59.0,-282.0,119.0,0.0
59.0,-277.0,121.0,0.0
61.0,-283.0,127.0,0.0
61.0,-277.0,128.0,0.0
62.0,-274.0,131.0,0.0
62.0,-271.0,132.0,0.0
64.0,-275.0,138.0,0.0
64.0,-271.0,140.0,0.0
64.0,-264.0,140.0,0.0
68.0,-273.0,149.0,0.0
69.0,-278.0,155.0,0.0
70.0,-275.0,158.0,0.0
69.0,-264.0,155.0,0.0
64.0,-241.0,146.0,0.0
63.0,-236.0,146.0,0.0
59.0,-217.0,137.0,0.0
56.0,-204.0,133.0,0.0
56.0,-200.0,134.0,0.0
54.0,-190.0,130.0,0.0
52.0,-181.0,127.0,0.0
50.0,-171.0,123.0,0.0
43.0,-145.0,106.0,0.0
44.0,-143.0,107.0,0.0
44.0,-140.0,108.0,0.0
40.0,-126.0,99.0,0.0
41.0,-131.0,105.0,0.0
37.0,-113.0,92.0,0.0
35.0,-106.0,89.0,0.0
41.0,-124.0,107.0,0.0
31.0,-90.0,79.0,0.0
33.0,-94.0,85.0,0.0
34.0,-96.0,89.0,0.0
30.0,-85.0,80.0,0.0
27.0,-74.0,71.0,0.0
27.0,-73.0,71.0,0.0
27.0,-72.0,73.0,0.0
7480.0,-19056.0,19559.0,0.0
7467.0,-18687.0,19616.0,0.0
7466.0,-18351.0,19702.0,0.0
7458.0,-18005.0,19771.0,0.0
7454.0,-17670.0,19848.0,0.0
7442.0,-17323.0,19904.0,0.0
7441.0,-17004.0,19988.0,0.0
7431.0,-16667.0,20044.0,0.0
7520.0,-16554.0,20370.0,0.0
7713.0,-16657.0,20976.0,0.0
7839.0,-16608.0,21406.0,0.0
8048.0,-16721.0,22062.0,0.0
642.0,-1308.0,1769.0,0.0
651.0,-1302.0,1802.0,0.0
653.0,-1281.0,1815.0,0.0
651.0,-1250.0,1814.0,0.0
660.0,-1239.0,1844.0,0.0
670.0,-1234.0,1882.0,0.0
0.0,0.0,0.0,0.0
650.0,-1145.0,1836.0,0.0
669.0,-1153.0,1897.0,0.0
667.0,-1125.0,1897.0,0.0
676.0,-1114.0,1928.0,0.0
0.0,0.0,0.0,0.0
10450.0,-16439.0,30006.0,1.0
682.0,-1048.0,1967.0,0.0
666.0,-999.0,1927.0,0.0
671.0,-983.0,1949.0,0.0
0.0,0.0,0.0,0.0
673.0,-935.0,1968.0,0.0
0.0,0.0,0.0,0.0
675.0,-889.0,1985.0,0.0
688.0,-882.0,2029.0,0.0
654.0,-813.0,1932.0,0.0
10831.0,-13079.0,32070.0,1.0
680.0,-797.0,2021.0,0.0
662.0,-752.0,1973.0,0.0
0.0,0.0,0.0,0.0
670.0,-713.0,2010.0,0.0
686.0,-706.0,2063.0,0.0
685.0,-681.0,2066.0,0.0
680.0,-652.0,2056.0,0.0
693.0,-639.0,2100.0,0.0
687.0,-610.0,2089.0,0.0
671.0,-572.0,2046.0,0.0
679.0,-555.0,2076.0,0.0
693.0,-542.0,2122.0,0.0
681.0,-509.0,2094.0,0.0
677.0,-481.0,2085.0,0.0
687.0,-466.0,2122.0,0.0
685.0,-439.0,2119.0,0.0
692.0,-419.0,2148.0,0.0
685.0,-391.0,2130.0,0.0
676.0,-362.0,2107.0,0.0
690.0,-345.0,2157.0,0.0
670.0,-311.0,2099.0,0.0
698.0,-299.0,2192.0,0.0
1.0,-1.0,6.0,0.0
5.0,-2.0,19.0,0.0
3.0,-2.0,14.0,0.0
3.0,-1.0,11.0,0.0
1.0,0.0,6.0,0.0
7.0,-2.0,23.0,0.0
4.0,-1.0,18.0,0.0
11.0,-2.0,37.0,0.0
8.0,-1.0,28.0,0.0
10.0,-1.0,37.0,0.0
8.0,0.0,29.0,0.0
10.0,0.0,34.0,0.0
8.0,0.0,29.0,0.0
14.0,0.0,48.0,0.0
14.0,0.0,47.0,0.0
10.0,0.0,37.0,0.0
17.0,3.0,59.0,0.0
16.0,3.0,56.0,0.0
15.0,3.0,51.0,0.0
14.0,3.0,46.0,0.0
22.0,7.0,76.0,0.0
21.0,7.0,72.0,0.0
21.0,9.0,73.0,0.0
24.0,11.0,82.0,0.0
20.0,10.0,69.0,0.0
29.0,16.0,101.0,0.0
24.0,14.0,82.0,0.0
24.0,15.0,83.0,0.0
23.0,15.0,80.0,0.0
27.0,18.0,91.0,0.0
28.0,21.0,98.0,0.0
29.0,23.0,102.0,0.0
31.0,26.0,110.0,0.0
31.0,27.0,109.0,0.0
29.0,27.0,102.0,0.0
28.0,27.0,98.0,0.0
30.0,30.0,105.0,0.0
32.0,34.0,113.0,0.0
30.0,33.0,108.0,0.0
32.0,37.0,113.0,0.0
33.0,40.0,118.0,0.0
33.0,40.0,115.0,0.0
30.0,38.0,107.0,0.0
28.0,38.0,102.0,0.0
29.0,41.0,107.0,0.0
28.0,41.0,103.0,0.0
30.0,44.0,108.0,0.0
27.0,41.0,96.0,0.0
27.0,43.0,96.0,0.0
27.0,44.0,96.0,0.0
25.0,43.0,92.0,0.0
25.0,44.0,92.0,0.0
24.0,44.0,87.0,0.0
25.0,47.0,91.0,0.0
22.0,43.0,81.0,0.0
26.0,53.0,97.0,0.0
22.0,47.0,85.0,0.0
22.0,47.0,84.0,0.0
25.0,54.0,92.0,0.0
25.0,55.0,92.0,0.0
26.0,60.0,98.0,0.0
24.0,56.0,88.0,0.0
24.0,58.0,91.0,0.0
25.0,62.0,94.0,0.0
25.0,63.0,93.0,0.0
25.0,65.0,95.0,0.0
26.0,71.0,99.0,0.0
24.0,67.0,92.0,0.0
25.0,71.0,95.0,0.0
28.0,80.0,106.0,0.0
25.0,77.0,100.0,0.0
27.0,80.0,101.0,0.0
25.0,79.0,98.0,0.0
29.0,93.0,112.0,0.0
26.0,87.0,101.0,0.0
27.0,94.0,107.0,0.0
29.0,101.0,115.0,0.0
27.0,95.0,104.0,0.0
26.0,94.0,101.0,0.0
27.0,103.0,108.0,0.0
27.0,105.0,110.0,0.0
26.0,102.0,104.0,0.0
27.0,112.0,111.0,0.0
29.0,121.0,117.0,0.0
29.0,124.0,117.0,0.0
28.0,123.0,113.0,0.0
29.0,131.0,119.0,0.0
43.0,-273.0,77.0,0.0
44.0,-272.0,80.0,0.0
46.0,-276.0,85.0,0.0
46.0,-272.0,86.0,0.0
47.0,-273.0,89.0,0.0
47.0,-271.0,92.0,0.0
47.0,-266.0,94.0,0.0
49.0,-272.0,99.0,0.0
50.0,-270.0,102.0,0.0
51.0,-271.0,104.0,0.0
52.0,-268.0,107.0,0.0
54.0,-273.0,113.0,0.0
54.0,-269.0,115.0,0.0
54.0,-264.0,116.0,0.0
56.0,-270.0,122.0,0.0
56.0,-266.0,123.0,0.0
56.0,-261.0,124.0,0.0
59.0,-267.0,132.0,0.0
59.0,-263.0,133.0,0.0
59.0,-260.0,135.0,0.0
58.0,-251.0,133.0,0.0
61.0,-258.0,142.0,0.0
68.0,-285.0,160.0,0.0
65.0,-267.0,153.0,0.0
63.0,-257.0,152.0,0.0
60.0,-237.0,143.0,0.0
56.0,-219.0,137.0,0.0
56.0,-219.0,139.0,0.0
53.0,-199.0,129.0,0.0
51.0,-192.0,128.0,0.0
47.0,-173.0,119.0,0.0
49.0,-177.0,124.0,0.0
46.0,-161.0,115.0,0.0
47.0,-163.0,120.0,0.0
41.0,-139.0,105.0,0.0
40.0,-136.0,104.0,0.0
36.0,-119.0,94.0,0.0
37.0,-120.0,97.0,0.0
36.0,-115.0,95.0,0.0
32.0,-100.0,84.0,0.0
34.0,-104.0,90.0,0.0
33.0,-99.0,88.0,0.0
31.0,-94.0,85.0,0.0
27.0,-82.0,75.0,0.0
29.0,-86.0,81.0,0.0
25.0,-70.0,67.0,0.0
27.0,-77.0,76.0,0.0
23.0,-64.0,65.0,0.0
19.0,-53.0,54.0,0.0
7165.0,-18648.0,19637.0,0.0
7146.0,-18267.0,19673.0,0.0
7134.0,-17908.0,19725.0,0.0
7147.0,-17616.0,19847.0,0.0
7130.0,-17253.0,19882.0,0.0
7127.0,-16930.0,19958.0,0.0
7127.0,-16616.0,20040.0,0.0
7236.0,-16554.0,20428.0,0.0
7445.0,-16707.0,21098.0,0.0
7546.0,-16611.0,21469.0,0.0
7763.0,-16758.0,22171.0,0.0
627.0,-1327.0,1797.0,0.0
630.0,-1308.0,1814.0,0.0
630.0,-1281.0,1819.0,0.0
624.0,-1244.0,1809.0,0.0
636.0,-1243.0,1854.0,0.0
0.0,0.0,0.0,0.0
629.0,-1177.0,1845.0,0.0
629.0,-1151.0,1848.0,0.0
660.0,-1182.0,1949.0,0.0
10097.0,-17674.0,29872.0,1.0
639.0,-1095.0,1901.0,0.0
644.0,-1078.0,1921.0,0.0
654.0,-1068.0,1954.0,0.0
0.0,0.0,0.0,0.0
649.0,-1010.0,1952.0,0.0
0.0,0.0,0.0,0.0
642.0,-949.0,1943.0,0.0
645.0,-931.0,1960.0,0.0
656.0,-921.0,1998.0,0.0
10134.0,-13842.0,30927.0,1.0
652.0,-866.0,1996.0,0.0
0.0,0.0,0.0,0.0
659.0,-827.0,2034.0,0.0
662.0,-805.0,2045.0,0.0
647.0,-762.0,2004.0,0.0
645.0,-737.0,2004.0,0.0
649.0,-717.0,2022.0,0.0
636.0,-680.0,1990.0,0.0
674.0,-695.0,2112.0,0.0
660.0,-657.0,2074.0,0.0
662.0,-635.0,2088.0,0.0
0.0,0.0,0.0,0.0
654.0,-579.0,2074.0,0.0
662.0,-562.0,2102.0,0.0
671.0,-545.0,2136.0,0.0
9984.0,-7744.0,31840.0,1.0
658.0,-486.0,2106.0,0.0
652.0,-459.0,2091.0,0.0
644.0,-429.0,2071.0,0.0
667.0,-421.0,2149.0,0.0
643.0,-382.0,2080.0,0.0
637.0,-355.0,2067.0,0.0
667.0,-346.0,2165.0,0.0
0.0,0.0,0.0,0.0
658.0,-294.0,2147.0,0.0
2.0,-1.0,10.0,0.0
4.0,-2.0,17.0,0.0
0.0,0.0,0.0,0.0
2.0,-1.0,9.0,0.0
0.0,0.0,2.0,0.0
2.0,-1.0,9.0,0.0
0.0,0.0,2.0,0.0
7.0,-1.0,27.0,0.0
9.0,-1.0,30.0,0.0
9.0,-1.0,33.0,0.0
4.0,0.0,15.0,0.0
7.0,0.0,28.0,0.0
6.0,0.0,23.0,0.0
12.0,0.0,42.0,0.0
4.0,0.0,18.0,0.0
10.0,1.0,36.0,0.0
12.0,1.0,42.0,0.0
12.0,3.0,45.0,0.0
13.0,3.0,49.0,0.0
13.0,4.0,50.0,0.0
13.0,4.0,48.0,0.0
17.0,6.0,61.0,0.0
15.0,6.0,57.0,0.0
18.0,8.0,64.0,0.0
16.0,8.0,59.0,0.0
18.0,10.0,64.0,0.0
22.0,12.0,80.0,0.0
21.0,13.0,76.0,0.0
19.0,12.0,67.0,0.0
21.0,16.0,79.0,0.0
27.0,20.0,95.0,0.0
24.0,20.0,89.0,0.0
27.0,23.0,98.0,0.0
26.0,23.0,93.0,0.0
28.0,26.0,101.0,0.0
27.0,27.0,100.0,0.0
26.0,27.0,96.0,0.0
28.0,31.0,104.0,0.0
29.0,34.0,109.0,0.0
27.0,31.0,98.0,0.0
27.0,33.0,98.0,0.0
25.0,32.0,92.0,0.0
28.0,38.0,104.0,0.0
26.0,36.0,95.0,0.0
25.0,35.0,91.0,0.0
25.0,37.0,92.0,0.0
21.0,33.0,83.0,0.0
25.0,41.0,95.0,0.0
22.0,38.0,87.0,0.0
24.0,41.0,91.0,0.0
20.0,36.0,76.0,0.0
21.0,39.0,83.0,0.0
21.0,41.0,83.0,0.0
21.0,41.0,81.0,0.0
20.0,42.0,81.0,0.0
19.0,39.0,74.0,0.0
23.0,49.0,88.0,0.0
21.0,46.0,82.0,0.0
22.0,50.0,86.0,0.0
22.0,50.0,85.0,0.0
21.0,51.0,83.0,0.0
22.0,53.0,86.0,0.0
22.0,55.0,84.0,0.0
22.0,56.0,84.0,0.0
22.0,57.0,86.0,0.0
22.0,58.0,85.0,0.0
21.0,60.0,84.0,0.0
22.0,62.0,86.0,0.0
23.0,69.0,93.0,0.0
22.0,67.0,88.0,0.0
22.0,70.0,90.0,0.0
23.0,73.0,92.0,0.0
23.0,74.0,92.0,0.0
24.0,80.0,98.0,0.0
22.0,77.0,92.0,0.0
23.0,84.0,98.0,0.0
23.0,85.0,97.0,0.0
23.0,88.0,98.0,0.0
24.0,94.0,102.0,0.0
23.0,93.0,99.0,0.0
25.0,100.0,104.0,0.0
25.0,102.0,104.0,0.0
25.0,104.0,103.0,0.0
25.0,107.0,104.0,0.0
26.0,114.0,109.0,0.0
26.0,121.0,112.0,0.0
25.0,120.0,109.0,0.0
42.0,-278.0,79.0,0.0
43.0,-279.0,82.0,0.0
45.0,-284.0,87.0,0.0
44.0,-277.0,88.0,0.0
45.0,-278.0,92.0,0.0
46.0,-274.0,94.0,0.0
47.0,-275.0,97.0,0.0
48.0,-278.0,103.0,0.0
49.0,-277.0,105.0,0.0
50.0,-278.0,109.0,0.0
50.0,-274.0,110.0,0.0
53.0,-282.0,118.0,0.0
53.0,-278.0,119.0,0.0
53.0,-273.0,121.0,0.0
55.0,-277.0,126.0,0.0
55.0,-273.0,128.0,0.0
57.0,-278.0,134.0,0.0
55.0,-265.0,131.0,0.0
57.0,-270.0,137.0,0.0
57.0,-267.0,140.0,0.0
57.0,-262.0,141.0,0.0
59.0,-267.0,147.0,0.0
63.0,-274.0,155.0,0.0
62.0,-269.0,156.0,0.0
62.0,-266.0,158.0,0.0
58.0,-243.0,148.0,0.0
55.0,-226.0,141.0,0.0
56.0,-225.0,144.0,0.0
51.0,-206.0,135.0,0.0
51.0,-199.0,134.0,0.0
48.0,-183.0,125.0,0.0
46.0,-173.0,122.0,0.0
43.0,-163.0,118.0,0.0
43.0,-157.0,116.0,0.0
44.0,-159.0,121.0,0.0
38.0,-135.0,104.0,0.0
39.0,-135.0,106.0,0.0
36.0,-123.0,100.0,0.0
36.0,-121.0,100.0,0.0
31.0,-104.0,89.0,0.0
30.0,-99.0,86.0,0.0
31.0,-100.0,88.0,0.0
32.0,-102.0,93.0,0.0
29.0,-90.0,83.0,0.0
27.0,-82.0,78.0,0.0
25.0,-75.0,73.0,0.0
27.0,-78.0,77.0,0.0
25.0,-72.0,73.0,0.0
6869.0,-18962.0,19587.0,0.0
6861.0,-18603.0,19650.0,0.0
6864.0,-18277.0,19743.0,0.0
6846.0,-17900.0,19775.0,0.0
6847.0,-17574.0,19857.0,0.0
6836.0,-17223.0,19905.0,0.0
6835.0,-16902.0,19983.0,0.0
6845.0,-16610.0,20090.0,0.0
6950.0,-16547.0,20477.0,0.0
7132.0,-16657.0,21092.0,0.0
7265.0,-16642.0,21568.0,0.0
7450.0,-16733.0,22196.0,0.0
607.0,-1338.0,1818.0,0.0
609.0,-1316.0,1830.0,0.0
614.0,-1297.0,1849.0,0.0
597.0,-1238.0,1807.0,0.0
619.0,-1257.0,1879.0,0.0
611.0,-1214.0,1860.0,0.0
613.0,-1192.0,1872.0,0.0
617.0,-1176.0,1894.0,0.0
607.0,-1132.0,1870.0,0.0
614.0,-1117.0,1893.0,0.0
606.0,-1080.0,1878.0,0.0
624.0,-1086.0,1940.0,0.0
632.0,-1073.0,1968.0,0.0
627.0,-1041.0,1961.0,0.0
0.0,0.0,0.0,0.0
0.0,0.0,0.0,0.0
630.0,-970.0,1989.0,0.0
643.0,-965.0,2034.0,0.0
619.0,-904.0,1965.0,0.0
9713.0,-13790.0,30864.0,1.0
9699.0,-13392.0,30909.0,1.0
614.0,-824.0,1963.0,0.0
9793.0,-12760.0,31384.0,1.0
0.0,0.0,0.0,0.0
641.0,-785.0,2067.0,0.0
642.0,-762.0,2076.0,0.0
643.0,-738.0,2085.0,0.0
637.0,-708.0,2074.0,0.0
634.0,-680.0,2068.0,0.0
633.0,-655.0,2069.0,0.0
639.0,-637.0,2096.0,0.0
643.0,-616.0,2112.0,0.0
617.0,-568.0,2033.0,0.0
645.0,-569.0,2131.0,0.0
648.0,-547.0,2147.0,0.0
641.0,-517.0,2132.0,0.0
633.0,-486.0,2107.0,0.0
636.0,-466.0,2125.0,0.0
638.0,-443.0,2135.0,0.0
636.0,-417.0,2135.0,0.0
636.0,-393.0,2140.0,0.0
640.0,-372.0,2160.0,0.0
628.0,-340.0,2122.0,0.0
643.0,-324.0,2178.0,0.0
2.0,-1.0,7.0,0.0
3.0,-2.0,14.0,0.0
5.0,-2.0,20.0,0.0
4.0,-1.0,17.0,0.0
2.0,0.0,7.0,0.0
7.0,-2.0,27.0,0.0
2.0,0.0,8.0,0.0
8.0,-2.0,33.0,0.0
11.0,-2.0,43.0,0.0
5.0,-1.0,20.0,0.0
8.0,-1.0,32.0,0.0
9.0,-1.0,37.0,0.0
14.0,0.0,49.0,0.0
10.0,0.0,41.0,0.0
13.0,0.0,48.0,0.0
8.0,0.0,33.0,0.0
9.0,0.0,37.0,0.0
11.0,2.0,45.0,0.0
13.0,2.0,47.0,0.0
15.0,4.0,54.0,0.0
13.0,4.0,49.0,0.0
17.0,5.0,62.0,0.0
15.0,6.0,57.0,0.0
19.0,8.0,70.0,0.0
21.0,10.0,79.0,0.0
19.0,9.0,71.0,0.0
20.0,12.0,77.0,0.0
21.0,12.0,80.0,0.0
21.0,14.0,81.0,0.0
24.0,17.0,91.0,0.0
26.0,19.0,95.0,0.0
24.0,19.0,92.0,0.0
27.0,22.0,101.0,0.0
27.0,25.0,103.0,0.0
27.0,25.0,102.0,0.0
27.0,26.0,102.0,0.0
30.0,31.0,113.0,0.0
29.0,31.0,111.0,0.0
28.0,32.0,108.0,0.0
27.0,31.0,102.0,0.0
29.0,36.0,112.0,0.0
29.0,37.0,112.0,0.0
30.0,40.0,116.0,0.0
28.0,38.0,107.0,0.0
25.0,36.0,95.0,0.0
26.0,38.0,102.0,0.0
25.0,38.0,97.0,0.0
26.0,42.0,102.0,0.0
25.0,42.0,99.0,0.0
24.0,40.0,92.0,0.0
23.0,41.0,91.0,0.0
24.0,43.0,94.0,0.0
22.0,42.0,89.0,0.0
24.0,48.0,97.0,0.0
23.0,46.0,91.0,0.0
21.0,45.0,86.0,0.0
20.0,44.0,84.0,0.0
20.0,45.0,84.0,0.0
21.0,48.0,86.0,0.0
21.0,50.0,86.0,0.0
19.0,49.0,82.0,0.0
20.0,51.0,85.0,0.0
22.0,57.0,91.0,0.0
22.0,57.0,90.0,0.0
23.0,62.0,95.0,0.0
21.0,59.0,88.0,0.0
22.0,64.0,92.0,0.0
23.0,66.0,95.0,0.0
23.0,68.0,95.0,0.0
23.0,70.0,96.0,0.0
22.0,70.0,93.0,0.0
24.0,77.0,100.0,0.0
24.0,80.0,102.0,0.0
23.0,81.0,100.0,0.0
23.0,83.0,100.0,0.0
24.0,86.0,102.0,0.0
25.0,96.0,111.0,0.0
25.0,96.0,109.0,0.0
24.0,93.0,104.0,0.0
25.0,101.0,110.0,0.0
24.0,101.0,109.0,0.0
24.0,102.0,106.0,0.0
24.0,105.0,107.0,0.0
25.0,112.0,112.0,0.0
24.0,112.0,109.0,0.0
27.0,123.0,118.0,0.0
26.0,123.0,114.0,0.0
26.0,126.0,115.0,0.0
39.0,-274.0,79.0,0.0
38.0,-265.0,79.0,0.0
40.0,-271.0,84.0,0.0
41.0,-273.0,88.0,0.0
42.0,-274.0,91.0,0.0
42.0,-270.0,93.0,0.0
43.0,-270.0,96.0,0.0
43.0,-267.0,98.0,0.0
45.0,-271.0,103.0,0.0
46.0,-273.0,107.0,0.0
47.0,-272.0,110.0,0.0
47.0,-268.0,113.0,0.0
48.0,-265.0,114.0,0.0
49.0,-267.0,119.0,0.0
50.0,-266.0,122.0,0.0
49.0,-259.0,121.0,0.0
51.0,-263.0,127.0,0.0
51.0,-261.0,130.0,0.0
52.0,-257.0,132.0,0.0
53.0,-261.0,137.0,0.0
52.0,-250.0,134.0,0.0
57.0,-270.0,150.0,0.0
58.0,-270.0,154.0,0.0
57.0,-262.0,153.0,0.0
53.0,-238.0,142.0,0.0
54.0,-239.0,146.0,0.0
49.0,-211.0,133.0,0.0
51.0,-217.0,139.0,0.0
48.0,-197.0,130.0,0.0
48.0,-193.0,131.0,0.0
46.0,-183.0,125.0,0.0
42.0,-167.0,118.0,0.0
39.0,-153.0,112.0,0.0
41.0,-157.0,117.0,0.0
