//X,Y,Z,Classification
-63.0,-297.0,80.0,0.0
-63.0,-299.0,79.0,0.0
-4785.0,16848.0,15146.0,0.0
-4879.0,16800.0,15431.0,0.0
-4967.0,16724.0,15695.0,0.0
-5056.0,16647.0,15962.0,0.0
-5136.0,16533.0,16200.0,0.0
-5106.0,16070.0,16088.0,0.0
-5170.0,15908.0,16274.0,0.0
-5880.0,17687.0,18491.0,0.0
-5966.0,17546.0,18746.0,0.0
-6066.0,17439.0,19041.0,0.0
-6045.0,16986.0,18957.0,0.0
-5978.0,16417.0,18728.0,0.0
-5940.0,15941.0,18589.0,0.0
-6017.0,15776.0,18810.0,0.0
-6045.0,15486.0,18878.0,0.0
-6044.0,15125.0,18855.0,0.0
-6080.0,14860.0,18947.0,0.0
-10116.0,24144.0,31489.0,0.0
-9846.0,22945.0,30615.0,0.0
-9871.0,22457.0,30661.0,0.0
-9829.0,21822.0,30493.0,0.0
-9855.0,21351.0,30543.0,0.0
-9918.0,20962.0,30701.0,0.0
-9912.0,20433.0,30648.0,0.0
-9843.0,19784.0,30400.0,0.0
-10040.0,19670.0,30970.0,0.0
-10099.0,19282.0,31117.0,0.0
-11007.0,20474.0,33875.0,0.0
-10985.0,19898.0,33765.0,0.0
-10955.0,19318.0,33633.0,0.0
-10952.0,18795.0,33582.0,0.0
-10926.0,18241.0,33462.0,0.0
-10906.0,17702.0,33356.0,0.0
-10875.0,17156.0,33219.0,0.0
-10875.0,16666.0,33178.0,0.0
-10191.0,15164.0,31051.0,0.0
-9873.0,14257.0,30044.0,0.0
-9881.0,13839.0,30030.0,0.0
-9951.0,13507.0,30200.0,0.0
-10083.0,13258.0,30560.0,0.0
-10358.0,13182.0,31348.0,0.0
-10708.0,13183.0,32366.0,0.0
-6705.0,7978.0,20239.0,0.0
-6695.0,7693.0,20181.0,0.0
-6674.0,7399.0,20091.0,0.0
-6675.0,7131.0,20061.0,0.0
-6663.0,6854.0,19998.0,0.0
-6654.0,6584.0,19942.0,0.0
-6641.0,6312.0,19874.0,0.0
-6635.0,6050.0,19824.0,0.0
-6620.0,5783.0,19750.0,0.0
-6609.0,5522.0,19691.0,0.0
-6602.0,5267.0,19636.0,0.0
-6605.0,5022.0,19617.0,0.0
-6594.0,4770.0,19555.0,0.0
-6578.0,4516.0,19473.0,0.0
-6581.0,4277.0,19452.0,0.0
-6576.0,4035.0,19406.0,0.0
-6561.0,3790.0,19331.0,0.0
-6554.0,3552.0,19278.0,0.0
-6540.0,3311.0,19204.0,0.0
-6539.0,3079.0,19167.0,0.0
-6525.0,2844.0,19095.0,0.0
-6525.0,2616.0,19061.0,0.0
-6522.0,2388.0,19020.0,0.0
-6506.0,2158.0,18940.0,0.0
-6508.0,1936.0,18913.0,0.0
-6502.0,1712.0,18862.0,0.0
-6503.0,1491.0,18828.0,0.0
-6489.0,1268.0,18755.0,0.0
-6484.0,1049.0,18706.0,0.0
-6477.0,831.0,18650.0,0.0
-6478.0,615.0,18620.0,0.0
-6471.0,399.0,18563.0,0.0
-6471.0,185.0,18524.0,0.0
-6410.0,-28.0,18317.0,0.0
-6463.0,-240.0,18430.0,0.0
-6449.0,-450.0,18353.0,0.0
-7436.0,-761.0,21116.0,0.0
-6850.0,-925.0,19412.0,0.0
-6839.0,-1145.0,19342.0,0.0
-6910.0,-1381.0,19500.0,0.0
-7527.0,-1746.0,21197.0,0.0
-777.0,-205.0,2185.0,0.0
-771.0,-229.0,2164.0,0.0
-775.0,-255.0,2170.0,0.0
-793.0,-286.0,2215.0,0.0
-759.0,-299.0,2117.0,0.0
-793.0,-337.0,2207.0,0.0
0.0,0.0,0.0,0.0
-14363.0,-7011.0,39728.0,2.0
-768.0,-399.0,2120.0,0.0
-14382.0,-7934.0,39590.0,2.0
-763.0,-446.0,2099.0,0.0
-782.0,-482.0,2144.0,0.0
-749.0,-485.0,2049.0,0.0
-765.0,-520.0,2089.0,0.0
-754.0,-536.0,2052.0,0.0
-784.0,-581.0,2126.0,0.0
-758.0,-587.0,2054.0,0.0
-770.0,-620.0,2077.0,0.0
-777.0,-651.0,2094.0,0.0
-8.0,-7.0,26.0,0.0
-768.0,-692.0,2057.0,0.0
-780.0,-727.0,2084.0,0.0
-768.0,-741.0,2045.0,0.0
-767.0,-765.0,2036.0,0.0
-11.0,-12.0,33.0,0.0
-15.0,-16.0,41.0,0.0
-7.0,-8.0,22.0,0.0
-14.0,-16.0,40.0,0.0
-1.0,-2.0,5.0,0.0
-16.0,-19.0,43.0,0.0
-17.0,-21.0,46.0,0.0
-17.0,-21.0,44.0,0.0
-17.0,-23.0,46.0,0.0
-11.0,-14.0,30.0,0.0
-21.0,-28.0,55.0,0.0
-17.0,-23.0,44.0,0.0
-25.0,-36.0,67.0,0.0
-20.0,-29.0,53.0,0.0
-17.0,-25.0,45.0,0.0
-18.0,-28.0,48.0,0.0
-23.0,-36.0,59.0,0.0
-24.0,-39.0,62.0,0.0
-20.0,-34.0,53.0,0.0
-21.0,-36.0,55.0,0.0
-26.0,-44.0,64.0,0.0
-23.0,-40.0,59.0,0.0
-30.0,-52.0,74.0,0.0
-29.0,-52.0,70.0,0.0
-29.0,-55.0,73.0,0.0
-30.0,-58.0,76.0,0.0
-27.0,-53.0,67.0,0.0
-27.0,-53.0,66.0,0.0
-28.0,-56.0,68.0,0.0
-33.0,-69.0,82.0,0.0
-32.0,-67.0,77.0,0.0
-34.0,-72.0,82.0,0.0
-34.0,-73.0,81.0,0.0
-38.0,-83.0,90.0,0.0
-36.0,-80.0,86.0,0.0
-41.0,-92.0,94.0,0.0
-37.0,-87.0,87.0,0.0
-41.0,-96.0,94.0,0.0
-46.0,-109.0,106.0,0.0
-44.0,-109.0,103.0,0.0
-44.0,-110.0,101.0,0.0
-40.0,-102.0,92.0,0.0
-43.0,-108.0,95.0,0.0
-43.0,-113.0,97.0,0.0
-42.0,-111.0,93.0,0.0
-43.0,-114.0,94.0,0.0
-40.0,-111.0,89.0,0.0
-45.0,-124.0,98.0,0.0
-43.0,-121.0,93.0,0.0
-48.0,-137.0,102.0,0.0
-47.0,-135.0,100.0,0.0
-44.0,-131.0,93.0,0.0
-47.0,-143.0,100.0,0.0
-47.0,-144.0,98.0,0.0
-47.0,-145.0,95.0,0.0
-46.0,-146.0,95.0,0.0
-49.0,-154.0,98.0,0.0
-49.0,-157.0,97.0,0.0
-48.0,-157.0,94.0,0.0
-48.0,-163.0,95.0,0.0
-49.0,-167.0,95.0,0.0
-48.0,-164.0,92.0,0.0
-50.0,-175.0,95.0,0.0
-50.0,-178.0,94.0,0.0
-49.0,-176.0,91.0,0.0
-50.0,-184.0,92.0,0.0
-51.0,-189.0,92.0,0.0
-49.0,-187.0,88.0,0.0
-48.0,-184.0,85.0,0.0
-49.0,-192.0,86.0,0.0
-48.0,-190.0,83.0,0.0
-47.0,-188.0,79.0,0.0
-45.0,-185.0,75.0,0.0
-45.0,-188.0,74.0,0.0
-46.0,-193.0,74.0,0.0
-59.0,-255.0,95.0,0.0
-66.0,-288.0,103.0,0.0
-64.0,-284.0,98.0,0.0
-64.0,-287.0,96.0,0.0
-62.0,-284.0,91.0,0.0
-61.0,-288.0,89.0,0.0
-61.0,-291.0,87.0,0.0
-60.0,-291.0,84.0,0.0
-60.0,-296.0,81.0,0.0
-60.0,-298.0,79.0,0.0
-4590.0,16849.0,15221.0,0.0
-4678.0,16785.0,15494.0,0.0
-4738.0,16616.0,15672.0,0.0
-4854.0,16642.0,16038.0,0.0
-4937.0,16544.0,16288.0,0.0
-4968.0,16272.0,16371.0,0.0
-4962.0,15884.0,16329.0,0.0
-5004.0,15654.0,16445.0,0.0
-5303.0,16216.0,17409.0,0.0
-5825.0,17404.0,19097.0,0.0
-5873.0,17148.0,19230.0,0.0
-5559.0,15858.0,18179.0,0.0
-5734.0,15981.0,18728.0,0.0
-5609.0,15271.0,18295.0,0.0
-5781.0,15374.0,18831.0,0.0
-5815.0,15105.0,18920.0,0.0
-5865.0,14876.0,19058.0,0.0
-9657.0,23908.0,31331.0,0.0
-9898.0,23922.0,32074.0,0.0
-7240.0,17079.0,23430.0,0.0
-7214.0,16604.0,23316.0,0.0
-7231.0,16236.0,23338.0,0.0
-7240.0,15855.0,23334.0,0.0
-7221.0,15421.0,23243.0,0.0
-7219.0,15031.0,23209.0,0.0
-7199.0,14607.0,23110.0,0.0
-7222.0,14278.0,23155.0,0.0
-10562.0,20336.0,33812.0,0.0
-10550.0,19779.0,33727.0,0.0
-10562.0,19274.0,33720.0,0.0
-10510.0,18661.0,33507.0,0.0
-10492.0,18117.0,33400.0,0.0
-10500.0,17628.0,33381.0,0.0
-10467.0,17076.0,33230.0,0.0
-10465.0,16581.0,33174.0,0.0
-9529.0,14657.0,30165.0,0.0
-9522.0,14210.0,30096.0,0.0
-9557.0,13830.0,30165.0,0.0
-9718.0,13629.0,30627.0,0.0
-9789.0,13295.0,30805.0,0.0
-10047.0,13206.0,31570.0,0.0
-10343.0,13148.0,32452.0,0.0
-6457.0,7932.0,20229.0,0.0
-6453.0,7654.0,20186.0,0.0
-6440.0,7369.0,20118.0,0.0
-6426.0,7087.0,20043.0,0.0
-6416.0,6810.0,19979.0,0.0
-6408.0,6541.0,19924.0,0.0
-6398.0,6272.0,19861.0,0.0
-6397.0,6015.0,19824.0,0.0
-6387.0,5752.0,19763.0,0.0
-6378.0,5493.0,19705.0,0.0
-6376.0,5243.0,19665.0,0.0
-6360.0,4983.0,19582.0,0.0
-6358.0,4738.0,19545.0,0.0
-6342.0,4485.0,19467.0,0.0
-6337.0,4242.0,19418.0,0.0
-6336.0,4004.0,19382.0,0.0
-6321.0,3757.0,19301.0,0.0
-6317.0,3522.0,19256.0,0.0
-6317.0,3289.0,19223.0,0.0
-6305.0,3053.0,19157.0,0.0
-6312.0,2827.0,19140.0,0.0
-6294.0,2592.0,19052.0,0.0
-6287.0,2364.0,18998.0,0.0
-6285.0,2139.0,18955.0,0.0
-6284.0,1916.0,18918.0,0.0
-6279.0,1693.0,18871.0,0.0
-6273.0,1471.0,18816.0,0.0
-6266.0,1251.0,18760.0,0.0
-6261.0,1032.0,18711.0,0.0
-6257.0,815.0,18660.0,0.0
-6251.0,599.0,18607.0,0.0
-6249.0,384.0,18566.0,0.0
-6233.0,170.0,18482.0,0.0
-6206.0,-40.0,18363.0,0.0
-6242.0,-253.0,18433.0,0.0
-6228.0,-462.0,18354.0,0.0
-7183.0,-775.0,21127.0,0.0
-6612.0,-936.0,19407.0,0.0
-6639.0,-1161.0,19446.0,0.0
-6668.0,-1389.0,19490.0,0.0
-7213.0,-1744.0,21039.0,0.0
-751.0,-206.0,2186.0,0.0
-734.0,-226.0,2134.0,0.0
0.0,0.0,0.0,0.0
-744.0,-278.0,2152.0,0.0
-757.0,-308.0,2185.0,0.0
-756.0,-333.0,2177.0,0.0
-759.0,-360.0,2180.0,0.0
-13858.0,-7010.0,39692.0,2.0
-763.0,-412.0,2183.0,0.0
-749.0,-428.0,2137.0,0.0
-13889.0,-8392.0,39497.0,2.0
-751.0,-478.0,2132.0,0.0
-759.0,-508.0,2148.0,0.0
-770.0,-541.0,2174.0,0.0
-754.0,-554.0,2123.0,0.0
-767.0,-589.0,2157.0,0.0
-13903.0,-11134.0,38946.0,2.0
-741.0,-617.0,2073.0,0.0
-11.0,-9.0,31.0,0.0
-739.0,-665.0,2057.0,0.0
-7.0,-6.0,21.0,0.0
-742.0,-717.0,2055.0,0.0
-8.0,-8.0,26.0,0.0
-13.0,-13.0,38.0,0.0
-7.0,-7.0,22.0,0.0
-11.0,-12.0,31.0,0.0
-7.0,-8.0,22.0,0.0
-16.0,-18.0,46.0,0.0
-18.0,-22.0,52.0,0.0
-14.0,-17.0,40.0,0.0
-18.0,-23.0,51.0,0.0
-15.0,-20.0,43.0,0.0
-15.0,-21.0,43.0,0.0
-15.0,-22.0,43.0,0.0
-20.0,-28.0,55.0,0.0
-20.0,-29.0,56.0,0.0
-25.0,-36.0,68.0,0.0
-22.0,-35.0,61.0,0.0
-19.0,-29.0,52.0,0.0
-20.0,-32.0,55.0,0.0
-21.0,-34.0,55.0,0.0
-18.0,-31.0,49.0,0.0
-23.0,-39.0,61.0,0.0
-22.0,-39.0,59.0,0.0
-21.0,-36.0,54.0,0.0
-23.0,-42.0,60.0,0.0
-32.0,-58.0,82.0,0.0
-32.0,-59.0,81.0,0.0
-31.0,-60.0,80.0,0.0
-30.0,-60.0,78.0,0.0
-32.0,-64.0,81.0,0.0
-29.0,-61.0,76.0,0.0
-32.0,-68.0,82.0,0.0
-35.0,-73.0,88.0,0.0
-32.0,-70.0,81.0,0.0
-32.0,-71.0,81.0,0.0
-36.0,-81.0,90.0,0.0
-36.0,-83.0,90.0,0.0
-36.0,-83.0,88.0,0.0
-35.0,-85.0,88.0,0.0
-35.0,-84.0,86.0,0.0
-38.0,-94.0,93.0,0.0
-37.0,-91.0,88.0,0.0
-37.0,-92.0,88.0,0.0
-42.0,-107.0,100.0,0.0
-38.0,-100.0,91.0,0.0
-43.0,-114.0,100.0,0.0
-46.0,-121.0,105.0,0.0
-43.0,-118.0,99.0,0.0
-44.0,-123.0,101.0,0.0
-42.0,-120.0,96.0,0.0
-46.0,-132.0,104.0,0.0
-48.0,-139.0,107.0,0.0
-43.0,-127.0,95.0,0.0
-43.0,-130.0,96.0,0.0
-47.0,-145.0,104.0,0.0
-46.0,-144.0,101.0,0.0
-48.0,-151.0,103.0,0.0
-47.0,-151.0,101.0,0.0
-46.0,-149.0,97.0,0.0
-44.0,-147.0,93.0,0.0
-47.0,-157.0,97.0,0.0
-48.0,-164.0,100.0,0.0
-49.0,-169.0,100.0,0.0
-46.0,-165.0,95.0,0.0
-49.0,-177.0,99.0,0.0
-49.0,-180.0,98.0,0.0
-48.0,-180.0,96.0,0.0
-51.0,-191.0,99.0,0.0
-50.0,-189.0,95.0,0.0
-50.0,-193.0,94.0,0.0
-49.0,-191.0,92.0,0.0
-49.0,-194.0,90.0,0.0
-47.0,-190.0,86.0,0.0
-46.0,-191.0,84.0,0.0
-46.0,-195.0,83.0,0.0
-45.0,-190.0,78.0,0.0
-42.0,-186.0,74.0,0.0
-42.0,-190.0,73.0,0.0
-55.0,-246.0,91.0,0.0
-62.0,-281.0,101.0,0.0
-60.0,-278.0,98.0,0.0
-60.0,-282.0,96.0,0.0
-58.0,-276.0,90.0,0.0
-58.0,-281.0,88.0,0.0
-57.0,-285.0,86.0,0.0
-57.0,-289.0,84.0,0.0
-57.0,-293.0,82.0,0.0
-56.0,-295.0,79.0,0.0
-4386.0,16812.0,15262.0,0.0
-4472.0,16752.0,15537.0,0.0
-4558.0,16686.0,15812.0,0.0
-4646.0,16618.0,16090.0,0.0
-4683.0,16364.0,16189.0,0.0
-4802.0,16398.0,16576.0,0.0
-4831.0,16116.0,16647.0,0.0
-4800.0,15651.0,16520.0,0.0
-5100.0,16242.0,17520.0,0.0
-5214.0,16220.0,17881.0,0.0
-5311.0,16142.0,18188.0,0.0
-5414.0,16073.0,18511.0,0.0
-5511.0,15982.0,18814.0,0.0
-5595.0,15843.0,19068.0,0.0
-5642.0,15601.0,19200.0,0.0
-5675.0,15321.0,19282.0,0.0
-5677.0,14962.0,19258.0,0.0
-9236.0,23758.0,31281.0,0.0
-9068.0,22766.0,30666.0,0.0
-7023.0,17206.0,23715.0,0.0
-9029.0,21578.0,30439.0,0.0
-7199.0,16781.0,24234.0,0.0
-7191.0,16344.0,24167.0,0.0
-7186.0,15922.0,24113.0,0.0
-7193.0,15536.0,24100.0,0.0
-7260.0,15278.0,24286.0,0.0
-7251.0,14863.0,24215.0,0.0
-7230.0,14432.0,24110.0,0.0
-7243.0,14074.0,24114.0,0.0
-7269.0,13745.0,24161.0,0.0
-10118.0,18612.0,33579.0,0.0
-10109.0,18081.0,33496.0,0.0
-10070.0,17509.0,33317.0,0.0
-10065.0,17001.0,33245.0,0.0
-9127.0,14972.0,30100.0,0.0
-9145.0,14560.0,30112.0,0.0
-9165.0,14156.0,30130.0,0.0
-9198.0,13773.0,30189.0,0.0
-9312.0,13510.0,30513.0,0.0
-9423.0,13238.0,30829.0,0.0
-9680.0,13160.0,31619.0,0.0
-9694.0,12743.0,31614.0,0.0
-6211.0,7888.0,20221.0,0.0
-6206.0,7608.0,20172.0,0.0
-6201.0,7333.0,20124.0,0.0
-6184.0,7046.0,20035.0,0.0
-6181.0,6778.0,19991.0,0.0
-6174.0,6510.0,19937.0,0.0
-6160.0,6237.0,19860.0,0.0
-6154.0,5976.0,19807.0,0.0
-6148.0,5716.0,19752.0,0.0
-6146.0,5464.0,19714.0,0.0
-6139.0,5210.0,19660.0,0.0
-6131.0,4957.0,19598.0,0.0
-6115.0,4701.0,19514.0,0.0
-6116.0,4460.0,19482.0,0.0
-6109.0,4216.0,19425.0,0.0
-6104.0,3975.0,19374.0,0.0
-6090.0,3731.0,19296.0,0.0
-6089.0,3497.0,19259.0,0.0
-6087.0,3264.0,19216.0,0.0
-6080.0,3031.0,19163.0,0.0
-6071.0,2798.0,19099.0,0.0
-6072.0,2573.0,19067.0,0.0
-6072.0,2347.0,19028.0,0.0
-6064.0,2120.0,18971.0,0.0
-6056.0,1896.0,18910.0,0.0
-6043.0,1671.0,18833.0,0.0
-6048.0,1453.0,18813.0,0.0
-6040.0,1233.0,18752.0,0.0
-6031.0,1015.0,18688.0,0.0
-6033.0,799.0,18656.0,0.0
-6022.0,583.0,18589.0,0.0
-6025.0,370.0,18559.0,0.0
-6026.0,157.0,18523.0,0.0
-6020.0,-53.0,18470.0,0.0
-6012.0,-264.0,18407.0,0.0
-6016.0,-475.0,18383.0,0.0
-6140.0,-698.0,18721.0,0.0
-6931.0,-1028.0,21087.0,0.0
-6380.0,-1167.0,19372.0,0.0
-6403.0,-1392.0,19399.0,0.0
-6867.0,-1730.0,20762.0,0.0
-734.0,-211.0,2216.0,0.0
0.0,0.0,0.0,0.0
-721.0,-256.0,2168.0,0.0
-717.0,-279.0,2150.0,0.0
-724.0,-307.0,2167.0,0.0
-716.0,-327.0,2138.0,0.0
-722.0,-356.0,2153.0,0.0
-13393.0,-7027.0,39764.0,2.0
-721.0,-403.0,2136.0,0.0
-736.0,-437.0,2177.0,0.0
-725.0,-455.0,2141.0,0.0
-727.0,-480.0,2140.0,0.0
-714.0,-496.0,2096.0,0.0
-729.0,-531.0,2134.0,0.0
-5.0,-4.0,17.0,0.0
-712.0,-566.0,2074.0,0.0
-737.0,-611.0,2144.0,0.0
-6.0,-5.0,21.0,0.0
-710.0,-637.0,2053.0,0.0
-730.0,-680.0,2106.0,0.0
-10.0,-10.0,31.0,0.0
-13.0,-13.0,39.0,0.0
-8.0,-8.0,25.0,0.0
-9.0,-10.0,29.0,0.0
-17.0,-19.0,52.0,0.0
-2.0,-3.0,10.0,0.0
-8.0,-9.0,24.0,0.0
-8.0,-10.0,25.0,0.0
-14.0,-17.0,41.0,0.0
-17.0,-21.0,48.0,0.0
-16.0,-22.0,48.0,0.0
-15.0,-20.0,43.0,0.0
-14.0,-21.0,43.0,0.0
-16.0,-24.0,47.0,0.0
-18.0,-28.0,54.0,0.0
-18.0,-27.0,52.0,0.0
-13.0,-20.0,38.0,0.0
-21.0,-33.0,59.0,0.0
-21.0,-34.0,60.0,0.0
-25.0,-41.0,70.0,0.0
-21.0,-35.0,58.0,0.0
-17.0,-31.0,50.0,0.0
-21.0,-38.0,60.0,0.0
-21.0,-38.0,58.0,0.0
-20.0,-37.0,56.0,0.0
-21.0,-40.0,59.0,0.0
-31.0,-58.0,82.0,0.0
-24.0,-47.0,66.0,0.0
-29.0,-58.0,78.0,0.0
-27.0,-54.0,70.0,0.0
-27.0,-55.0,71.0,0.0
-31.0,-66.0,82.0,0.0
-28.0,-62.0,76.0,0.0
-30.0,-66.0,78.0,0.0
-31.0,-68.0,80.0,0.0
-30.0,-68.0,78.0,0.0
-32.0,-76.0,85.0,0.0
-34.0,-81.0,88.0,0.0
-31.0,-77.0,81.0,0.0
-32.0,-79.0,83.0,0.0
-35.0,-87.0,88.0,0.0
-37.0,-92.0,91.0,0.0
-38.0,-98.0,95.0,0.0
-38.0,-99.0,93.0,0.0
-37.0,-97.0,90.0,0.0
-38.0,-103.0,94.0,0.0
-41.0,-113.0,101.0,0.0
-40.0,-111.0,96.0,0.0
-36.0,-103.0,87.0,0.0
-37.0,-107.0,88.0,0.0
-37.0,-111.0,90.0,0.0
-41.0,-123.0,98.0,0.0
-40.0,-123.0,94.0,0.0
-40.0,-123.0,93.0,0.0
-40.0,-126.0,93.0,0.0
-40.0,-130.0,94.0,0.0
-45.0,-143.0,101.0,0.0
-42.0,-138.0,95.0,0.0
-43.0,-145.0,98.0,0.0
-45.0,-153.0,100.0,0.0
-41.0,-142.0,91.0,0.0
-42.0,-148.0,92.0,0.0
-42.0,-150.0,91.0,0.0
-44.0,-159.0,94.0,0.0
-44.0,-163.0,95.0,0.0
-44.0,-168.0,94.0,0.0
-44.0,-171.0,94.0,0.0
-43.0,-169.0,90.0,0.0
-46.0,-182.0,94.0,0.0
-45.0,-180.0,91.0,0.0
-45.0,-183.0,90.0,0.0
-44.0,-182.0,87.0,0.0
-42.0,-179.0,84.0,0.0
-42.0,-181.0,82.0,0.0
-41.0,-181.0,79.0,0.0
-40.0,-178.0,76.0,0.0
-40.0,-177.0,73.0,0.0
-42.0,-189.0,76.0,0.0
-39.0,-178.0,69.0,0.0
-48.0,-223.0,84.0,0.0
-57.0,-270.0,98.0,0.0
-57.0,-276.0,98.0,0.0
-56.0,-274.0,93.0,0.0
-55.0,-276.0,91.0,0.0
-55.0,-281.0,89.0,0.0
-54.0,-284.0,87.0,0.0
-54.0,-286.0,83.0,0.0
-53.0,-290.0,81.0,0.0
-53.0,-293.0,79.0,0.0
-4187.0,16804.0,15327.0,0.0
-4271.0,16740.0,15599.0,0.0
-4357.0,16681.0,15881.0,0.0
-4409.0,16485.0,16037.0,0.0
-4524.0,16524.0,16423.0,0.0
-4456.0,15899.0,16146.0,0.0
-4551.0,15860.0,16457.0,0.0
-4651.0,15828.0,16783.0,0.0
-4704.0,15636.0,16943.0,0.0
-4993.0,16208.0,17949.0,0.0
-5087.0,16126.0,18253.0,0.0
-5194.0,16077.0,18599.0,0.0
-5263.0,15906.0,18811.0,0.0
-5350.0,15785.0,19087.0,0.0
-5483.0,15793.0,19523.0,0.0
-5366.0,15088.0,19075.0,0.0
-5449.0,14952.0,19333.0,0.0
-5511.0,14757.0,19518.0,0.0
-8654.0,22606.0,30589.0,0.0
-6745.0,17187.0,23798.0,0.0
-6887.0,17115.0,24255.0,0.0
-7013.0,16997.0,24656.0,0.0
-7056.0,16671.0,24762.0,0.0
-7044.0,16221.0,24677.0,0.0
-7032.0,15780.0,24591.0,0.0
-7013.0,15329.0,24478.0,0.0
-6996.0,14894.0,24379.0,0.0
-6986.0,14478.0,24297.0,0.0
-6976.0,14072.0,24221.0,0.0
-6996.0,13730.0,24248.0,0.0
-9686.0,18489.0,33512.0,0.0
-9700.0,18000.0,33501.0,0.0
-9679.0,17455.0,33370.0,0.0
-9664.0,16928.0,33260.0,0.0
-9658.0,16426.0,33181.0,0.0
-9661.0,15946.0,33134.0,0.0
-8882.0,14219.0,30410.0,0.0
-9025.0,14003.0,30844.0,0.0
-8931.0,13426.0,30470.0,0.0
-9029.0,13140.0,30749.0,0.0
-9309.0,13105.0,31644.0,0.0
-9403.0,12798.0,31909.0,0.0
-5972.0,7853.0,20234.0,0.0
-5962.0,7566.0,20163.0,0.0
-5959.0,7292.0,20118.0,0.0
-5952.0,7017.0,20060.0,0.0
-5941.0,6740.0,19985.0,0.0
-5941.0,6478.0,19949.0,0.0
-5925.0,6203.0,19861.0,0.0
-5926.0,5949.0,19829.0,0.0
-5916.0,5687.0,19760.0,0.0
-5916.0,5436.0,19723.0,0.0
-5907.0,5180.0,19659.0,0.0
-5896.0,4926.0,19588.0,0.0
-5892.0,4678.0,19536.0,0.0
-5888.0,4434.0,19489.0,0.0
-5890.0,4196.0,19459.0,0.0
-5881.0,3953.0,19394.0,0.0
-5872.0,3712.0,19326.0,0.0
-5867.0,3476.0,19275.0,0.0
-5863.0,3243.0,19229.0,0.0
-5862.0,3012.0,19187.0,0.0
-5857.0,2782.0,19131.0,0.0
-5847.0,2552.0,19067.0,0.0
-5845.0,2326.0,19025.0,0.0
-5837.0,2099.0,18960.0,0.0
-5832.0,1877.0,18906.0,0.0
-5828.0,1655.0,18859.0,0.0
-5826.0,1436.0,18814.0,0.0
-5817.0,1216.0,18746.0,0.0
-5817.0,1000.0,18712.0,0.0
-5816.0,785.0,18672.0,0.0
-5810.0,570.0,18614.0,0.0
-5810.0,357.0,18574.0,0.0
-5812.0,144.0,18543.0,0.0
-5801.0,-66.0,18472.0,0.0
-5797.0,-275.0,18420.0,0.0
-5793.0,-485.0,18369.0,0.0
-5961.0,-713.0,18862.0,0.0
-6702.0,-1042.0,21163.0,0.0
-6140.0,-1175.0,19348.0,0.0
-6188.0,-1405.0,19457.0,0.0
-6612.0,-1737.0,20745.0,0.0
-723.0,-215.0,2264.0,0.0
-710.0,-237.0,2221.0,0.0
-730.0,-270.0,2280.0,0.0
-681.0,-275.0,2119.0,0.0
-698.0,-307.0,2170.0,0.0
-723.0,-343.0,2240.0,0.0
-712.0,-364.0,2203.0,0.0
-689.0,-377.0,2127.0,0.0
-692.0,-402.0,2129.0,0.0
-12.0,-8.0,40.0,0.0
-12899.0,-8385.0,39461.0,2.0
-701.0,-481.0,2140.0,0.0
-10.0,-8.0,32.0,0.0
-10.0,-7.0,31.0,0.0
-707.0,-559.0,2145.0,0.0
-715.0,-590.0,2164.0,0.0
-14.0,-11.0,43.0,0.0
-10.0,-9.0,33.0,0.0
-14.0,-13.0,45.0,0.0
-7.0,-7.0,26.0,0.0
-14.0,-14.0,45.0,0.0
-12.0,-13.0,39.0,0.0
-14.0,-15.0,45.0,0.0
-12.0,-14.0,39.0,0.0
-11.0,-13.0,37.0,0.0
-18.0,-21.0,54.0,0.0
-15.0,-19.0,46.0,0.0
-19.0,-23.0,57.0,0.0
-19.0,-25.0,58.0,0.0
-21.0,-28.0,63.0,0.0
-15.0,-20.0,46.0,0.0
-18.0,-26.0,55.0,0.0
-19.0,-28.0,58.0,0.0
-19.0,-28.0,55.0,0.0
-16.0,-26.0,50.0,0.0
-19.0,-31.0,58.0,0.0
-22.0,-34.0,63.0,0.0
-20.0,-33.0,60.0,0.0
-26.0,-43.0,75.0,0.0
-23.0,-41.0,68.0,0.0
-22.0,-39.0,65.0,0.0
-23.0,-43.0,68.0,0.0
-23.0,-42.0,66.0,0.0
-29.0,-55.0,83.0,0.0
-26.0,-50.0,74.0,0.0
-28.0,-55.0,78.0,0.0
-26.0,-52.0,73.0,0.0
-28.0,-58.0,79.0,0.0
-36.0,-75.0,101.0,0.0
-31.0,-66.0,87.0,0.0
-32.0,-71.0,91.0,0.0
-31.0,-69.0,86.0,0.0
-30.0,-68.0,83.0,0.0
-35.0,-79.0,95.0,0.0
-34.0,-77.0,90.0,0.0
-35.0,-84.0,96.0,0.0
-36.0,-89.0,99.0,0.0
-32.0,-79.0,87.0,0.0
-35.0,-89.0,94.0,0.0
-38.0,-96.0,100.0,0.0
-41.0,-105.0,108.0,0.0
-39.0,-104.0,104.0,0.0
-41.0,-109.0,106.0,0.0
-39.0,-106.0,101.0,0.0
-39.0,-108.0,100.0,0.0
-43.0,-122.0,112.0,0.0
-44.0,-126.0,111.0,0.0
-42.0,-124.0,108.0,0.0
-40.0,-118.0,101.0,0.0
-40.0,-118.0,98.0,0.0
-40.0,-124.0,100.0,0.0
-41.0,-128.0,102.0,0.0
-44.0,-140.0,109.0,0.0
-40.0,-130.0,99.0,0.0
-41.0,-134.0,99.0,0.0
-45.0,-149.0,108.0,0.0
-43.0,-145.0,102.0,0.0
-40.0,-141.0,97.0,0.0
-46.0,-159.0,108.0,0.0
-42.0,-148.0,97.0,0.0
-44.0,-159.0,102.0,0.0
-43.0,-159.0,100.0,0.0
-42.0,-157.0,96.0,0.0
-45.0,-170.0,101.0,0.0
-44.0,-168.0,98.0,0.0
-46.0,-183.0,103.0,0.0
-43.0,-171.0,94.0,0.0
-45.0,-183.0,99.0,0.0
-45.0,-188.0,99.0,0.0
-46.0,-193.0,98.0,0.0
-47.0,-199.0,99.0,0.0
-46.0,-197.0,95.0,0.0
-44.0,-194.0,91.0,0.0
-43.0,-192.0,87.0,0.0
-39.0,-180.0,80.0,0.0
-39.0,-184.0,79.0,0.0
-40.0,-189.0,78.0,0.0
-38.0,-180.0,73.0,0.0
-40.0,-194.0,76.0,0.0
-43.0,-213.0,80.0,0.0
-56.0,-276.0,101.0,0.0
-57.0,-291.0,104.0,0.0
-55.0,-288.0,98.0,0.0
-55.0,-290.0,96.0,0.0
-54.0,-293.0,93.0,0.0
-54.0,-296.0,91.0,0.0
-54.0,-301.0,88.0,0.0
-52.0,-294.0,84.0,0.0
-52.0,-298.0,81.0,0.0
-3987.0,16788.0,15382.0,0.0
-4068.0,16725.0,15656.0,0.0
-4156.0,16678.0,15951.0,0.0
-4222.0,16546.0,16166.0,0.0
-4314.0,16507.0,16481.0,0.0
-4294.0,16039.0,16360.0,0.0
-4448.0,16221.0,16908.0,0.0
-4399.0,15662.0,16682.0,0.0
-4469.0,15536.0,16910.0,0.0
-4769.0,16184.0,18002.0,0.0
-4872.0,16140.0,18348.0,0.0
-4964.0,16052.0,18652.0,0.0
-5035.0,15891.0,18876.0,0.0
-5156.0,15882.0,19288.0,0.0
-5218.0,15686.0,19478.0,0.0
-5241.0,15375.0,19523.0,0.0
-5245.0,15010.0,19492.0,0.0
-5584.0,15591.0,20711.0,0.0
-5704.0,15530.0,21107.0,0.0
-5812.0,15433.0,21464.0,0.0
-5921.0,15330.0,21821.0,0.0
-6717.0,16956.0,24707.0,0.0
-6726.0,16547.0,24688.0,0.0
-6705.0,16075.0,24562.0,0.0
-6698.0,15641.0,24484.0,0.0
-6664.0,15157.0,24313.0,0.0
-6677.0,14787.0,24312.0,0.0
-6609.0,14247.0,24015.0,0.0
-6644.0,13935.0,24093.0,0.0
-9289.0,18951.0,33618.0,0.0
-9272.0,18393.0,33490.0,0.0
-9260.0,17855.0,33382.0,0.0
-9261.0,17350.0,33321.0,0.0
-9250.0,16830.0,33217.0,0.0
-9222.0,16287.0,33053.0,0.0
-8511.0,14584.0,30447.0,0.0
-8496.0,14118.0,30336.0,0.0
-8613.0,13872.0,30696.0,0.0
-8648.0,13489.0,30758.0,0.0
-8664.0,13082.0,30759.0,0.0
-9053.0,13220.0,32075.0,0.0
-5717.0,8071.0,20221.0,0.0
-5719.0,7798.0,20190.0,0.0
-5713.0,7515.0,20125.0,0.0
-5710.0,7241.0,20077.0,0.0
-5708.0,6974.0,20035.0,0.0
-5698.0,6697.0,19961.0,0.0
-5683.0,6419.0,19869.0,0.0
-5687.0,6167.0,19846.0,0.0
-5677.0,5902.0,19775.0,0.0
-5681.0,5653.0,19752.0,0.0
-5673.0,5395.0,19684.0,0.0
-5664.0,5139.0,19616.0,0.0
-5656.0,4887.0,19549.0,0.0
-5651.0,4641.0,19496.0,0.0
-5645.0,4396.0,19438.0,0.0
-5648.0,4160.0,19408.0,0.0
-5639.0,3918.0,19344.0,0.0
-5636.0,3682.0,19294.0,0.0
-5637.0,3450.0,19261.0,0.0
-5625.0,3213.0,19185.0,0.0
-5625.0,2985.0,19146.0,0.0
-5622.0,2756.0,19100.0,0.0
-5613.0,2526.0,19030.0,0.0
-5617.0,2304.0,19004.0,0.0
-5613.0,2080.0,18956.0,0.0
-5612.0,1859.0,18914.0,0.0
-5602.0,1637.0,18841.0,0.0
-5598.0,1417.0,18792.0,0.0
-5606.0,1202.0,18778.0,0.0
-5609.0,986.0,18750.0,0.0
-5595.0,770.0,18665.0,0.0
-5596.0,557.0,18630.0,0.0
-5600.0,344.0,18606.0,0.0
-5606.0,132.0,18588.0,0.0
-5601.0,-78.0,18532.0,0.0
-5614.0,-289.0,18536.0,0.0
-5596.0,-498.0,18439.0,0.0
-6422.0,-810.0,21115.0,0.0
-5903.0,-964.0,19364.0,0.0
-5904.0,-1183.0,19328.0,0.0
-5961.0,-1415.0,19475.0,0.0
-6333.0,-1736.0,20642.0,0.0
-673.0,-209.0,2193.0,0.0
-683.0,-237.0,2217.0,0.0
-677.0,-261.0,2196.0,0.0
-672.0,-283.0,2173.0,0.0
-680.0,-311.0,2195.0,0.0
-669.0,-331.0,2155.0,0.0
-690.0,-366.0,2218.0,0.0
-7.0,-4.0,27.0,0.0
-8.0,-6.0,31.0,0.0
-6.0,-4.0,23.0,0.0
-6.0,-5.0,21.0,0.0
-10.0,-8.0,32.0,0.0
-6.0,-5.0,23.0,0.0
-11.0,-9.0,37.0,0.0
-6.0,-5.0,23.0,0.0
-8.0,-7.0,27.0,0.0
-10.0,-9.0,33.0,0.0
-11.0,-9.0,35.0,0.0
-8.0,-8.0,27.0,0.0
-8.0,-9.0,30.0,0.0
-6.0,-5.0,19.0,0.0
-14.0,-16.0,47.0,0.0
-12.0,-14.0,40.0,0.0
-11.0,-13.0,36.0,0.0
-7.0,-9.0,25.0,0.0
-11.0,-14.0,35.0,0.0
-12.0,-15.0,38.0,0.0
-11.0,-14.0,35.0,0.0
-17.0,-24.0,56.0,0.0
-19.0,-26.0,60.0,0.0
-17.0,-25.0,54.0,0.0
-16.0,-24.0,51.0,0.0
-15.0,-23.0,46.0,0.0
-21.0,-31.0,63.0,0.0
-18.0,-28.0,56.0,0.0
-15.0,-25.0,47.0,0.0
-20.0,-32.0,60.0,0.0
-18.0,-32.0,57.0,0.0
-21.0,-37.0,65.0,0.0
-21.0,-39.0,65.0,0.0
-22.0,-40.0,66.0,0.0
-20.0,-36.0,58.0,0.0
-23.0,-44.0,69.0,0.0
-22.0,-43.0,66.0,0.0
-23.0,-46.0,70.0,0.0
-25.0,-50.0,73.0,0.0
-26.0,-54.0,76.0,0.0
-27.0,-58.0,81.0,0.0
-27.0,-59.0,79.0,0.0
-31.0,-66.0,88.0,0.0
-31.0,-68.0,88.0,0.0
-31.0,-70.0,88.0,0.0
-31.0,-73.0,89.0,0.0
-31.0,-75.0,89.0,0.0
-32.0,-78.0,91.0,0.0
-31.0,-76.0,87.0,0.0
-35.0,-86.0,97.0,0.0
-31.0,-80.0,88.0,0.0
-34.0,-87.0,93.0,0.0
-34.0,-90.0,94.0,0.0
-32.0,-87.0,89.0,0.0
-34.0,-92.0,92.0,0.0
-38.0,-105.0,103.0,0.0
-36.0,-103.0,99.0,0.0
-38.0,-109.0,102.0,0.0
-36.0,-107.0,98.0,0.0
-38.0,-112.0,100.0,0.0
-39.0,-118.0,103.0,0.0
-35.0,-109.0,93.0,0.0
-38.0,-120.0,100.0,0.0
-35.0,-114.0,93.0,0.0
-37.0,-118.0,94.0,0.0
-38.0,-124.0,97.0,0.0
-37.0,-123.0,94.0,0.0
-40.0,-135.0,100.0,0.0
-38.0,-131.0,96.0,0.0
-38.0,-137.0,97.0,0.0
-37.0,-132.0,92.0,0.0
-39.0,-142.0,96.0,0.0
-37.0,-138.0,92.0,0.0
-37.0,-143.0,92.0,0.0
-41.0,-158.0,99.0,0.0
-40.0,-157.0,96.0,0.0
-41.0,-163.0,98.0,0.0
-39.0,-158.0,93.0,0.0
-40.0,-166.0,95.0,0.0
-43.0,-177.0,98.0,0.0
-41.0,-172.0,93.0,0.0
-42.0,-177.0,94.0,0.0
-39.0,-173.0,89.0,0.0
-38.0,-172.0,85.0,0.0
-38.0,-175.0,85.0,0.0
-38.0,-175.0,82.0,0.0
-40.0,-185.0,85.0,0.0
-36.0,-171.0,77.0,0.0
-36.0,-173.0,75.0,0.0
-35.0,-172.0,72.0,0.0
-35.0,-177.0,72.0,0.0
-35.0,-182.0,72.0,0.0
-36.0,-189.0,72.0,0.0
-50.0,-261.0,97.0,0.0
-52.0,-281.0,100.0,0.0
-52.0,-286.0,99.0,0.0
-50.0,-278.0,93.0,0.0
-50.0,-284.0,91.0,0.0
-50.0,-289.0,90.0,0.0
-49.0,-289.0,86.0,0.0
-49.0,-293.0,84.0,0.0
-49.0,-296.0,81.0,0.0
-3790.0,16791.0,15453.0,0.0
-3872.0,16735.0,15734.0,0.0
-3952.0,16670.0,16013.0,0.0
-4034.0,16604.0,16295.0,0.0
-4117.0,16535.0,16580.0,0.0
-4088.0,16026.0,16419.0,0.0
-4272.0,16344.0,17108.0,0.0
-4302.0,16066.0,17185.0,0.0
-4275.0,15576.0,17026.0,0.0
-4542.0,16150.0,18042.0,0.0
-4649.0,16131.0,18418.0,0.0
-4745.0,16066.0,18749.0,0.0
-4838.0,15983.0,19066.0,0.0
-4937.0,15911.0,19405.0,0.0
-4893.0,15385.0,19185.0,0.0
-5063.0,15526.0,19799.0,0.0
-5066.0,15153.0,19763.0,0.0
-5109.0,14904.0,19884.0,0.0
-5454.0,15514.0,21175.0,0.0
-5567.0,15439.0,21563.0,0.0
-5679.0,15350.0,21942.0,0.0
-5798.0,15274.0,22351.0,0.0
-5916.0,15185.0,22752.0,0.0
-6033.0,15086.0,23150.0,0.0
-6146.0,14967.0,23528.0,0.0
-6362.0,15087.0,24303.0,0.0
-6246.0,14415.0,23802.0,0.0
-6346.0,14253.0,24131.0,0.0
-6366.0,13908.0,24151.0,0.0
-8861.0,18827.0,33544.0,0.0
-8842.0,18264.0,33401.0,0.0
-8852.0,17767.0,33363.0,0.0
-8833.0,17222.0,33222.0,0.0
-8846.0,16746.0,33200.0,0.0
-8823.0,16210.0,33042.0,0.0
-8225.0,14657.0,30737.0,0.0
-8208.0,14181.0,30607.0,0.0
-8222.0,13764.0,30595.0,0.0
-8256.0,13383.0,30658.0,0.0
-8314.0,13044.0,30812.0,0.0
-8747.0,13270.0,32347.0,0.0
-5478.0,8033.0,20222.0,0.0
-5491.0,7773.0,20223.0,0.0
-5497.0,7509.0,20207.0,0.0
-5489.0,7227.0,20134.0,0.0
-5499.0,6973.0,20132.0,0.0
-5504.0,6712.0,20107.0,0.0
-5501.0,6446.0,20054.0,0.0
-5506.0,6193.0,20033.0,0.0
-5511.0,5940.0,20008.0,0.0
-5524.0,5700.0,20019.0,0.0
-5516.0,5439.0,19949.0,0.0
-5447.0,5122.0,19656.0,0.0
-5524.0,4947.0,19896.0,0.0
-5518.0,4694.0,19834.0,0.0
-5521.0,4453.0,19805.0,0.0
-5531.0,4218.0,19799.0,0.0
-5529.0,3977.0,19755.0,0.0
-5532.0,3740.0,19725.0,0.0
-5528.0,3500.0,19669.0,0.0
-5517.0,3259.0,19592.0,0.0
-5535.0,3035.0,19615.0,0.0
-5541.0,2807.0,19599.0,0.0
-5539.0,2575.0,19549.0,0.0
-5546.0,2349.0,19535.0,0.0
-5553.0,2123.0,19519.0,0.0
-5541.0,1893.0,19437.0,0.0
-5542.0,1668.0,19403.0,0.0
-5422.0,1412.0,18939.0,0.0
-5534.0,1219.0,19294.0,0.0
-5556.0,1002.0,19328.0,0.0
-5548.0,779.0,19258.0,0.0
-5560.0,561.0,19260.0,0.0
-5539.0,341.0,19149.0,0.0
-5564.0,124.0,19195.0,0.0
-5569.0,-92.0,19169.0,0.0
-5517.0,-306.0,18952.0,0.0
-5517.0,-520.0,18909.0,0.0
-6166.0,-820.0,21091.0,0.0
-5684.0,-975.0,19400.0,0.0
-5688.0,-1194.0,19371.0,0.0
-5685.0,-1412.0,19317.0,0.0
-5678.0,-1627.0,19254.0,0.0
-5670.0,-1841.0,19182.0,0.0
-5671.0,-2057.0,19143.0,0.0
-5672.0,-2273.0,19104.0,0.0
-5680.0,-2491.0,19087.0,0.0
-5668.0,-2700.0,19004.0,0.0
-5672.0,-2917.0,18977.0,0.0
-9.0,-5.0,35.0,0.0
-4.0,-3.0,18.0,0.0
-13.0,-9.0,47.0,0.0
-10.0,-8.0,35.0,0.0
-1.0,-1.0,5.0,0.0
-14.0,-11.0,48.0,0.0
-8.0,-7.0,27.0,0.0
-8.0,-7.0,30.0,0.0
-6.0,-5.0,22.0,0.0
-9.0,-8.0,33.0,0.0
-11.0,-10.0,39.0,0.0
-10.0,-10.0,38.0,0.0
-10.0,-11.0,35.0,0.0
-7.0,-7.0,26.0,0.0
-10.0,-12.0,37.0,0.0
-14.0,-16.0,49.0,0.0
-10.0,-12.0,35.0,0.0
-10.0,-13.0,37.0,0.0
-14.0,-18.0,47.0,0.0
-12.0,-15.0,41.0,0.0
-14.0,-19.0,46.0,0.0
-15.0,-20.0,50.0,0.0
-11.0,-15.0,38.0,0.0
-16.0,-24.0,56.0,0.0
-20.0,-29.0,63.0,0.0
-20.0,-30.0,63.0,0.0
-19.0,-29.0,60.0,0.0
-17.0,-28.0,56.0,0.0
-19.0,-30.0,59.0,0.0
-20.0,-33.0,62.0,0.0
-21.0,-38.0,68.0,0.0
-20.0,-36.0,65.0,0.0
-21.0,-38.0,66.0,0.0
-21.0,-39.0,66.0,0.0
-20.0,-38.0,62.0,0.0
-20.0,-40.0,65.0,0.0
-22.0,-44.0,70.0,0.0
-24.0,-49.0,75.0,0.0
-25.0,-52.0,77.0,0.0
-27.0,-57.0,83.0,0.0
-28.0,-59.0,86.0,0.0
-30.0,-66.0,92.0,0.0
-33.0,-75.0,101.0,0.0
-28.0,-65.0,85.0,0.0
-25.0,-59.0,77.0,0.0
-32.0,-75.0,95.0,0.0
-31.0,-74.0,92.0,0.0
-32.0,-80.0,96.0,0.0
-31.0,-77.0,91.0,0.0
-32.0,-82.0,94.0,0.0
-36.0,-93.0,104.0,0.0
-32.0,-87.0,96.0,0.0
-36.0,-97.0,104.0,0.0
-37.0,-102.0,107.0,0.0
-36.0,-101.0,104.0,0.0
-35.0,-99.0,100.0,0.0
-36.0,-104.0,102.0,0.0
-36.0,-107.0,103.0,0.0
-37.0,-113.0,106.0,0.0
-36.0,-111.0,102.0,0.0
-37.0,-118.0,105.0,0.0
-37.0,-116.0,103.0,0.0
-40.0,-130.0,111.0,0.0
-36.0,-120.0,101.0,0.0
-36.0,-122.0,100.0,0.0
-39.0,-133.0,107.0,0.0
-40.0,-138.0,108.0,0.0
-39.0,-136.0,104.0,0.0
-39.0,-138.0,103.0,0.0
-39.0,-143.0,104.0,0.0
-38.0,-139.0,100.0,0.0
-39.0,-146.0,101.0,0.0
-39.0,-150.0,102.0,0.0
-38.0,-148.0,98.0,0.0
-39.0,-156.0,102.0,0.0
-41.0,-160.0,101.0,0.0
-39.0,-159.0,98.0,0.0
-40.0,-164.0,99.0,0.0
-40.0,-169.0,98.0,0.0
-41.0,-176.0,101.0,0.0
-40.0,-171.0,96.0,0.0
-40.0,-177.0,96.0,0.0
-39.0,-173.0,91.0,0.0
-41.0,-187.0,97.0,0.0
-41.0,-192.0,96.0,0.0
-39.0,-184.0,89.0,0.0
-39.0,-188.0,89.0,0.0
-38.0,-185.0,85.0,0.0
-38.0,-188.0,84.0,0.0
-35.0,-181.0,78.0,0.0
-34.0,-179.0,75.0,0.0
-34.0,-179.0,73.0,0.0
-33.0,-182.0,72.0,0.0
-33.0,-182.0,70.0,0.0
-46.0,-254.0,95.0,0.0
-50.0,-282.0,102.0,0.0
-48.0,-279.0,97.0,0.0
-48.0,-284.0,95.0,0.0
-48.0,-287.0,93.0,0.0
-47.0,-290.0,90.0,0.0
-47.0,-294.0,88.0,0.0
-46.0,-289.0,84.0,0.0
-45.0,-291.0,81.0,0.0
-3589.0,16774.0,15502.0,0.0
-3666.0,16709.0,15776.0,0.0
-3742.0,16636.0,16047.0,0.0
-3824.0,16584.0,16344.0,0.0
-3888.0,16445.0,16558.0,0.0
-3986.0,16444.0,16917.0,0.0
-4066.0,16363.0,17200.0,0.0
-4070.0,15974.0,17157.0,0.0
-4122.0,15782.0,17323.0,0.0
-4181.0,15615.0,17516.0,0.0
-4423.0,16112.0,18472.0,0.0
-4515.0,16044.0,18801.0,0.0
-4610.0,15976.0,19137.0,0.0
-4689.0,15849.0,19408.0,0.0
-4784.0,15770.0,19747.0,0.0
-4873.0,15663.0,20056.0,0.0
-4877.0,15283.0,20014.0,0.0
-4869.0,14873.0,19924.0,0.0
-5204.0,15494.0,21234.0,0.0
-5313.0,15417.0,21621.0,0.0
-5422.0,15332.0,22007.0,0.0
-5535.0,15247.0,22403.0,0.0
-5652.0,15166.0,22818.0,0.0
-5767.0,15072.0,23224.0,0.0
-5884.0,14971.0,23632.0,0.0
-5981.0,14812.0,23961.0,0.0
-6119.0,14746.0,24451.0,0.0
-6148.0,14414.0,24506.0,0.0
-6144.0,14011.0,24433.0,0.0
-8457.0,18749.0,33547.0,0.0
-8445.0,18196.0,33418.0,0.0
-8434.0,17656.0,33296.0,0.0
-8435.0,17148.0,33220.0,0.0
-8436.0,16649.0,33149.0,0.0
-8433.0,16146.0,33057.0,0.0
-7734.0,14361.0,30247.0,0.0
-7801.0,14040.0,30438.0,0.0
-7878.0,13734.0,30666.0,0.0
-8066.0,13617.0,31331.0,0.0
-8152.0,13314.0,31591.0,0.0
-8325.0,13145.0,32187.0,0.0
-8383.0,12789.0,32340.0,0.0
-5903.0,8695.0,22724.0,0.0
-5358.0,7613.0,20583.0,0.0
-5443.0,7452.0,20861.0,0.0
-6153.0,8112.0,23530.0,0.0
-5364.0,6800.0,20468.0,0.0
-6125.0,7460.0,23319.0,0.0
-6127.0,7160.0,23277.0,0.0
-6123.0,6857.0,23211.0,0.0
-5402.0,5788.0,20433.0,0.0
-5399.0,5528.0,20382.0,0.0
-6090.0,5947.0,22941.0,0.0
-5364.0,4986.0,20163.0,0.0
-6073.0,5362.0,22778.0,0.0
-5399.0,4518.0,20207.0,0.0
-5405.0,4276.0,20186.0,0.0
-6061.0,4520.0,22588.0,0.0
-6055.0,4243.0,22516.0,0.0
-6049.0,3969.0,22447.0,0.0
-5382.0,3294.0,19932.0,0.0
-5385.0,3058.0,19898.0,0.0
-6024.0,3158.0,22213.0,0.0
-6017.0,2894.0,22140.0,0.0
-5395.0,2362.0,19807.0,0.0
-5382.0,2127.0,19719.0,0.0
-6000.0,2116.0,21939.0,0.0
-5994.0,1861.0,21869.0,0.0
-5983.0,1607.0,21783.0,0.0
-5347.0,1212.0,19425.0,0.0
-5373.0,995.0,19477.0,0.0
-5937.0,854.0,21478.0,0.0
-5956.0,611.0,21499.0,0.0
-5797.0,358.0,20881.0,0.0
-5393.0,113.0,19382.0,0.0
-5369.0,-104.0,19256.0,0.0
-5935.0,-356.0,21240.0,0.0
-5943.0,-596.0,21223.0,0.0
-5859.0,-823.0,20876.0,0.0
-5453.0,-983.0,19386.0,0.0
-5454.0,-1201.0,19347.0,0.0
-5458.0,-1419.0,19319.0,0.0
-5439.0,-1631.0,19209.0,0.0
-5451.0,-1850.0,19208.0,0.0
-5450.0,-2065.0,19161.0,0.0
-5453.0,-2281.0,19131.0,0.0
-5455.0,-2497.0,19094.0,0.0
-5450.0,-2708.0,19032.0,0.0
-5446.0,-2920.0,18976.0,0.0
-10.0,-6.0,37.0,0.0
-5.0,-4.0,20.0,0.0
-6.0,-5.0,24.0,0.0
-4.0,-3.0,19.0,0.0
-7.0,-5.0,27.0,0.0
-8.0,-7.0,28.0,0.0
-5.0,-5.0,21.0,0.0
-11.0,-10.0,40.0,0.0
-10.0,-9.0,37.0,0.0
-10.0,-8.0,35.0,0.0
-6.0,-6.0,26.0,0.0
-11.0,-10.0,39.0,0.0
-7.0,-7.0,26.0,0.0
-8.0,-9.0,30.0,0.0
-12.0,-14.0,46.0,0.0
-8.0,-9.0,30.0,0.0
-11.0,-13.0,38.0,0.0
-12.0,-15.0,42.0,0.0
-10.0,-13.0,37.0,0.0
-9.0,-12.0,33.0,0.0
-10.0,-13.0,34.0,0.0
-17.0,-24.0,59.0,0.0
-13.0,-20.0,46.0,0.0
-11.0,-17.0,40.0,0.0
-14.0,-22.0,49.0,0.0
-12.0,-20.0,42.0,0.0
-18.0,-29.0,61.0,0.0
-19.0,-31.0,64.0,0.0
-16.0,-26.0,52.0,0.0
-13.0,-23.0,45.0,0.0
-17.0,-31.0,57.0,0.0
-18.0,-33.0,59.0,0.0
-21.0,-40.0,71.0,0.0
-17.0,-34.0,57.0,0.0
-19.0,-37.0,62.0,0.0
-19.0,-38.0,62.0,0.0
-19.0,-39.0,62.0,0.0
-20.0,-43.0,66.0,0.0
-23.0,-49.0,74.0,0.0
-20.0,-47.0,67.0,0.0
-25.0,-57.0,81.0,0.0
-24.0,-55.0,78.0,0.0
-27.0,-64.0,87.0,0.0
-28.0,-68.0,90.0,0.0
-25.0,-61.0,79.0,0.0
-31.0,-77.0,97.0,0.0
-27.0,-68.0,85.0,0.0
-26.0,-68.0,81.0,0.0
-30.0,-79.0,92.0,0.0
-31.0,-82.0,94.0,0.0
-27.0,-76.0,86.0,0.0
-30.0,-82.0,91.0,0.0
-30.0,-85.0,91.0,0.0
-28.0,-81.0,85.0,0.0
-30.0,-89.0,91.0,0.0
-31.0,-93.0,93.0,0.0
-32.0,-97.0,96.0,0.0
-33.0,-102.0,98.0,0.0
-32.0,-103.0,97.0,0.0
-33.0,-107.0,98.0,0.0
-32.0,-104.0,94.0,0.0
-33.0,-110.0,96.0,0.0
-31.0,-105.0,90.0,0.0
-32.0,-110.0,93.0,0.0
-32.0,-114.0,94.0,0.0
-32.0,-117.0,94.0,0.0
-34.0,-123.0,96.0,0.0
-35.0,-126.0,98.0,0.0
-35.0,-129.0,97.0,0.0
-36.0,-138.0,101.0,0.0
-35.0,-133.0,95.0,0.0
-35.0,-136.0,95.0,0.0
-34.0,-137.0,93.0,0.0
-35.0,-141.0,94.0,0.0
-36.0,-148.0,96.0,0.0
-34.0,-146.0,92.0,0.0
-35.0,-151.0,93.0,0.0
-35.0,-155.0,93.0,0.0
-35.0,-158.0,94.0,0.0
-34.0,-157.0,90.0,0.0
-37.0,-171.0,95.0,0.0
-35.0,-168.0,91.0,0.0
-35.0,-166.0,89.0,0.0
-34.0,-165.0,85.0,0.0
-33.0,-166.0,84.0,0.0
-34.0,-173.0,85.0,0.0
-33.0,-171.0,82.0,0.0
-31.0,-162.0,76.0,0.0
-32.0,-171.0,77.0,0.0
-31.0,-171.0,74.0,0.0
-30.0,-166.0,71.0,0.0
-30.0,-168.0,69.0,0.0
-30.0,-175.0,69.0,0.0
-29.0,-171.0,66.0,0.0
-40.0,-237.0,89.0,0.0
-46.0,-273.0,99.0,0.0
-45.0,-277.0,97.0,0.0
-45.0,-283.0,96.0,0.0
-44.0,-277.0,90.0,0.0
-44.0,-289.0,90.0,0.0
-43.0,-283.0,86.0,0.0
-42.0,-284.0,83.0,0.0
-42.0,-290.0,81.0,0.0
-3390.0,16774.0,15566.0,0.0
-3463.0,16704.0,15836.0,0.0
-3542.0,16647.0,16123.0,0.0
-3616.0,16570.0,16396.0,0.0
-3690.0,16482.0,16662.0,0.0
-3769.0,16412.0,16953.0,0.0
-3740.0,15876.0,16756.0,0.0
-3913.0,16195.0,17465.0,0.0
-3933.0,15871.0,17490.0,0.0
-3930.0,15465.0,17417.0,0.0
-4185.0,16054.0,18478.0,0.0
-4285.0,16027.0,18855.0,0.0
-4374.0,15946.0,19179.0,0.0
-4440.0,15778.0,19399.0,0.0
-4540.0,15726.0,19770.0,0.0
-4464.0,15075.0,19380.0,0.0
-4590.0,15105.0,19861.0,0.0
-4647.0,14901.0,20041.0,0.0
-4950.0,15468.0,21283.0,0.0
-5060.0,15402.0,21687.0,0.0
-5164.0,15311.0,22066.0,0.0
-5273.0,15228.0,22467.0,0.0
-5389.0,15154.0,22891.0,0.0
-5498.0,15050.0,23285.0,0.0
-5610.0,14948.0,23693.0,0.0
-5718.0,14826.0,24080.0,0.0
-5839.0,14729.0,24522.0,0.0
-5788.0,14201.0,24242.0,0.0
-5906.0,14088.0,24668.0,0.0
-5942.0,13777.0,24752.0,0.0
-6372.0,14355.0,26473.0,0.0
-6508.0,14238.0,26962.0,0.0
-6646.0,14116.0,27461.0,0.0
-6779.0,13974.0,27939.0,0.0
-8044.0,16085.0,33068.0,0.0
-7433.0,14410.0,30477.0,0.0
-7424.0,13948.0,30367.0,0.0
-7544.0,13726.0,30779.0,0.0
-7703.0,13565.0,31348.0,0.0
-7817.0,13318.0,31738.0,0.0
-7993.0,13161.0,32368.0,0.0
-8007.0,12736.0,32348.0,0.0
-7997.0,12277.0,32229.0,0.0
-5802.0,8591.0,23331.0,0.0
-5876.0,8382.0,23569.0,0.0
-5879.0,8073.0,23528.0,0.0
-5876.0,7759.0,23461.0,0.0
-5864.0,7436.0,23355.0,0.0
-5859.0,7129.0,23286.0,0.0
-5847.0,6815.0,23183.0,0.0
-5842.0,6514.0,23108.0,0.0
-5192.0,5529.0,20492.0,0.0
-5161.0,5240.0,20319.0,0.0
-5145.0,4972.0,20212.0,0.0
-5246.0,4815.0,20563.0,0.0
-5250.0,4565.0,20531.0,0.0
-5249.0,4315.0,20485.0,0.0
-5251.0,4067.0,20444.0,0.0
-5250.0,3820.0,20393.0,0.0
-5251.0,3577.0,20355.0,0.0
-5248.0,3333.0,20298.0,0.0
-5249.0,3093.0,20257.0,0.0
-5247.0,2853.0,20203.0,0.0
-5238.0,2611.0,20125.0,0.0
-5246.0,2380.0,20109.0,0.0
-5238.0,2144.0,20037.0,0.0
-5241.0,1913.0,20004.0,0.0
-5238.0,1681.0,19952.0,0.0
-5232.0,1450.0,19884.0,0.0
-5163.0,1207.0,19580.0,0.0
-5182.0,987.0,19606.0,0.0
-5230.0,771.0,19745.0,0.0
-5227.0,547.0,19687.0,0.0
-5226.0,324.0,19644.0,0.0
-5224.0,103.0,19593.0,0.0
-5226.0,-117.0,19557.0,0.0
-5222.0,-337.0,19499.0,0.0
-5226.0,-557.0,19471.0,0.0
-5223.0,-774.0,19417.0,0.0
-5223.0,-991.0,19371.0,0.0
-5220.0,-1208.0,19320.0,0.0
-5217.0,-1423.0,19264.0,0.0
-5225.0,-1641.0,19251.0,0.0
-5209.0,-1850.0,19150.0,0.0
-5212.0,-2066.0,19120.0,0.0
-5224.0,-2285.0,19117.0,0.0
-5230.0,-2500.0,19094.0,0.0
-7.0,-4.0,30.0,0.0
-6.0,-4.0,26.0,0.0
-5219.0,-3135.0,18928.0,0.0
-9.0,-7.0,39.0,0.0
-5.0,-4.0,20.0,0.0
-3.0,-3.0,15.0,0.0
-6.0,-5.0,25.0,0.0
-6.0,-6.0,24.0,0.0
-12.0,-11.0,43.0,0.0
-8.0,-8.0,31.0,0.0
-7.0,-7.0,30.0,0.0
-8.0,-8.0,31.0,0.0
-9.0,-10.0,37.0,0.0
-8.0,-9.0,33.0,0.0
-10.0,-11.0,39.0,0.0
-6.0,-7.0,26.0,0.0
-6.0,-8.0,25.0,0.0
-7.0,-9.0,28.0,0.0
-10.0,-13.0,38.0,0.0
-12.0,-16.0,44.0,0.0
-14.0,-19.0,52.0,0.0
-11.0,-15.0,40.0,0.0
-15.0,-21.0,53.0,0.0
-15.0,-23.0,55.0,0.0
-13.0,-19.0,45.0,0.0
-16.0,-26.0,59.0,0.0
-16.0,-25.0,57.0,0.0
-23.0,-37.0,80.0,0.0
-18.0,-30.0,64.0,0.0
-17.0,-31.0,62.0,0.0
-12.0,-22.0,44.0,0.0
-17.0,-31.0,60.0,0.0
-16.0,-30.0,57.0,0.0
-22.0,-41.0,76.0,0.0
-19.0,-39.0,69.0,0.0
-19.0,-39.0,67.0,0.0
-19.0,-42.0,69.0,0.0
-21.0,-45.0,72.0,0.0
-18.0,-41.0,65.0,0.0
-22.0,-47.0,73.0,0.0
-24.0,-53.0,80.0,0.0
-23.0,-53.0,78.0,0.0
-25.0,-59.0,84.0,0.0
-22.0,-54.0,75.0,0.0
-24.0,-58.0,79.0,0.0
-28.0,-69.0,93.0,0.0
-28.0,-73.0,95.0,0.0
-25.0,-65.0,82.0,0.0
-26.0,-69.0,85.0,0.0
-31.0,-83.0,101.0,0.0
-25.0,-70.0,82.0,0.0
-29.0,-82.0,94.0,0.0
-28.0,-80.0,90.0,0.0
-27.0,-78.0,86.0,0.0
-28.0,-82.0,89.0,0.0
-31.0,-94.0,98.0,0.0
-32.0,-99.0,102.0,0.0
-33.0,-103.0,104.0,0.0
-35.0,-111.0,109.0,0.0
-33.0,-106.0,102.0,0.0
-32.0,-105.0,98.0,0.0
-34.0,-113.0,105.0,0.0
-34.0,-116.0,105.0,0.0
-32.0,-110.0,97.0,0.0
-35.0,-126.0,108.0,0.0
-34.0,-123.0,104.0,0.0
-35.0,-127.0,105.0,0.0
-33.0,-122.0,98.0,0.0
-32.0,-120.0,95.0,0.0
-36.0,-139.0,107.0,0.0
-34.0,-136.0,103.0,0.0
-35.0,-139.0,103.0,0.0
-33.0,-136.0,98.0,0.0
-33.0,-137.0,96.0,0.0
-34.0,-145.0,99.0,0.0
-35.0,-152.0,102.0,0.0
-34.0,-148.0,97.0,0.0
-35.0,-156.0,100.0,0.0
-33.0,-152.0,95.0,0.0
-34.0,-156.0,95.0,0.0
-35.0,-163.0,97.0,0.0
-34.0,-163.0,94.0,0.0
-35.0,-168.0,95.0,0.0
-35.0,-172.0,94.0,0.0
-35.0,-176.0,94.0,0.0
-35.0,-176.0,91.0,0.0
-33.0,-172.0,86.0,0.0
-32.0,-172.0,85.0,0.0
-33.0,-177.0,84.0,0.0
-31.0,-173.0,81.0,0.0
-30.0,-171.0,77.0,0.0
-30.0,-171.0,76.0,0.0
-29.0,-173.0,74.0,0.0
-29.0,-173.0,71.0,0.0
-30.0,-182.0,73.0,0.0
-28.0,-176.0,69.0,0.0
-36.0,-228.0,86.0,0.0
-43.0,-276.0,100.0,0.0
-43.0,-284.0,100.0,0.0
-42.0,-278.0,95.0,0.0
-41.0,-281.0,92.0,0.0
-41.0,-284.0,90.0,0.0
-40.0,-286.0,87.0,0.0
-40.0,-291.0,85.0,0.0
-39.0,-292.0,82.0,0.0
-3181.0,16725.0,15582.0,0.0
-3251.0,16649.0,15845.0,0.0
-3322.0,16567.0,16108.0,0.0
-3403.0,16533.0,16424.0,0.0
-3484.0,16488.0,16734.0,0.0
-3548.0,16364.0,16970.0,0.0
-3593.0,16145.0,17107.0,0.0
-3595.0,15738.0,17039.0,0.0
-3699.0,15779.0,17457.0,0.0
-3735.0,15528.0,17555.0,0.0
-3956.0,16023.0,18514.0,0.0
-4053.0,15999.0,18895.0,0.0
-4143.0,15935.0,19238.0,0.0
-4235.0,15869.0,19587.0,0.0
-4325.0,15792.0,19930.0,0.0
-4370.0,15543.0,20059.0,0.0
-4443.0,15394.0,20319.0,0.0
-4437.0,14978.0,20223.0,0.0
-4478.0,14721.0,20335.0,0.0
-4798.0,15362.0,21715.0,0.0
-4905.0,15293.0,22124.0,0.0
-5012.0,15211.0,22529.0,0.0
-5119.0,15123.0,22933.0,0.0
-5230.0,15038.0,23356.0,0.0
-5337.0,14930.0,23756.0,0.0
-5452.0,14836.0,24191.0,0.0
-5566.0,14730.0,24618.0,0.0
-5682.0,14620.0,25056.0,0.0
-5672.0,14186.0,24937.0,0.0
-5682.0,13806.0,24903.0,0.0
-6074.0,14337.0,26544.0,0.0
-6201.0,14211.0,27018.0,0.0
-6337.0,14094.0,27528.0,0.0
-6477.0,13978.0,28060.0,0.0
-6593.0,13797.0,28479.0,0.0
-6699.0,13588.0,28858.0,0.0
-7032.0,13818.0,30209.0,0.0
-7194.0,13687.0,30818.0,0.0
-7365.0,13561.0,31470.0,0.0
-7469.0,13298.0,31826.0,0.0
-7610.0,13095.0,32343.0,0.0
-7608.0,12644.0,32250.0,0.0
-5413.0,8682.0,22890.0,0.0
-5555.0,8588.0,23426.0,0.0
-5600.0,8340.0,23553.0,0.0
-5603.0,8030.0,23506.0,0.0
-5592.0,7704.0,23400.0,0.0
-5591.0,7397.0,23339.0,0.0
-5584.0,7086.0,23254.0,0.0
-5575.0,6775.0,23157.0,0.0
-5572.0,6477.0,23089.0,0.0
-4975.0,5523.0,20566.0,0.0
-5047.0,5341.0,20815.0,0.0
-5040.0,5075.0,20736.0,0.0
-5057.0,4835.0,20756.0,0.0
-5050.0,4573.0,20675.0,0.0
-5061.0,4331.0,20673.0,0.0
-5066.0,4085.0,20648.0,0.0
-5064.0,3834.0,20586.0,0.0
-5066.0,3589.0,20548.0,0.0
-5058.0,3340.0,20469.0,0.0
-5060.0,3099.0,20430.0,0.0
-5063.0,2861.0,20396.0,0.0
-5054.0,2617.0,20312.0,0.0
-5069.0,2388.0,20325.0,0.0
-5060.0,2148.0,20243.0,0.0
-5071.0,1918.0,20240.0,0.0
-5062.0,1683.0,20161.0,0.0
-5073.0,1454.0,20155.0,0.0
-5070.0,1223.0,20097.0,0.0
-5072.0,995.0,20061.0,0.0
-5074.0,768.0,20024.0,0.0
-5082.0,543.0,20011.0,0.0
-5088.0,317.0,19989.0,0.0
-5079.0,92.0,19909.0,0.0
-5078.0,-131.0,19861.0,0.0
-5081.0,-354.0,19827.0,0.0
-5080.0,-575.0,19776.0,0.0
-5084.0,-797.0,19746.0,0.0
-5065.0,-1013.0,19629.0,0.0
-8.0,-2.0,35.0,0.0
-5086.0,-1457.0,19623.0,0.0
-5270.0,-1736.0,20286.0,0.0
-5361.0,-1995.0,20590.0,0.0
-5338.0,-2216.0,20455.0,0.0
-5317.0,-2434.0,20330.0,0.0
-3.0,-2.0,13.0,0.0
-5330.0,-2895.0,20288.0,0.0
-5.0,-3.0,21.0,0.0
-4.0,-3.0,17.0,0.0
-4.0,-3.0,17.0,0.0
-7.0,-6.0,28.0,0.0
-9.0,-8.0,36.0,0.0
-6.0,-5.0,27.0,0.0
-7.0,-7.0,31.0,0.0
-6.0,-5.0,23.0,0.0
-7.0,-7.0,31.0,0.0
-5.0,-5.0,20.0,0.0
-5.0,-5.0,20.0,0.0
-3.0,-3.0,15.0,0.0
-8.0,-9.0,31.0,0.0
-5.0,-6.0,20.0,0.0
-5.0,-6.0,20.0,0.0
-7.0,-9.0,29.0,0.0
-6.0,-8.0,25.0,0.0
-8.0,-11.0,32.0,0.0
-9.0,-13.0,35.0,0.0
-12.0,-18.0,47.0,0.0
-7.0,-11.0,28.0,0.0
-10.0,-16.0,39.0,0.0
-11.0,-18.0,43.0,0.0
-10.0,-16.0,39.0,0.0
-14.0,-23.0,54.0,0.0
-12.0,-21.0,48.0,0.0
-13.0,-22.0,49.0,0.0
-14.0,-25.0,53.0,0.0
-12.0,-23.0,46.0,0.0
-15.0,-28.0,56.0,0.0
-15.0,-31.0,59.0,0.0
-15.0,-31.0,58.0,0.0
-14.0,-30.0,55.0,0.0
-17.0,-36.0,63.0,0.0
-20.0,-43.0,73.0,0.0
-18.0,-39.0,66.0,0.0
-15.0,-34.0,56.0,0.0
-18.0,-41.0,65.0,0.0
-15.0,-37.0,56.0,0.0
-22.0,-51.0,76.0,0.0
-23.0,-54.0,80.0,0.0
-25.0,-61.0,87.0,0.0
-20.0,-50.0,71.0,0.0
-26.0,-65.0,89.0,0.0
-21.0,-55.0,73.0,0.0
-24.0,-64.0,82.0,0.0
-27.0,-74.0,94.0,0.0
-26.0,-71.0,88.0,0.0
-24.0,-69.0,84.0,0.0
-27.0,-76.0,91.0,0.0
-28.0,-81.0,94.0,0.0
-24.0,-73.0,82.0,0.0
-28.0,-85.0,94.0,0.0
-25.0,-78.0,84.0,0.0
-28.0,-90.0,96.0,0.0
-29.0,-93.0,96.0,0.0
-28.0,-91.0,92.0,0.0
-28.0,-95.0,95.0,0.0
-29.0,-99.0,96.0,0.0
-31.0,-109.0,104.0,0.0
-29.0,-103.0,96.0,0.0
-30.0,-109.0,98.0,0.0
-28.0,-106.0,93.0,0.0
-29.0,-110.0,96.0,0.0
-30.0,-116.0,98.0,0.0
-28.0,-109.0,90.0,0.0
-29.0,-116.0,93.0,0.0
-27.0,-110.0,88.0,0.0
-29.0,-119.0,92.0,0.0
-29.0,-119.0,90.0,0.0
-30.0,-130.0,96.0,0.0
-31.0,-134.0,97.0,0.0
-30.0,-131.0,92.0,0.0
-31.0,-137.0,95.0,0.0
-31.0,-141.0,95.0,0.0
-31.0,-147.0,96.0,0.0
-30.0,-141.0,90.0,0.0
-30.0,-143.0,89.0,0.0
-30.0,-148.0,90.0,0.0
-32.0,-155.0,91.0,0.0
-32.0,-158.0,92.0,0.0
-31.0,-158.0,89.0,0.0
-29.0,-156.0,86.0,0.0
-29.0,-157.0,84.0,0.0
-31.0,-163.0,85.0,0.0
-28.0,-157.0,80.0,0.0
-30.0,-167.0,82.0,0.0
-27.0,-156.0,75.0,0.0
-28.0,-166.0,78.0,0.0
-26.0,-159.0,73.0,0.0
-26.0,-160.0,70.0,0.0
-26.0,-165.0,71.0,0.0
-26.0,-166.0,69.0,0.0
-25.0,-167.0,67.0,0.0
-26.0,-172.0,67.0,0.0
-31.0,-205.0,78.0,0.0
-41.0,-275.0,101.0,0.0
-40.0,-273.0,97.0,0.0
-40.0,-277.0,94.0,0.0
-39.0,-279.0,92.0,0.0
-39.0,-285.0,91.0,0.0
-38.0,-285.0,88.0,0.0
-38.0,-289.0,85.0,0.0
-35.0,-282.0,81.0,0.0
-2984.0,16739.0,15655.0,0.0
-3055.0,16679.0,15936.0,0.0
-3128.0,16621.0,16222.0,0.0
-3201.0,16557.0,16511.0,0.0
-3277.0,16501.0,16811.0,0.0
-3333.0,16341.0,17009.0,0.0
-3428.0,16361.0,17401.0,0.0
-3499.0,16260.0,17670.0,0.0
-3507.0,15873.0,17626.0,0.0
-3550.0,15645.0,17755.0,0.0
-3572.0,15331.0,17782.0,0.0
-3821.0,15973.0,18934.0,0.0
-3910.0,15917.0,19289.0,0.0
-3998.0,15848.0,19633.0,0.0
-4068.0,15705.0,19893.0,0.0
-4162.0,15645.0,20267.0,0.0
-4258.0,15584.0,20647.0,0.0
-4249.0,15143.0,20521.0,0.0
-4248.0,14740.0,20437.0,0.0
-4551.0,15368.0,21804.0,0.0
-4647.0,15273.0,22179.0,0.0
-4750.0,15193.0,22586.0,0.0
-4858.0,15120.0,23014.0,0.0
-4962.0,15025.0,23424.0,0.0
-5072.0,14936.0,23855.0,0.0
-5179.0,14830.0,24272.0,0.0
-5262.0,14650.0,24577.0,0.0
-5389.0,14579.0,25080.0,0.0
-5428.0,14269.0,25178.0,0.0
-5437.0,13883.0,25137.0,0.0
-5780.0,14330.0,26633.0,0.0
-5904.0,14208.0,27117.0,0.0
-6032.0,14084.0,27616.0,0.0
-6163.0,13958.0,28130.0,0.0
-6268.0,13764.0,28524.0,0.0
-6425.0,13670.0,29145.0,0.0
-6503.0,13400.0,29411.0,0.0
-6679.0,13323.0,30119.0,0.0
-6842.0,13201.0,30758.0,0.0
-7051.0,13153.0,31607.0,0.0
-7249.0,13064.0,32398.0,0.0
-5064.0,8812.0,22570.0,0.0
-5164.0,8670.0,22955.0,0.0
-5297.0,8571.0,23476.0,0.0
-5325.0,8298.0,23538.0,0.0
-5330.0,7992.0,23496.0,0.0
-5325.0,7672.0,23406.0,0.0
-5321.0,7361.0,23329.0,0.0
-5316.0,7052.0,23246.0,0.0
-5316.0,6753.0,23186.0,0.0
-5305.0,6444.0,23077.0,0.0
-5304.0,6150.0,23012.0,0.0
-5300.0,5857.0,22937.0,0.0
-5055.0,5314.0,21818.0,0.0
-4915.0,4904.0,21160.0,0.0
-4881.0,4613.0,20962.0,0.0
-5280.0,4713.0,22616.0,0.0
-5284.0,4442.0,22577.0,0.0
-5272.0,4162.0,22475.0,0.0
-5269.0,3891.0,22405.0,0.0
-5274.0,3629.0,22372.0,0.0
-5260.0,3355.0,22259.0,0.0
-5257.0,3092.0,22193.0,0.0
-5067.0,2730.0,21339.0,0.0
-5082.0,2489.0,21350.0,0.0
-5215.0,2301.0,21855.0,0.0
-5243.0,2060.0,21920.0,0.0
-5237.0,1806.0,21845.0,0.0
-5233.0,1556.0,21779.0,0.0
-5107.0,1276.0,21204.0,0.0
-5059.0,1026.0,20954.0,0.0
-5105.0,795.0,21095.0,0.0
-5135.0,561.0,21173.0,0.0
-5085.0,319.0,20918.0,0.0
-5080.0,84.0,20848.0,0.0
-5180.0,-150.0,21209.0,0.0
-5194.0,-389.0,21218.0,0.0
-5190.0,-625.0,21153.0,0.0
-5146.0,-854.0,20926.0,0.0
-4822.0,-1018.0,19565.0,0.0
-4835.0,-1239.0,19575.0,0.0
-4972.0,-1498.0,20081.0,0.0
-5164.0,-1787.0,20808.0,0.0
-5162.0,-2018.0,20754.0,0.0
-5163.0,-2249.0,20710.0,0.0
-5165.0,-2479.0,20670.0,0.0
-8.0,-4.0,33.0,0.0
-4.0,-2.0,19.0,0.0
-5.0,-3.0,20.0,0.0
-9.0,-6.0,36.0,0.0
-8.0,-6.0,34.0,0.0
-6.0,-5.0,25.0,0.0
-8.0,-7.0,35.0,0.0
-7.0,-6.0,30.0,0.0
-7.0,-7.0,31.0,0.0
-5.0,-5.0,22.0,0.0
-10.0,-10.0,41.0,0.0
-6.0,-6.0,24.0,0.0
-10.0,-10.0,41.0,0.0
-6.0,-6.0,27.0,0.0
-6.0,-7.0,26.0,0.0
-5.0,-6.0,23.0,0.0
-6.0,-7.0,26.0,0.0
-11.0,-14.0,43.0,0.0
-11.0,-14.0,43.0,0.0
-9.0,-12.0,35.0,0.0
-12.0,-17.0,49.0,0.0
-8.0,-12.0,33.0,0.0
-11.0,-17.0,45.0,0.0
-11.0,-17.0,45.0,0.0
-12.0,-18.0,46.0,0.0
-12.0,-20.0,47.0,0.0
-14.0,-23.0,54.0,0.0
-10.0,-18.0,39.0,0.0
-15.0,-28.0,59.0,0.0
-12.0,-22.0,46.0,0.0
-16.0,-30.0,61.0,0.0
-13.0,-24.0,48.0,0.0
-18.0,-35.0,67.0,0.0
-17.0,-34.0,64.0,0.0
-18.0,-37.0,67.0,0.0
-18.0,-39.0,69.0,0.0
-16.0,-36.0,61.0,0.0
-16.0,-35.0,60.0,0.0
-20.0,-47.0,76.0,0.0
-19.0,-44.0,69.0,0.0
-21.0,-50.0,78.0,0.0
-21.0,-51.0,76.0,0.0
-20.0,-50.0,73.0,0.0
-23.0,-58.0,84.0,0.0
-22.0,-57.0,79.0,0.0
-25.0,-67.0,93.0,0.0
-26.0,-71.0,94.0,0.0
-22.0,-61.0,78.0,0.0
-26.0,-72.0,92.0,0.0
-27.0,-76.0,95.0,0.0
-27.0,-80.0,97.0,0.0
-25.0,-75.0,90.0,0.0
-23.0,-72.0,83.0,0.0
-29.0,-91.0,103.0,0.0
-27.0,-87.0,97.0,0.0
-30.0,-96.0,104.0,0.0
-28.0,-94.0,99.0,0.0
-30.0,-100.0,104.0,0.0
-30.0,-102.0,105.0,0.0
-30.0,-103.0,103.0,0.0
-29.0,-105.0,101.0,0.0
-31.0,-112.0,106.0,0.0
-28.0,-102.0,94.0,0.0
-28.0,-105.0,96.0,0.0
-29.0,-111.0,99.0,0.0
-31.0,-121.0,104.0,0.0
-31.0,-120.0,102.0,0.0
-29.0,-116.0,96.0,0.0
-31.0,-127.0,103.0,0.0
-30.0,-123.0,98.0,0.0
-30.0,-127.0,99.0,0.0
-31.0,-132.0,100.0,0.0
-32.0,-139.0,103.0,0.0
-31.0,-140.0,101.0,0.0
-30.0,-136.0,96.0,0.0
-32.0,-149.0,103.0,0.0
-31.0,-146.0,99.0,0.0
-31.0,-148.0,97.0,0.0
-31.0,-151.0,97.0,0.0
-31.0,-154.0,97.0,0.0
-30.0,-153.0,93.0,0.0
-30.0,-155.0,93.0,0.0
-31.0,-166.0,97.0,0.0
-32.0,-171.0,97.0,0.0
-31.0,-169.0,93.0,0.0
-31.0,-174.0,94.0,0.0
-30.0,-173.0,91.0,0.0
-29.0,-171.0,88.0,0.0
-31.0,-182.0,91.0,0.0
-28.0,-171.0,83.0,0.0
-29.0,-177.0,83.0,0.0
-27.0,-169.0,77.0,0.0
-27.0,-172.0,77.0,0.0
-26.0,-168.0,73.0,0.0
-24.0,-161.0,67.0,0.0
-26.0,-174.0,71.0,0.0
-26.0,-178.0,70.0,0.0
-28.0,-199.0,77.0,0.0
-37.0,-268.0,99.0,0.0
-38.0,-278.0,99.0,0.0
-37.0,-281.0,97.0,0.0
-36.0,-277.0,92.0,0.0
-36.0,-287.0,92.0,0.0
-35.0,-282.0,87.0,0.0
-35.0,-285.0,85.0,0.0
-34.0,-286.0,82.0,0.0
-2923.0,17570.0,16491.0,0.0
-2968.0,17350.0,16637.0,0.0
-2957.0,16805.0,16462.0,0.0
-3000.0,16586.0,16599.0,0.0
-3067.0,16495.0,16865.0,0.0
-3136.0,16407.0,17140.0,0.0
-3212.0,16347.0,17447.0,0.0
-3197.0,15833.0,17267.0,0.0
-3354.0,16166.0,18015.0,0.0
-3358.0,15748.0,17936.0,0.0
-3367.0,15364.0,17884.0,0.0
-3590.0,15945.0,18971.0,0.0
-3686.0,15935.0,19380.0,0.0
-3768.0,15857.0,19715.0,0.0
-3845.0,15746.0,20017.0,0.0
-3934.0,15678.0,20382.0,0.0
-3897.0,15117.0,20099.0,0.0
-4023.0,15186.0,20653.0,0.0
-4038.0,14831.0,20638.0,0.0
-4260.0,15223.0,21676.0,0.0
-4389.0,15257.0,22235.0,0.0
-4490.0,15182.0,22649.0,0.0
-4595.0,15109.0,23081.0,0.0
-4695.0,15011.0,23486.0,0.0
-4800.0,14921.0,23918.0,0.0
-4901.0,14808.0,24324.0,0.0
-5013.0,14719.0,24784.0,0.0
-5127.0,14624.0,25250.0,0.0
-5197.0,14398.0,25500.0,0.0
-5209.0,14013.0,25467.0,0.0
-5233.0,13664.0,25489.0,0.0
-5603.0,14198.0,27199.0,0.0
-5728.0,14080.0,27711.0,0.0
-5853.0,13946.0,28211.0,0.0
-5956.0,13755.0,28614.0,0.0
-6092.0,13630.0,29172.0,0.0
-6181.0,13388.0,29497.0,0.0
-6316.0,13238.0,30042.0,0.0
-6534.0,13246.0,30982.0,0.0
-6703.0,13131.0,31678.0,0.0
-6806.0,12881.0,32069.0,0.0
-4804.0,8773.0,22560.0,0.0
-4913.0,8655.0,23008.0,0.0
-5025.0,8530.0,23459.0,0.0
-5058.0,8267.0,23543.0,0.0
-5068.0,7968.0,23522.0,0.0
-5062.0,7646.0,23424.0,0.0
-5059.0,7333.0,23342.0,0.0
