//X,Y,Z,Classification
61,-278,87,0.0
63,-280,92,0.0
64,-281,95,0.0
64,-278,97,0.0
65,-276,100,0.0
66,-274,102,0.0
67,-278,108,0.0
68,-276,110,0.0
68,-272,112,0.0
71,-275,117,0.0
71,-275,120,0.0
71,-270,121,0.0
73,-275,127,0.0
74,-270,129,0.0
76,-274,134,0.0
76,-271,137,0.0
76,-268,140,0.0
76,-264,141,0.0
91,-308,168,0.0
85,-284,159,0.0
80,-262,151,0.0
77,-250,147,0.0
75,-240,145,0.0
68,-214,133,0.0
67,-207,132,0.0
648,-1952,1275,0.0
671,-1990,1330,0.0
667,-1945,1331,0.0
699,-2007,1407,0.0
8577,-24222,17396,0.0
8563,-23799,17498,0.0
8556,-23403,17613,0.0
8532,-22967,17690,0.0
8502,-22520,17752,0.0
8492,-22133,17852,0.0
8466,-21706,17913,0.0
8465,-21353,18029,0.0
8438,-20939,18087,0.0
8425,-20564,18171,0.0
8412,-20194,18254,0.0
8397,-19825,18330,0.0
8370,-19430,18376,0.0
8355,-19070,18448,0.0
8347,-18730,18534,0.0
8334,-18381,18606,0.0
8326,-18047,18686,0.0
8304,-17689,18736,0.0
8283,-17338,18787,0.0
8271,-17006,18853,0.0
8291,-16744,18991,0.0
8472,-16802,19500,0.0
8630,-16805,19958,0.0
8803,-16828,20454,0.0
9042,-16964,21106,0.0
9279,-17081,21756,0.0
12730,-22989,29979,1.0
0,0,0,0.0
12945,-22482,30750,1.0
13013,-22156,31043,1.0
0,0,0,0.0
13095,-21405,31493,1.0
13168,-21083,31797,1.0
13287,-20828,32209,1.0
0,0,0,0.0
0,0,0,0.0
0,0,0,0.0
0,0,0,0.0
0,0,0,0.0
13565,-18589,33624,1.0
0,0,0,0.0
0,0,0,0.0
0,0,0,0.0
0,0,0,0.0
13693,-16567,34528,1.0
13709,-16150,34683,1.0
0,0,0,0.0
0,0,0,0.0
0,0,0,0.0
0,0,0,0.0
13570,-13849,34878,1.0
13509,-13363,34824,1.0
13448,-12883,34771,1.0
0,0,0,0.0
0,0,0,0.0
13651,-11802,35607,1.0
13720,-11437,35890,1.0
0,0,0,0.0
13933,-10749,36650,1.0
13990,-10360,36902,1.0
14049,-9968,37157,1.0
13949,-9465,36993,1.0
0,0,0,0.0
0,0,0,0.0
0,0,0,0.0
13887,-7704,37216,1.0
0,0,0,0.0
14004,-6900,37720,1.0
0,0,0,0.0
0,0,0,0.0
0,0,0,0.0
0,0,0,0.0
13856,-4669,37782,1.0
0,0,0,0.0
0,0,0,0.0
8831,-2145,24253,0.0
8279,-1749,22788,0.0
7956,-1429,21948,0.0
7995,-1183,22104,0.0
8008,-930,22192,0.0
8009,-675,22246,0.0
8016,-419,22312,0.0
8023,-161,22383,0.0
8024,96,22432,0.0
8020,356,22470,0.0
8020,617,22518,0.0
8018,879,22561,0.0
8037,1145,22661,0.0
8022,1407,22667,0.0
8042,1677,22770,0.0
8039,1944,22809,0.0
8047,2215,22878,0.0
8039,2483,22903,0.0
8065,2764,23019,0.0
8051,3033,23026,0.0
8069,3317,23125,0.0
8075,3598,23187,0.0
8082,3882,23255,0.0
8064,4155,23245,0.0
8087,4451,23356,0.0
8095,4742,23427,0.0
8110,5041,23513,0.0
8106,5329,23546,0.0
8116,5630,23621,0.0
8127,5934,23696,0.0
10731,8232,31349,0.0
10652,8568,31177,0.0
19,16,56,0.0
20,18,63,0.0
23,22,71,0.0
24,23,72,0.0
30,30,91,0.0
31,33,97,0.0
31,34,94,0.0
29,33,89,0.0
30,36,91,0.0
34,42,106,0.0
34,43,107,0.0
36,47,110,0.0
41,54,124,0.0
40,54,120,0.0
39,54,117,0.0
41,60,127,0.0
43,65,133,0.0
42,65,128,0.0
43,68,131,0.0
44,73,136,0.0
43,74,135,0.0
44,77,136,0.0
45,81,141,0.0
47,86,145,0.0
46,87,144,0.0
45,86,139,0.0
42,85,132,0.0
41,85,130,0.0
43,91,135,0.0
44,94,137,0.0
40,90,128,0.0
39,89,123,0.0
40,94,127,0.0
37,90,118,0.0
38,94,121,0.0
36,92,116,0.0
34,88,108,0.0
36,96,116,0.0
37,100,118,0.0
35,97,112,0.0
35,100,114,0.0
32,95,105,0.0
34,103,111,0.0
35,106,113,0.0
33,105,108,0.0
33,106,107,0.0
32,105,104,0.0
32,107,104,0.0
31,108,102,0.0
35,122,113,0.0
32,118,107,0.0
34,129,114,0.0
38,-271,77,0.0
38,-266,79,0.0
41,-278,86,0.0
40,-267,86,0.0
42,-272,91,0.0
42,-266,91,0.0
43,-268,96,0.0
43,-265,97,0.0
45,-269,102,0.0
46,-270,106,0.0
46,-269,109,0.0
47,-266,111,0.0
48,-269,116,0.0
49,-265,118,0.0
51,-272,125,0.0
50,-265,124,0.0
50,-260,126,0.0
52,-265,132,0.0
53,-263,134,0.0
53,-258,136,0.0
54,-259,139,0.0
60,-282,156,0.0
59,-274,156,0.0
56,-253,147,0.0
52,-231,138,0.0
50,-220,134,0.0
51,-217,137,0.0
47,-197,126,0.0
46,-190,125,0.0
42,-174,117,0.0
46,-183,125,0.0
44,-173,123,0.0
6307,-24090,17415,0.0
6307,-23672,17512,0.0
6305,-23254,17604,0.0
6310,-22876,17717,0.0
6308,-22471,17802,0.0
6300,-22055,17874,0.0
6300,-21678,17969,0.0
6296,-21284,18043,0.0
6295,-20915,18133,0.0
6283,-20512,18185,0.0
6285,-20158,18275,0.0
6274,-19771,18327,0.0
6277,-19432,18418,0.0
6269,-19065,18477,0.0
6262,-18707,18538,0.0
6259,-18362,18606,0.0
6256,-18028,18679,0.0
6253,-17693,18745,0.0
6122,-17007,18426,0.0
6244,-17028,18867,0.0
6255,-16746,18976,0.0
6377,-16758,19421,0.0
6533,-16846,19972,0.0
6650,-16827,20407,0.0
6821,-16931,21008,0.0
7002,-17047,21644,0.0
9878,-23584,30643,1.0
0,0,0,0.0
9992,-22929,31215,1.0
0,0,0,0.0
10151,-22366,31925,1.0
0,0,0,0.0
0,0,0,0.0
0,0,0,0.0
0,0,0,0.0
0,0,0,0.0
0,0,0,0.0
0,0,0,0.0
0,0,0,0.0
0,0,0,0.0
10754,-19010,34912,1.0
0,0,0,0.0
10833,-18241,35379,1.0
10888,-17881,35661,1.0
10883,-17423,35750,1.0
0,0,0,0.0
0,0,0,0.0
10864,-16056,35993,1.0
10943,-15728,36357,1.0
0,0,0,0.0
0,0,0,0.0
0,0,0,0.0
0,0,0,0.0
10796,-13345,36363,1.0
0,0,0,0.0
0,0,0,0.0
10964,-12245,37228,1.0
0,0,0,0.0
0,0,0,0.0
0,0,0,0.0
0,0,0,0.0
0,0,0,0.0
11312,-9954,39017,1.0
0,0,0,0.0
0,0,0,0.0
0,0,0,0.0
0,0,0,0.0
0,0,0,0.0
0,0,0,0.0
11239,-6793,39455,1.0
11166,-6308,39297,1.0
0,0,0,0.0
0,0,0,0.0
0,0,0,0.0
0,0,0,0.0
0,0,0,0.0
6938,-2267,24784,0.0
6452,-1850,23105,0.0
5983,-1476,21482,0.0
6150,-1269,22135,0.0
6153,-1022,22201,0.0
6144,-770,22223,0.0
6157,-522,22322,0.0
6145,-269,22336,0.0
6153,-17,22420,0.0
6158,236,22493,0.0
6156,491,22544,0.0
6147,746,22566,0.0
6159,1006,22667,0.0
6153,1263,22701,0.0
6155,1525,22761,0.0
6152,1786,22811,0.0
6150,2050,22860,0.0
6152,2316,22926,0.0
6154,2584,22990,0.0
6155,2853,23051,0.0
6160,3128,23130,0.0
6153,3397,23159,0.0
6150,3671,23210,0.0
6160,3956,23308,0.0
6150,4228,23326,0.0
6152,4513,23397,0.0
6154,4800,23465,0.0
6152,5086,23518,0.0
6142,5369,23546,0.0
6154,5671,23651,0.0
11,10,44,0.0
8,9,35,0.0
10,10,40,0.0
14,16,56,0.0
13,15,53,0.0
17,21,69,0.0
17,22,72,0.0
22,30,92,0.0
19,26,78,0.0
22,32,92,0.0
19,30,81,0.0
24,37,95,0.0
25,40,100,0.0
25,42,103,0.0
27,46,108,0.0
27,48,112,0.0
28,51,113,0.0
29,56,120,0.0
31,62,130,0.0
29,60,122,0.0
29,62,122,0.0
30,65,125,0.0
30,66,125,0.0
30,68,125,0.0
32,75,135,0.0
30,73,127,0.0
28,70,118,0.0
30,78,128,0.0
31,83,134,0.0
29,79,124,0.0
28,78,120,0.0
28,81,121,0.0
29,85,125,0.0
28,87,123,0.0
26,83,115,0.0
25,82,112,0.0
25,83,110,0.0
24,81,106,0.0
25,88,112,0.0
25,92,115,0.0
23,85,104,0.0
22,86,101,0.0
24,95,110,0.0
23,94,106,0.0
22,92,102,0.0
23,98,107,0.0
22,93,100,0.0
21,95,100,0.0
20,95,96,0.0
22,102,102,0.0
21,100,99,0.0
23,114,109,0.0
22,112,105,0.0
23,123,113,0.0
35,-276,80,0.0
37,-283,85,0.0
37,-280,87,0.0
38,-279,90,0.0
38,-274,93,0.0
40,-280,98,0.0
40,-278,100,0.0
41,-275,102,0.0
42,-283,109,0.0
43,-282,112,0.0
43,-281,115,0.0
44,-279,117,0.0
46,-282,123,0.0
46,-279,125,0.0
46,-273,127,0.0
46,-269,127,0.0
48,-274,133,0.0
49,-273,137,0.0
50,-275,141,0.0
49,-265,140,0.0
57,-296,161,0.0
56,-288,161,0.0
52,-265,151,0.0
49,-247,144,0.0
49,-235,141,0.0
46,-221,136,0.0
45,-211,133,0.0
44,-202,130,0.0
45,-201,133,0.0
40,-177,120,0.0
40,-176,122,0.0
38,-164,116,0.0
5693,-24013,17487,0.0
5702,-23621,17602,0.0
5700,-23191,17681,0.0
5700,-22777,17765,0.0
5699,-22368,17844,0.0
5699,-21967,17924,0.0
5699,-21577,18006,0.0
5694,-21172,18068,0.0
5696,-20805,18155,0.0
5694,-20425,18224,0.0
5698,-20070,18310,0.0
5697,-19710,18385,0.0
5695,-19346,18450,0.0
5693,-18989,18514,0.0
5691,-18641,18582,0.0
5692,-18303,18655,0.0
5688,-17957,18713,0.0
5694,-17642,18798,0.0
5670,-17246,18789,0.0
5693,-16994,18932,0.0
5732,-16791,19130,0.0
5849,-16807,19584,0.0
5958,-16799,20020,0.0
6096,-16856,20548,0.0
6251,-16953,21142,0.0
6421,-17074,21788,0.0
9051,-23600,30815,1.0
0,0,0,0.0
0,0,0,0.0
9268,-22744,31852,1.0
9347,-22470,32224,1.0
9427,-22195,32599,1.0
9478,-21849,32875,1.0
0,0,0,0.0
0,0,0,0.0
0,0,0,0.0
0,0,0,0.0
9788,-20217,34455,1.0
0,0,0,0.0
9886,-19494,34995,1.0
0,0,0,0.0
0,0,0,0.0
0,0,0,0.0
0,0,0,0.0
10063,-17543,36119,1.0
0,0,0,0.0
9847,-16284,35538,1.0
9910,-15946,35857,1.0
9924,-15529,36004,1.0
0,0,0,0.0
0,0,0,0.0
9948,-14257,36383,1.0
0,0,0,0.0
0,0,0,0.0
10061,-13106,37084,1.0
0,0,0,0.0
0,0,0,0.0
10070,-11815,37405,1.0
0,0,0,0.0
0,0,0,0.0
10310,-10770,38590,1.0
10377,-10396,38942,1.0
0,0,0,0.0
0,0,0,0.0
0,0,0,0.0
10162,-8446,38520,1.0
0,0,0,0.0
0,0,0,0.0
10334,-7267,39470,1.0
0,0,0,0.0
0,0,0,0.0
0,0,0,0.0
0,0,0,0.0
10181,-4979,39383,1.0
0,0,0,0.0
10041,-4044,39039,1.0
6412,-2305,24991,0.0
5924,-1872,23146,0.0
5456,-1487,21373,0.0
5642,-1292,22158,0.0
5637,-1043,22194,0.0
5637,-795,22251,0.0
5649,-548,22354,0.0
5635,-297,22359,0.0
5632,-45,22402,0.0
5643,206,22505,0.0
5644,459,22569,0.0
5640,715,22613,0.0
5634,970,22650,0.0
5630,1227,22692,0.0
5636,1488,22779,0.0
5634,1748,22831,0.0
5642,2015,22923,0.0
5637,2278,22965,0.0
5621,2538,22966,0.0
5631,2810,23068,0.0
5625,3078,23105,0.0
5612,3343,23119,0.0
5624,3625,23233,0.0
5625,3903,23303,0.0
5623,4182,23359,0.0
5623,4464,23427,0.0
5611,4739,23445,0.0
5619,5033,23543,0.0
5609,5314,23573,0.0
5621,5618,23689,0.0
5610,5905,23717,0.0
18,19,75,0.0
15,17,64,0.0
17,19,69,0.0
16,20,68,0.0
19,24,81,0.0
20,28,89,0.0
21,30,93,0.0
21,32,93,0.0
22,34,96,0.0
25,40,109,0.0
25,42,111,0.0
23,40,103,0.0
27,49,120,0.0
28,51,122,0.0
27,52,119,0.0
29,57,128,0.0
30,61,133,0.0
31,66,139,0.0
29,63,129,0.0
31,69,138,0.0
31,71,138,0.0
31,72,138,0.0
33,80,148,0.0
30,75,135,0.0
31,80,140,0.0
30,81,139,0.0
30,83,139,0.0
29,82,133,0.0
30,87,139,0.0
29,89,137,0.0
28,87,132,0.0
26,84,123,0.0
28,94,134,0.0
27,92,129,0.0
26,91,126,0.0
26,92,124,0.0
24,89,115,0.0
24,93,118,0.0
25,97,122,0.0
24,95,117,0.0
25,103,124,0.0
24,100,118,0.0
23,102,116,0.0
22,100,112,0.0
22,103,113,0.0
22,104,113,0.0
22,109,115,0.0
22,109,112,0.0
21,108,108,0.0
22,119,117,0.0
22,119,114,0.0
22,122,115,0.0
21,120,112,0.0
27,-273,81,0.0
27,-272,83,0.0
29,-277,88,0.0
29,-274,91,0.0
30,-271,93,0.0
30,-268,95,0.0
32,-279,103,0.0
33,-278,106,0.0
34,-280,109,0.0
34,-274,111,0.0
35,-277,116,0.0
36,-276,118,0.0
37,-279,124,0.0
38,-276,125,0.0
38,-271,127,0.0
39,-277,133,0.0
39,-274,136,0.0
40,-270,137,0.0
41,-273,143,0.0
44,-283,152,0.0
46,-291,160,0.0
45,-277,156,0.0
43,-258,149,0.0
40,-239,141,0.0
38,-221,134,0.0
36,-210,132,0.0
37,-209,134,0.0
35,-193,126,0.0
35,-190,127,0.0
33,-175,120,0.0
33,-170,119,0.0
31,-160,115,0.0
4772,-23871,17562,0.0
4776,-23437,17640,0.0
4777,-22997,17707,0.0
4787,-22608,17805,0.0
4794,-22208,17888,0.0
4799,-21815,17968,0.0
4805,-21431,18050,0.0
4816,-21072,18147,0.0
4820,-20695,18222,0.0
4819,-20302,18275,0.0
4827,-19948,18358,0.0
4827,-19575,18416,0.0
4831,-19221,18485,0.0
4834,-18871,18553,0.0
4841,-18538,18633,0.0
4839,-18181,18680,0.0
4841,-17841,18741,0.0
4842,-17506,18800,0.0
4849,-17196,18880,0.0
4849,-16863,18931,0.0
4934,-16823,19311,0.0
5045,-16869,19801,0.0
5108,-16747,20104,0.0
5247,-16864,20706,0.0
5386,-16968,21312,0.0
5528,-17068,21930,0.0
7807,-23617,31048,1.0
0,0,0,0.0
0,0,0,0.0
7979,-22689,31981,1.0
8059,-22439,32384,1.0
8125,-22146,32731,1.0
8210,-21902,33157,1.0
0,0,0,0.0
8320,-21246,33771,1.0
8394,-20961,34155,1.0
0,0,0,0.0
8520,-20330,34841,1.0
0,0,0,0.0
8614,-19612,35397,1.0
8663,-19256,35687,1.0
0,0,0,0.0
0,0,0,0.0
0,0,0,0.0
0,0,0,0.0
0,0,0,0.0
0,0,0,0.0
0,0,0,0.0
0,0,0,0.0
8664,-15188,36476,1.0
8656,-14735,36532,1.0
8664,-14312,36655,1.0
0,0,0,0.0
0,0,0,0.0
0,0,0,0.0
8845,-12842,37788,1.0
0,0,0,0.0
8830,-11945,37909,1.0
0,0,0,0.0
0,0,0,0.0
0,0,0,0.0
9010,-10415,39064,1.0
0,0,0,0.0
0,0,0,0.0
8772,-8852,38317,1.0
0,0,0,0.0
8761,-7985,38459,1.0
8919,-7694,39255,1.0
0,0,0,0.0
0,0,0,0.0
9006,-6447,39942,1.0
8984,-5991,39948,1.0
0,0,0,0.0
8894,-5056,39752,1.0
0,0,0,0.0
0,0,0,0.0
5595,-2351,25208,0.0
5141,-1905,23223,0.0
4933,-1583,22344,0.0
4880,-1321,22163,0.0
4871,-1074,22183,0.0
4873,-829,22257,0.0
4861,-581,22261,0.0
4869,-334,22361,0.0
4867,-85,22411,0.0
4871,165,22495,0.0
4869,416,22552,0.0
4861,668,22582,0.0
4864,924,22663,0.0
4856,1178,22691,0.0
4857,1436,22763,0.0
4860,1697,22845,0.0
4849,1953,22864,0.0
4853,2218,22949,0.0
4858,2486,23044,0.0
4845,2746,23058,0.0
4840,3013,23105,0.0
4832,3280,23144,0.0
4833,3555,23227,0.0
4824,3824,23257,0.0
4829,4107,23357,0.0
4825,4386,23415,0.0
4813,4660,23440,0.0
4814,4948,23523,0.0
4805,5230,23564,0.0
8,8,38,0.0
11,14,56,0.0
11,14,55,0.0
14,17,65,0.0
15,21,75,0.0
13,18,61,0.0
17,26,88,0.0
16,25,79,0.0
17,27,84,0.0
20,34,101,0.0
17,30,87,0.0
18,34,94,0.0
20,37,101,0.0
21,41,105,0.0
20,43,108,0.0
21,47,113,0.0
23,52,120,0.0
23,53,120,0.0
25,59,132,0.0
23,57,122,0.0
26,66,138,0.0
25,66,134,0.0
25,70,137,0.0
26,73,140,0.0
25,74,138,0.0
26,79,143,0.0
27,85,151,0.0
26,83,144,0.0
26,84,141,0.0
25,85,140,0.0
23,83,132,0.0
25,89,138,0.0
23,87,132,0.0
24,92,137,0.0
21,86,125,0.0
22,91,129,0.0
21,90,125,0.0
23,98,133,0.0
20,91,120,0.0
20,95,123,0.0
19,90,114,0.0
20,94,117,0.0
19,92,112,0.0
19,101,119,0.0
19,105,122,0.0
18,99,112,0.0
18,99,110,0.0
16,97,105,0.0
17,104,110,0.0
17,106,110,0.0
16,105,107,0.0
16,108,108,0.0
17,118,115,0.0
17,121,116,0.0
16,117,110,0.0
19,-277,83,0.0
20,-265,83,0.0
20,-273,88,0.0
21,-272,91,0.0
22,-270,95,0.0
23,-271,97,0.0
23,-276,102,0.0
24,-275,106,0.0
24,-270,107,0.0
25,-272,111,0.0
26,-270,114,0.0
27,-275,120,0.0
28,-270,121,0.0
28,-268,123,0.0
29,-265,126,0.0
29,-267,130,0.0
30,-265,133,0.0
31,-268,137,0.0
34,-281,148,0.0
35,-295,160,0.0
34,-280,155,0.0
33,-259,147,0.0
31,-235,137,0.0
29,-216,129,0.0
29,-212,130,0.0
31,-221,139,0.0
29,-205,133,0.0
30,-200,131,0.0
28,-190,129,0.0
28,-180,125,0.0
27,-168,119,0.0
24,-152,111,0.0
25,-153,113,0.0
22,-134,102,0.0
3874,-22832,17735,0.0
3893,-22472,17852,0.0
3901,-22055,17917,0.0
3912,-21665,17995,0.0
3927,-21306,18094,0.0
3933,-20907,18152,0.0
3946,-20551,18240,0.0
3951,-20162,18294,0.0
3963,-19814,18377,0.0
3974,-19471,18459,0.0
3981,-19116,18525,0.0
3988,-18763,18585,0.0
3996,-18424,18653,0.0
4001,-18074,18706,0.0
4011,-17758,18785,0.0
4018,-17431,18850,0.0
4024,-17107,18913,0.0
4032,-16793,18981,0.0
4112,-16780,19392,0.0
4235,-16931,20005,0.0
4284,-16777,20272,0.0
4395,-16858,20832,0.0
4517,-16972,21451,0.0
4644,-17082,22086,0.0
0,0,0,0.0
0,0,0,0.0
0,0,0,0.0
0,0,0,0.0
0,0,0,0.0
0,0,0,0.0
0,0,0,0.0
6969,-21567,33634,1.0
0,0,0,0.0
0,0,0,0.0
0,0,0,0.0
0,0,0,0.0
7234,-19947,35248,1.0
0,0,0,0.0
0,0,0,0.0
0,0,0,0.0
0,0,0,0.0
7411,-18054,36468,1.0
0,0,0,0.0
0,0,0,0.0
7390,-16625,36587,1.0
7388,-16168,36654,1.0
0,0,0,0.0
0,0,0,0.0
7452,-14956,37207,1.0
0,0,0,0.0
7518,-14193,37701,1.0
0,0,0,0.0
7552,-13367,38043,1.0
0,0,0,0.0
7564,-12502,38273,1.0
0,0,0,0.0
7595,-11670,38604,1.0
0,0,0,0.0
7766,-11035,39663,1.0
7717,-10520,39503,1.0
0,0,0,0.0
7651,-9552,39356,1.0
0,0,0,0.0
0,0,0,0.0
7537,-8116,39066,1.0
7536,-7682,39155,1.0
7672,-7382,39965,1.0
7741,-7006,40430,1.0
7745,-6565,40558,1.0
0,0,0,0.0
7677,-5626,40419,1.0
0,0,0,0.0
7589,-4686,40177,1.0
7588,-4247,40285,1.0
4749,-2383,25284,0.0
4357,-1933,23261,0.0
4212,-1622,22554,0.0
4129,-1348,22175,0.0
4126,-1104,22221,0.0
4118,-859,22245,0.0
4115,-614,22299,0.0
4122,-368,22408,0.0
4127,-121,22503,0.0
4111,127,22488,0.0
4106,377,22532,0.0
4093,626,22534,0.0
4106,881,22680,0.0
4096,1133,22703,0.0
4104,1394,22828,0.0
4107,1653,22922,0.0
4086,1905,22886,0.0
4085,2166,22959,0.0
4079,2428,23012,0.0
4072,2691,23056,0.0
4069,2958,23129,0.0
4061,3224,23171,0.0
4054,3491,23220,0.0
4055,3770,23316,0.0
4041,4037,23333,0.0
4015,4291,23273,0.0
4023,4585,23419,0.0
4008,4856,23428,0.0
4016,5158,23579,0.0
4007,5442,23628,0.0
7,8,36,0.0
9,13,53,0.0
9,13,53,0.0
9,16,57,0.0
11,17,62,0.0
12,21,70,0.0
15,27,91,0.0
14,27,83,0.0
14,28,84,0.0
14,30,88,0.0
17,36,100,0.0
16,37,101,0.0
18,42,109,0.0
17,43,108,0.0
17,43,105,0.0
18,49,116,0.0
18,50,115,0.0
18,52,116,0.0
19,57,123,0.0
20,62,130,0.0
19,62,127,0.0
19,63,127,0.0
18,64,124,0.0
21,74,140,0.0
20,76,139,0.0
19,71,128,0.0
21,82,141,0.0
19,75,129,0.0
19,81,133,0.0
19,81,131,0.0
18,82,129,0.0
19,84,131,0.0
18,87,129,0.0
18,88,128,0.0
18,90,128,0.0
17,91,127,0.0
17,91,125,0.0
15,89,119,0.0
15,88,116,0.0
15,94,120,0.0
15,95,119,0.0
15,96,118,0.0
13,90,108,0.0
14,95,111,0.0
13,94,107,0.0
12,94,105,0.0
12,101,111,0.0
12,103,111,0.0
13,102,108,0.0
12,105,107,0.0
12,109,110,0.0
12,112,111,0.0
12,116,112,0.0
12,119,113,0.0
17,-283,86,0.0
18,-290,91,0.0
19,-288,94,0.0
19,-284,97,0.0
20,-288,101,0.0
21,-285,103,0.0
21,-282,105,0.0
23,-292,113,0.0
23,-281,112,0.0
24,-288,119,0.0
24,-283,120,0.0
25,-282,123,0.0
26,-284,128,0.0
27,-280,129,0.0
28,-287,137,0.0
28,-281,137,0.0
28,-278,140,0.0
30,-282,145,0.0
32,-292,155,0.0
34,-309,169,0.0
33,-291,162,0.0
30,-259,148,0.0
31,-256,151,0.0
28,-231,139,0.0
29,-232,143,0.0
27,-210,133,0.0
29,-223,144,0.0
28,-205,135,0.0
28,-206,139,0.0
27,-191,132,0.0
27,-185,131,0.0
27,-178,130,0.0
22,-147,109,0.0
3571,-23254,17709,0.0
3581,-22815,17770,0.0
3597,-22429,17866,0.0
3609,-22022,17937,0.0
3623,-21643,18023,0.0
3636,-21267,18107,0.0
3647,-20884,18178,0.0
3658,-20510,18250,0.0
3670,-20148,18326,0.0
3681,-19793,18401,0.0
3689,-19423,18458,0.0
3701,-19087,18539,0.0
3709,-18735,18600,0.0
3718,-18390,18662,0.0
3728,-18062,18735,0.0
3736,-17729,18797,0.0
3742,-17393,18851,0.0
3747,-17059,18900,0.0
3765,-16790,19017,0.0
3838,-16761,19410,0.0
3955,-16914,20027,0.0
4010,-16790,20329,0.0
4117,-16879,20900,0.0
4234,-16999,21527,0.0
4348,-17089,22137,0.0
0,0,0,0.0
0,0,0,0.0
6247,-23016,31938,1.0
0,0,0,0.0
0,0,0,0.0
6442,-22222,33087,1.0
0,0,0,0.0
0,0,0,0.0
0,0,0,0.0
6647,-20943,34362,1.0
0,0,0,0.0
0,0,0,0.0
0,0,0,0.0
0,0,0,0.0
6915,-19335,36053,1.0
6953,-18966,36320,1.0
0,0,0,0.0
0,0,0,0.0
6935,-17509,36422,1.0
0,0,0,0.0
0,0,0,0.0
6923,-16114,36574,1.0
0,0,0,0.0
0,0,0,0.0
7026,-14994,37340,1.0
0,0,0,0.0
7092,-14235,37847,1.0
0,0,0,0.0
0,0,0,0.0
0,0,0,0.0
0,0,0,0.0
0,0,0,0.0
0,0,0,0.0
7280,-11443,39449,1.0
0,0,0,0.0
0,0,0,0.0
7268,-10091,39668,1.0
0,0,0,0.0
0,0,0,0.0
0,0,0,0.0
0,0,0,0.0
7047,-7643,38940,1.0
0,0,0,0.0
0,0,0,0.0
7299,-6586,40650,1.0
0,0,0,0.0
7244,-5654,40570,1.0
0,0,0,0.0
7184,-4729,40453,1.0
0,0,0,0.0
0,0,0,0.0
4113,-1948,23361,0.0
3923,-1616,22351,0.0
3871,-1353,22120,0.0
3872,-1111,22196,0.0
3875,-869,22281,0.0
3866,-623,22301,0.0
3862,-377,22349,0.0
3856,-131,22385,0.0
3854,116,22455,0.0
3861,365,22568,0.0
3858,616,22627,0.0
3841,866,22607,0.0
3838,1118,22669,0.0
3843,1376,22786,0.0
3834,1631,22816,0.0
3830,1888,22874,0.0
3818,2145,22890,0.0
3820,2409,22990,0.0
3819,2676,23078,0.0
3807,2935,23093,0.0
3805,3206,23178,0.0
3803,3478,23256,0.0
3789,3743,23271,0.0
3775,4007,23281,0.0
3765,4280,23326,0.0
3770,4572,23462,0.0
3759,4847,23496,0.0
3749,5128,23545,0.0
9,12,57,0.0
8,13,55,0.0
10,16,68,0.0
9,14,58,0.0
12,21,75,0.0
14,24,87,0.0
13,25,85,0.0
15,31,102,0.0
14,29,91,0.0
16,35,106,0.0
16,37,107,0.0
14,33,93,0.0
16,39,107,0.0
15,39,104,0.0
16,45,113,0.0
17,47,115,0.0
17,51,122,0.0
18,55,125,0.0
20,62,139,0.0
19,63,135,0.0
19,65,136,0.0
19,67,137,0.0
19,71,142,0.0
19,71,136,0.0
18,70,133,0.0
19,76,141,0.0
22,88,158,0.0
19,83,145,0.0
21,92,156,0.0
21,96,158,0.0
20,95,153,0.0
20,97,154,0.0
18,96,147,0.0
18,93,140,0.0
19,102,151,0.0
17,95,137,0.0
17,98,137,0.0
17,103,142,0.0
17,103,139,0.0
16,103,136,0.0
16,105,135,0.0
17,116,146,0.0
13,98,120,0.0
14,104,125,0.0
13,99,117,0.0
13,104,120,0.0
12,100,113,0.0
13,112,124,0.0
12,112,121,0.0
11,106,112,0.0
12,110,114,0.0
12,118,119,0.0
12,121,120,0.0
12,124,120,0.0
11,124,117,0.0
9,-281,86,0.0
10,-291,93,0.0
10,-278,92,0.0
11,-282,97,0.0
11,-271,96,0.0
12,-281,103,0.0
13,-280,106,0.0
13,-270,106,0.0
14,-273,110,0.0
14,-277,115,0.0
16,-273,117,0.0
16,-278,123,0.0
17,-279,127,0.0
18,-275,129,0.0
18,-275,132,0.0
19,-280,139,0.0
19,-274,139,0.0
20,-274,143,0.0
21,-283,151,0.0
24,-303,165,0.0
24,-297,167,0.0
23,-279,161,0.0
23,-268,158,0.0
21,-238,144,0.0
22,-241,150,0.0
21,-232,148,0.0
22,-232,151,0.0
21,-221,147,0.0
21,-212,145,0.0
19,-186,131,0.0
19,-178,127,0.0
20,-179,131,0.0
17,-147,110,0.0
18,-159,121,0.0
19,-158,124,0.0
16,-130,105,0.0
2729,-21874,17947,0.0
2752,-21522,18051,0.0
2771,-21155,18139,0.0
2787,-20776,18210,0.0
2801,-20391,18268,0.0
2819,-20049,18358,0.0
2834,-19683,18421,0.0
2848,-19333,18493,0.0
2865,-18996,18571,0.0
2877,-18651,18634,0.0
2891,-18310,18698,0.0
2902,-17974,18759,0.0
2915,-17649,18826,0.0
2888,-17091,18636,0.0
2938,-16994,18940,0.0
2961,-16751,19084,0.0
3028,-16748,19507,0.0
3111,-16824,20033,0.0
3180,-16816,20473,0.0
3271,-16909,21052,0.0
3371,-17036,21692,0.0
0,0,0,0.0
0,0,0,0.0
0,0,0,0.0
4836,-22318,31128,1.0
4912,-22155,31625,1.0
4968,-21897,31997,1.0
5010,-21578,32283,1.0
0,0,0,0.0
0,0,0,0.0
5261,-21117,33956,1.0
0,0,0,0.0
5365,-20521,34671,1.0
5433,-20285,35145,1.0
5475,-19944,35445,1.0
5523,-19622,35786,1.0
5589,-19367,36257,1.0
0,0,0,0.0
5597,-18419,36380,1.0
5570,-17857,36254,1.0
5633,-17584,36710,1.0
0,0,0,0.0
5482,-16202,35824,1.0
0,0,0,0.0
0,0,0,0.0
5567,-15094,36533,1.0
5659,-14893,37197,1.0
0,0,0,0.0
0,0,0,0.0
5687,-13626,37574,1.0
0,0,0,0.0
5661,-12688,37543,1.0
5659,-12248,37600,1.0
0,0,0,0.0
0,0,0,0.0
0,0,0,0.0
0,0,0,0.0
0,0,0,0.0
5667,-9696,38139,1.0
0,0,0,0.0
0,0,0,0.0
5579,-8298,37823,1.0
0,0,0,0.0
5653,-7568,38519,1.0
5724,-7238,39106,1.0
5776,-6874,39568,1.0
0,0,0,0.0
0,0,0,0.0
0,0,0,0.0
0,0,0,0.0
0,0,0,0.0
5589,-4149,38975,1.0
0,0,0,0.0
3368,-1992,23636,0.0
3220,-1660,22674,0.0
3131,-1375,22123,0.0
3132,-1136,22204,0.0
3132,-895,22285,0.0
3129,-652,22349,0.0
3125,-407,22403,0.0
3121,-162,22459,0.0
3113,84,22490,0.0
3106,331,22529,0.0
3100,580,22572,0.0
3092,829,22612,0.0
3096,1084,22735,0.0
3092,1338,22807,0.0
3082,1590,22829,0.0
3076,1847,22894,0.0
3070,2106,22957,0.0
3065,2368,23032,0.0
3057,2628,23074,0.0
3047,2889,23116,0.0
3044,3159,23217,0.0
3033,3423,23245,0.0
3021,3689,23273,0.0
3008,3954,23299,0.0
3005,4238,23412,0.0
6,9,51,0.0
2987,4794,23539,0.0
9,14,65,0.0
7,11,53,0.0
8,14,62,0.0
7,14,59,0.0
9,19,73,0.0
8,16,62,0.0
9,20,72,0.0
10,23,79,0.0
11,26,87,0.0
12,31,97,0.0
10,28,87,0.0
10,31,92,0.0
11,35,99,0.0
12,39,107,0.0
13,43,114,0.0
12,42,108,0.0
13,47,115,0.0
15,53,128,0.0
14,56,130,0.0
14,55,125,0.0
13,58,128,0.0
14,59,125,0.0
15,69,143,0.0
15,69,139,0.0
13,65,128,0.0
15,79,151,0.0
15,78,145,0.0
14,78,142,0.0
14,79,139,0.0
13,83,141,0.0
14,86,143,0.0
13,87,142,0.0
13,87,139,0.0
13,88,137,0.0
12,91,138,0.0
12,91,136,0.0
11,85,125,0.0
11,91,129,0.0
11,93,129,0.0
10,95,128,0.0
10,94,124,0.0
10,96,124,0.0
10,101,128,0.0
9,96,119,0.0
10,106,129,0.0
9,103,123,0.0
8,98,113,0.0
7,95,109,0.0
7,97,108,0.0
7,104,114,0.0
7,108,115,0.0
7,110,115,0.0
7,107,109,0.0
6,119,118,0.0
6,116,113,0.0
6,125,120,0.0
1,-300,93,0.0
2,-298,96,0.0
3,-288,97,0.0
3,-296,103,0.0
4,-283,101,0.0
4,-287,106,0.0
5,-279,107,0.0
5,-280,111,0.0
6,-279,114,0.0
6,-277,116,0.0
7,-273,119,0.0
7,-284,127,0.0
8,-274,126,0.0
9,-277,131,0.0
9,-268,129,0.0
9,-268,134,0.0
10,-278,143,0.0
11,-273,144,0.0
12,-293,158,0.0
14,-308,170,0.0
14,-298,169,0.0
13,-278,162,0.0
15,-280,167,0.0
14,-253,155,0.0
15,-251,157,0.0
15,-254,163,0.0
14,-227,150,0.0
14,-218,147,0.0
14,-220,152,0.0
14,-197,139,0.0
13,-181,131,0.0
13,-181,133,0.0
13,-173,130,0.0
12,-159,122,0.0
12,-150,119,0.0
11,-134,109,0.0
12,-137,113,0.0
1891,-21434,18090,0.0
1915,-21075,18181,0.0
1934,-20676,18232,0.0
1957,-20329,18322,0.0
1975,-19945,18371,0.0
1998,-19616,18465,0.0
2016,-19261,18530,0.0
2035,-18916,18597,0.0
2052,-18568,18656,0.0
2068,-18217,18705,0.0
2085,-17893,18775,0.0
2101,-17571,18843,0.0
2079,-16937,18564,0.0
2133,-16936,18973,0.0
2170,-16794,19230,0.0
2223,-16773,19633,0.0
2282,-16785,20085,0.0
2345,-16819,20577,0.0
2421,-16939,21191,0.0
2494,-17023,21778,0.0
3345,-22260,29125,1.0
0,0,0,0.0
3463,-21926,30020,1.0
0,0,0,0.0
0,0,0,0.0
3595,-21126,31003,1.0
3632,-20819,31279,1.0
3672,-20524,31578,1.0
0,0,0,0.0
3750,-19933,32182,1.0
3780,-19585,32403,1.0
0,0,0,0.0
3863,-19016,33069,1.0
3878,-18604,33187,1.0
3916,-18298,33493,1.0
0,0,0,0.0
0,0,0,0.0
0,0,0,0.0
0,0,0,0.0
3993,-16310,34157,1.0
3981,-15809,34062,1.0
3959,-15285,33895,1.0
0,0,0,0.0
3996,-14556,34256,1.0
0,0,0,0.0
0,0,0,0.0
4057,-13486,34872,1.0
4044,-13025,34803,1.0
4049,-12619,34879,1.0
4050,-12213,34943,1.0
0,0,0,0.0
4101,-11537,35480,1.0
4095,-11114,35494,1.0
0,0,0,0.0
0,0,0,0.0
4084,-9877,35598,1.0
0,0,0,0.0
0,0,0,0.0
4065,-8645,35660,1.0
4070,-8263,35784,1.0
4075,-7882,35916,1.0
4049,-7443,35779,1.0
4049,-7055,35878,1.0
4044,-6656,35923,1.0
4040,-6265,36002,1.0
4031,-5864,36022,1.0
0,0,0,0.0
3990,-5038,35880,1.0
3959,-4618,35723,1.0
0,0,0,0.0
3883,-3779,35284,1.0
3843,-3367,35046,1.0
2620,-2040,23980,0.0
2487,-1693,22858,0.0
2301,-1339,21225,0.0
2401,-1160,22251,0.0
2395,-918,22291,0.0
2390,-675,22336,0.0
2382,-432,22365,0.0
2381,-188,22458,0.0
2376,55,22519,0.0
2367,302,22548,0.0
2360,549,22591,0.0
2356,799,22672,0.0
2351,1050,22749,0.0
2343,1301,22794,0.0
2336,1555,22858,0.0
2325,1808,22878,0.0
2318,2067,22959,0.0
2308,2322,22998,0.0
2298,2582,23050,0.0
2293,2849,23148,0.0
2278,3106,23151,0.0
2269,3373,23224,0.0
2254,3636,23242,0.0
2250,3915,23363,0.0
2235,4181,23386,0.0
2225,4459,23462,0.0
2211,4731,23495,0.0
4,8,41,0.0
5,12,56,0.0
5,14,60,0.0
4,10,44,0.0
5,16,64,0.0
6,18,68,0.0
6,15,58,0.0
8,26,90,0.0
7,27,91,0.0
8,27,88,0.0
7,29,91,0.0
7,31,90,0.0
8,34,97,0.0
9,40,112,0.0
10,45,119,0.0
10,47,120,0.0
10,50,127,0.0
9,45,111,0.0
10,53,126,0.0
9,54,122,0.0
10,62,137,0.0
10,64,136,0.0
11,69,143,0.0
10,70,143,0.0
9,71,140,0.0
10,77,146,0.0
10,79,147,0.0
10,81,146,0.0
9,84,150,0.0
9,84,146,0.0
8,80,136,0.0
8,81,134,0.0
8,91,147,0.0
9,92,145,0.0
8,94,143,0.0
8,96,144,0.0
8,101,148,0.0
7,100,143,0.0
6,99,138,0.0
7,99,135,0.0
6,103,137,0.0
6,102,134,0.0
6,100,128,0.0
5,101,125,0.0
5,105,129,0.0
4,106,127,0.0
4,107,125,0.0
3,105,120,0.0
4,105,118,0.0
3,109,120,0.0
2,110,117,0.0
3,113,119,0.0
2,120,124,0.0
2,119,118,0.0
2,120,118,0.0
2,127,123,0.0
-3,-324,102,0.0
-3,-323,105,0.0
-3,-313,106,0.0
-1,-309,108,0.0
0,-294,107,0.0
0,-298,111,0.0
0,-282,109,0.0
0,-288,115,0.0
0,-288,118,0.0
1,-289,122,0.0
2,-285,125,0.0
1,-279,125,0.0
2,-279,129,0.0
3,-284,135,0.0
4,-281,137,0.0
4,-274,137,0.0
5,-281,145,0.0
6,-280,148,0.0
6,-314,170,0.0
7,-320,178,0.0
8,-304,174,0.0
7,-277,163,0.0
8,-277,166,0.0
8,-259,159,0.0
9,-255,161,0.0
8,-250,161,0.0
9,-236,156,0.0
9,-235,159,0.0
9,-220,152,0.0
9,-207,147,0.0
9,-194,141,0.0
9,-180,133,0.0
9,-173,130,0.0
9,-160,125,0.0
8,-151,120,0.0
8,-143,115,0.0
1293,-21768,18039,0.0
1321,-21399,18127,0.0
1345,-20999,18182,0.0
1371,-20632,18258,0.0
1395,-20280,18341,0.0
1417,-19896,18388,0.0
1443,-19585,18498,0.0
1464,-19213,18545,0.0
1486,-18878,18621,0.0
1507,-18538,18685,0.0
1525,-18186,18733,0.0
1544,-17859,18799,0.0
1565,-17558,18888,0.0
1581,-17207,18919,0.0
1598,-16892,18983,0.0
1637,-16790,19284,0.0
1686,-16799,19723,0.0
1728,-16742,20092,0.0
1786,-16815,20633,0.0
1851,-16944,21257,0.0
1912,-17030,21847,0.0
2584,-22377,29358,1.0
2630,-22154,29729,1.0
2677,-21943,30125,1.0
2722,-21714,30500,1.0
0,0,0,0.0
0,0,0,0.0
2831,-20815,31352,1.0
2869,-20534,31670,1.0
2893,-20152,31834,1.0
0,0,0,0.0
0,0,0,0.0
3015,-19365,32919,1.0
3069,-19184,33437,1.0
3094,-18823,33651,1.0
0,0,0,0.0
3153,-18146,34165,1.0
3193,-17874,34556,1.0
3233,-17595,34939,1.0
3228,-17076,34851,1.0
0,0,0,0.0
3223,-16096,34742,1.0
3233,-15683,34842,1.0
3230,-15209,34796,1.0
3247,-14837,34976,1.0
0,0,0,0.0
0,0,0,0.0
3270,-13605,35231,1.0
3288,-13248,35449,1.0
0,0,0,0.0
3278,-12355,35394,1.0
3320,-12088,35879,1.0
0,0,0,0.0
0,0,0,0.0
0,0,0,0.0
0,0,0,0.0
0,0,0,0.0
0,0,0,0.0
3334,-9250,36421,1.0
3326,-8827,36416,1.0
0,0,0,0.0
0,0,0,0.0
3291,-7552,36293,1.0
3291,-7162,36405,1.0
0,0,0,0.0
3278,-6353,36469,1.0
3256,-5925,36349,1.0
3245,-5519,36348,1.0
0,0,0,0.0
3189,-4663,35982,1.0
0,0,0,0.0
3133,-3829,35624,1.0
3095,-3411,35343,1.0
2109,-2068,24190,0.0
1998,-1717,23018,0.0
1868,-1375,21615,0.0
1912,-1172,22235,0.0
1908,-932,22306,0.0
1902,-690,22344,0.0
1896,-448,22402,0.0
1890,-205,22465,0.0
1882,40,22496,0.0
1880,285,22602,0.0
1874,533,22670,0.0
1865,780,22707,0.0
1855,1030,22742,0.0
1846,1280,22785,0.0
1838,1534,22848,0.0
1831,1790,22927,0.0
1820,2044,22971,0.0
1809,2300,23009,0.0
1802,2564,23109,0.0
1789,2821,23132,0.0
1778,3085,23189,0.0
1765,3348,23232,0.0
1757,3621,23327,0.0
1742,3884,23350,0.0
1730,4159,23427,0.0
1718,4435,23497,0.0
1701,4704,23516,0.0
1690,4993,23623,0.0
1673,5268,23655,0.0
5,19,85,0.0
5,18,75,0.0
4,16,61,0.0
5,18,71,0.0
5,23,81,0.0
5,22,78,0.0
5,26,85,0.0
5,28,91,0.0
6,30,93,0.0
6,36,108,0.0
6,36,103,0.0
7,42,117,0.0
6,40,107,0.0
7,46,119,0.0
7,51,128,0.0
6,46,113,0.0
7,56,130,0.0
7,59,135,0.0
7,59,132,0.0
8,69,148,0.0
7,67,141,0.0
7,69,140,0.0
6,72,143,0.0
6,75,145,0.0
7,79,147,0.0
7,88,160,0.0
6,82,148,0.0
6,89,155,0.0
6,91,153,0.0
5,94,157,0.0
5,97,157,0.0
6,100,159,0.0
5,100,154,0.0
5,104,157,0.0
4,95,140,0.0
4,105,151,0.0
4,107,149,0.0
3,103,141,0.0
3,108,146,0.0
3,113,148,0.0
3,111,142,0.0
2,113,142,0.0
2,113,139,0.0
2,115,139,0.0
1,109,128,0.0
0,113,130,0.0
0,111,125,0.0
0,109,120,0.0
0,117,126,0.0
0,117,123,0.0
0,124,128,0.0
0,127,129,0.0
-1,127,126,0.0
0,123,118,0.0
-26,-346,111,0.0
-26,-347,116,0.0
-26,-341,118,0.0
-24,-332,118,0.0
-24,-332,123,0.0
-23,-327,124,0.0
-21,-316,124,0.0
-21,-314,127,0.0
-20,-300,125,0.0
-19,-294,127,0.0
-19,-295,131,0.0
-19,-297,135,0.0
-17,-288,135,0.0
-17,-294,142,0.0
-16,-283,140,0.0
-16,-286,144,0.0
-16,-286,149,0.0
-16,-308,165,0.0
-16,-308,169,0.0
-15,-293,165,0.0
-13,-272,157,0.0
-13,-261,154,0.0
-11,-243,148,0.0
-10,-230,143,0.0
-10,-228,145,0.0
-9,-215,140,0.0
-8,-200,134,0.0
-8,-189,130,0.0
-7,-178,123,0.0
-82,-1982,1420,0.0
-964,-23991,17577,0.0
-917,-23574,17664,0.0
-872,-23168,17752,0.0
-829,-22762,17832,0.0
-787,-22381,17925,0.0
-746,-21988,18002,0.0
-707,-21613,18088,0.0
-668,-21244,18171,0.0
-629,-20836,18214,0.0
-593,-20502,18315,0.0
-558,-20136,18381,0.0
-524,-19778,18448,0.0
-491,-19423,18513,0.0
-459,-19101,18603,0.0
-427,-18759,18667,0.0
-396,-18406,18715,0.0
-367,-18092,18797,0.0
-339,-17765,18860,0.0
-311,-17427,18906,0.0
-284,-17115,18974,0.0
-259,-16794,19025,0.0
-238,-16808,19461,0.0
-219,-16955,20065,0.0
-195,-16718,20222,0.0
-176,-16859,20847,0.0
-156,-16962,21443,0.0
-136,-17076,22071,0.0
0,0,0,0.0
-118,-21698,29332,1.0
-91,-21502,29732,1.0
-63,-21222,30022,1.0
-36,-21062,30486,1.0
-8,-20780,30784,1.0
17,-20500,31088,1.0
0,0,0,0.0
0,0,0,0.0
0,0,0,0.0
117,-19614,32732,1.0
141,-19354,33102,1.0
0,0,0,0.0
0,0,0,0.0
209,-18500,34133,1.0
0,0,0,0.0
248,-17791,34584,1.0
268,-17454,34847,1.0
0,0,0,0.0
303,-16671,35160,1.0
317,-16221,35186,1.0
0,0,0,0.0
339,-15071,34639,1.0
354,-14729,34878,1.0
368,-14418,35196,1.0
380,-14045,35370,1.0
0,0,0,0.0
0,0,0,0.0
0,0,0,0.0
410,-12213,35102,1.0
422,-11950,35579,1.0
440,-11848,36577,1.0
0,0,0,0.0
0,0,0,0.0
461,-10742,37234,1.0
0,0,0,0.0
471,-10001,37703,1.0
0,0,0,0.0
0,0,0,0.0
467,-8607,37284,1.0
463,-8155,37145,1.0
456,-7639,36683,1.0
454,-7241,36752,1.0
455,-6889,37074,1.0
453,-6506,37247,1.0
444,-6048,36975,1.0
0,0,0,0.0
429,-5184,36645,1.0
0,0,0,0.0
411,-4347,36366,1.0
400,-3925,36137,1.0
388,-3498,35817,1.0
258,-2118,24411,0.0
239,-1765,23239,0.0
222,-1448,22251,0.0
215,-1208,22258,0.0
208,-969,22318,0.0
200,-730,22380,0.0
192,-490,22423,0.0
183,-248,22487,0.0
175,-6,22533,0.0
165,237,22583,0.0
155,482,22638,0.0
145,729,22722,0.0
133,976,22752,0.0
121,1225,22803,0.0
109,1474,22844,0.0
97,1728,22928,0.0
84,1980,22967,0.0
70,2238,23055,0.0
55,2493,23080,0.0
40,2753,23145,0.0
25,3012,23195,0.0
9,3278,23272,0.0
-7,3541,23315,0.0
-24,3809,23378,0.0
-41,4071,23391,0.0
-60,4344,23465,0.0
-79,4625,23555,0.0
-99,4901,23613,0.0
-120,5183,23687,0.0
-140,5460,23724,0.0
0,11,49,0.0
0,15,60,0.0
0,18,69,0.0
0,20,76,0.0
0,21,73,0.0
0,22,75,0.0
0,25,81,0.0
-1,31,97,0.0
-1,34,103,0.0
-1,35,102,0.0
-1,36,99,0.0
-1,39,107,0.0
-1,43,113,0.0
-2,44,112,0.0
-2,43,107,0.0
-2,53,127,0.0
-3,56,130,0.0
-3,62,139,0.0
-2,62,136,0.0
-3,67,143,0.0
-3,71,146,0.0
-5,77,155,0.0
-4,76,148,0.0
-5,75,143,0.0
-5,86,159,0.0
-6,87,157,0.0
-6,91,160,0.0
-6,93,160,0.0
-6,89,149,0.0
-6,93,152,0.0
-7,101,161,0.0
-8,101,157,0.0
-7,102,156,0.0
-7,105,154,0.0
-9,110,159,0.0
-8,109,154,0.0
-9,111,154,0.0
-9,111,150,0.0
-9,112,149,0.0
-9,119,155,0.0
-9,119,151,0.0
-10,117,145,0.0
-10,122,148,0.0
-10,114,136,0.0
-9,114,133,0.0
-10,117,134,0.0
-10,117,130,0.0
-11,117,128,0.0
-10,115,122,0.0
-12,125,130,0.0
-12,129,131,0.0
-12,124,125,0.0
-13,131,128,0.0
-42,-355,114,0.0
-39,-340,113,0.0
-39,-343,119,0.0
-39,-347,125,0.0
-38,-338,125,0.0
-37,-331,126,0.0
-36,-330,131,0.0
-35,-320,130,0.0
-33,-312,131,0.0
-32,-304,131,0.0
-31,-297,132,0.0
-32,-307,141,0.0
-31,-300,141,0.0
-31,-298,145,0.0
-31,-307,152,0.0
-30,-301,153,0.0
-31,-316,165,0.0
-30,-305,164,0.0
-27,-277,152,0.0
-26,-267,151,0.0
-24,-254,147,0.0
-23,-246,147,0.0
-21,-234,143,0.0
-20,-221,138,0.0
-19,-208,134,0.0
-195,-2092,1372,0.0
-191,-2066,1387,0.0
-186,-2028,1392,0.0
-186,-2042,1436,0.0
-182,-2018,1451,0.0
-2150,-23915,17587,0.0
-2096,-23502,17676,0.0
-2044,-23109,17771,0.0
-1994,-22719,17863,0.0
-1943,-22313,17934,0.0
-1895,-21923,18013,0.0
-1846,-21528,18078,0.0
-1801,-21148,18151,0.0
-1759,-20804,18247,0.0
-1714,-20415,18298,0.0
-1673,-20074,18386,0.0
-1634,-19725,18460,0.0
-1594,-19372,18525,0.0
-1556,-19038,18602,0.0
-1519,-18693,18660,0.0
-1484,-18367,18734,0.0
-1448,-18024,18784,0.0
-1414,-17700,18848,0.0
-1339,-16848,18332,0.0
-1347,-17023,18928,0.0
-1318,-16731,19011,0.0
-1317,-16792,19499,0.0
-1322,-16925,20086,0.0
-1304,-16749,20317,0.0
-1308,-16867,20914,0.0
-1313,-16970,21512,0.0
-1318,-17077,22133,0.0
-1671,-21692,28750,1.0
-1655,-21521,29170,1.0
-1634,-21272,29490,1.0
-1620,-21109,29940,1.0
0,0,0,0.0
-1585,-20642,30657,1.0
-1576,-20502,31168,1.0
-1551,-20151,31364,1.0
-1536,-19923,31753,1.0
-1517,-19612,32019,1.0
0,0,0,0.0
-1490,-19125,32787,1.0
-1473,-18801,33044,1.0
-1455,-18482,33311,1.0
-1434,-18090,33448,1.0
-1421,-17795,33764,1.0
-1401,-17402,33898,1.0
-1389,-17097,34204,1.0
0,0,0,0.0
-1354,-16324,34493,1.0
-1345,-16014,34803,1.0
-1317,-15470,34595,1.0
-1302,-15089,34743,1.0
-1294,-14760,35009,1.0
-1281,-14368,35131,1.0
-1273,-14028,35381,1.0
-1250,-13512,35179,1.0
-1237,-13088,35203,1.0
-1210,-12519,34814,1.0
-1205,-12171,35024,1.0
-1217,-11982,35713,1.0
-1216,-11655,36021,1.0
-1218,-11336,36364,1.0
0,0,0,0.0
-1214,-10605,36786,1.0
-1218,-10277,37146,1.0
-1216,-9874,37245,1.0
-1206,-9418,37133,1.0
-1199,-8973,37045,1.0
-1194,-8543,37009,1.0
-1179,-8048,36650,1.0
-1176,-7630,36626,1.0
-1176,-7220,36626,1.0
-1181,-6843,36797,1.0
-1183,-6445,36853,1.0
-1178,-6002,36639,1.0
-1175,-5569,36455,1.0
-1173,-5150,36321,1.0
-1176,-4744,36263,1.0
-1178,-4339,36179,1.0
-1174,-3913,35893,1.0
-1177,-3511,35777,1.0
-810,-2138,24492,0.0
-775,-1777,23238,0.0
-746,-1459,22234,0.0
-753,-1220,22240,0.0
-761,-982,22296,0.0
-770,-745,22351,0.0
-779,-505,22406,0.0
-790,-265,22480,0.0
-799,-23,22500,0.0
-811,218,22568,0.0
-824,463,22653,0.0
-836,708,22688,0.0
-849,955,22763,0.0
-863,1203,22806,0.0
-878,1454,22880,0.0
-891,1703,22905,0.0
-907,1958,22977,0.0
-922,2207,22992,0.0
-940,2468,23084,0.0
-957,2725,23135,0.0
-975,2984,23193,0.0
-994,3250,23274,0.0
-1011,3507,23281,0.0
-1033,3779,23378,0.0
-1052,4040,23392,0.0
-1075,4318,23493,0.0
-1098,4591,23549,0.0
-1121,4870,23622,0.0
-1138,5118,23542,0.0
-1164,5405,23635,0.0
-1191,5694,23721,0.0
-1215,5971,23748,0.0
-1636,8241,31345,0.0
-1659,8556,31176,0.0
-1702,8974,31368,0.0
-4,24,83,0.0
-4,26,84,0.0
-3,26,81,0.0
-4,28,87,0.0
-4,31,90,0.0
-6,35,101,0.0
-4,31,86,0.0
-6,38,102,0.0
-7,42,107,0.0
-6,43,105,0.0
-6,46,110,0.0
-6,42,99,0.0
-8,55,124,0.0
-9,62,137,0.0
-9,60,128,0.0
-10,68,140,0.0
-8,62,125,0.0
-10,69,137,0.0
-11,75,143,0.0
-12,81,150,0.0
-12,86,156,0.0
-11,79,139,0.0
-12,84,146,0.0
-13,91,154,0.0
-14,97,160,0.0
-14,96,154,0.0
-14,96,150,0.0
-15,105,161,0.0
-15,103,154,0.0
-15,106,154,0.0
-17,116,165,0.0
-17,114,160,0.0
-17,115,157,0.0
-17,114,153,0.0
-17,114,148,0.0
-17,120,153,0.0
-18,118,146,0.0
-18,120,147,0.0
-18,119,142,0.0
-17,117,136,0.0
-17,115,132,0.0
-17,117,131,0.0
-19,127,139,0.0
-18,124,133,0.0
-19,128,134,0.0
-18,124,127,0.0
-20,139,140,0.0
-20,137,134,0.0
53,-273,74,0.0
53,-267,75,0.0
53,-266,77,0.0
56,-273,83,0.0
57,-275,87,0.0
58,-270,89,0.0
59,-270,92,0.0
59,-268,94,0.0
60,-269,98,0.0
60,-264,100,0.0
63,-269,105,0.0
63,-265,107,0.0
62,-260,108,0.0
65,-265,114,0.0
65,-262,115,0.0
67,-264,120,0.0
67,-262,123,0.0
67,-258,124,0.0
70,-263,130,0.0
69,-258,131,0.0
71,-257,134,0.0
72,-258,139,0.0
83,-290,159,0.0
80,-279,157,0.0
75,-256,148,0.0
73,-245,146,0.0
69,-229,140,0.0
65,-212,133,0.0
61,-195,125,0.0
62,-198,130,0.0
57,-178,119,0.0
647,-1958,1348,0.0
645,-1919,1353,0.0
8235,-24109,17396,0.0
8218,-23676,17487,0.0
8204,-23256,17580,0.0
8187,-22834,17666,0.0
8180,-22448,17771,0.0
8159,-22026,17842,0.0
8149,-21644,17937,0.0
8132,-21243,18010,0.0
8118,-20861,18092,0.0
8094,-20455,18147,0.0
8078,-20077,18219,0.0
8062,-19703,18288,0.0
8055,-19353,18374,0.0
8046,-19004,18454,0.0
8027,-18638,18511,0.0
8019,-18300,18592,0.0
8007,-17957,18659,0.0
7998,-17627,18736,0.0
7979,-17276,18786,0.0
7979,-16970,18877,0.0
8046,-16807,19127,0.0
8214,-16849,19620,0.0
8323,-16761,19971,0.0
8535,-16870,20572,0.0
8759,-16990,21206,0.0
8995,-17121,21874,0.0
0,0,0,0.0
0,0,0,0.0
0,0,0,0.0
12590,-22158,31136,1.0
0,0,0,0.0
0,0,0,0.0
0,0,0,0.0
12879,-20866,32356,1.0
0,0,0,0.0
12958,-20103,32797,1.0
0,0,0,0.0
0,0,0,0.0
0,0,0,0.0
0,0,0,0.0
13245,-18315,34129,1.0
13286,-17928,34349,1.0
13270,-17467,34423,1.0
13265,-17022,34525,1.0
13313,-16644,34762,1.0
0,0,0,0.0
0,0,0,0.0
0,0,0,0.0
0,0,0,0.0
13290,-14448,35253,1.0
0,0,0,0.0
0,0,0,0.0
0,0,0,0.0
0,0,0,0.0
0,0,0,0.0
13286,-11874,35867,1.0
0,0,0,0.0
0,0,0,0.0
0,0,0,0.0
13601,-10416,37130,1.0
0,0,0,0.0
13635,-9571,37423,1.0
0,0,0,0.0
0,0,0,0.0
0,0,0,0.0
0,0,0,0.0
0,0,0,0.0
0,0,0,0.0
0,0,0,0.0
13670,-6100,38296,1.0
0,0,0,0.0
13517,-5162,38050,1.0
0,0,0,0.0
0,0,0,0.0
0,0,0,0.0
8524,-2153,24225,0.0
7943,-1748,22625,0.0
7739,-1451,22095,0.0
7729,-1197,22120,0.0
7747,-945,22219,0.0
7744,-690,22260,0.0
7747,-435,22319,0.0
7746,-178,22367,0.0
7747,78,22420,0.0
7748,337,22472,0.0
7746,597,22516,0.0
7752,859,22582,0.0
7765,1123,22666,0.0
7766,1387,22716,0.0
7758,1651,22741,0.0
7780,1923,22856,0.0
7783,2193,22912,0.0
7780,2463,22953,0.0
7787,2736,23021,0.0
7784,3009,23060,0.0
7794,3289,23136,0.0
7790,3565,23170,0.0
7803,3850,23259,0.0
7796,4128,23282,0.0
7805,4417,23355,0.0
7803,4701,23396,0.0
7822,5002,23502,0.0
7817,5289,23529,0.0
7829,5590,23615,0.0
7831,5888,23665,0.0
10367,8191,31395,0.0
10,8,34,0.0
9,8,31,0.0
14,13,45,0.0
25,23,77,0.0
22,22,70,0.0
24,25,76,0.0
25,26,78,0.0
26,29,83,0.0
30,35,94,0.0
29,34,91,0.0
28,35,89,0.0
30,39,95,0.0
30,41,98,0.0
33,45,104,0.0
36,51,113,0.0
36,51,112,0.0
36,54,114,0.0
36,56,114,0.0
36,60,117,0.0
37,61,119,0.0
40,67,128,0.0
40,71,130,0.0
38,69,123,0.0
39,73,126,0.0
39,75,127,0.0
39,78,129,0.0
39,80,128,0.0
36,75,118,0.0
35,76,117,0.0
38,85,127,0.0
34,76,112,0.0
36,84,118,0.0
33,80,110,0.0
36,86,117,0.0
33,82,109,0.0
33,85,111,0.0
35,91,115,0.0
33,89,111,0.0
32,87,107,0.0
31,88,105,0.0
31,89,103,0.0
30,88,100,0.0
31,93,104,0.0
30,95,102,0.0
29,93,99,0.0
31,101,105,0.0
30,99,101,0.0
30,105,105,0.0
29,101,99,0.0
28,100,96,0.0
29,108,101,0.0
29,111,102,0.0
31,123,109,0.0
23,-285,86,0.0
23,-273,85,0.0
23,-279,90,0.0
25,-286,96,0.0
26,-287,99,0.0
25,-274,98,0.0
27,-283,104,0.0
28,-279,107,0.0
28,-274,108,0.0
30,-287,116,0.0
30,-281,119,0.0
30,-279,121,0.0
31,-275,123,0.0
32,-280,128,0.0
33,-275,130,0.0
33,-273,132,0.0
34,-277,139,0.0
35,-271,139,0.0
35,-272,144,0.0
40,-303,164,0.0
39,-287,159,0.0
39,-281,160,0.0
37,-263,154,0.0
36,-243,145,0.0
33,-220,135,0.0
33,-220,138,0.0
32,-210,135,0.0
33,-212,139,0.0
30,-191,129,0.0
29,-177,122,0.0
29,-176,124,0.0
29,-173,125,0.0
25,-146,108,0.0
27,-148,113,0.0
4182,-22929,17761,0.0
4191,-22526,17845,0.0
4201,-22124,17923,0.0
4208,-21723,17995,0.0
4216,-21337,18073,0.0
4225,-20957,18148,0.0
4236,-20598,18235,0.0
4244,-20231,18310,0.0
4250,-19861,18375,0.0
4257,-19504,18446,0.0
4263,-19149,18512,0.0
4274,-18820,18597,0.0
4277,-18466,18653,0.0
4283,-18127,18717,0.0
4285,-17780,18766,0.0
4295,-17471,18851,0.0
4300,-17139,18906,0.0
4300,-16800,18947,0.0
4388,-16802,19375,0.0
4518,-16955,19992,0.0
4552,-16741,20186,0.0
4683,-16877,20812,0.0
4813,-16991,21432,0.0
4940,-17087,22047,0.0
0,0,0,0.0
0,0,0,0.0
7077,-22985,31777,1.0
7149,-22731,32168,1.0
7216,-22455,32533,1.0
0,0,0,0.0
7328,-21836,33181,1.0
0,0,0,0.0
0,0,0,0.0
7523,-20962,34278,1.0
0,0,0,0.0
0,0,0,0.0
0,0,0,0.0
0,0,0,0.0
0,0,0,0.0
0,0,0,0.0
0,0,0,0.0
0,0,0,0.0
0,0,0,0.0
7786,-16979,36247,1.0
7802,-16562,36401,1.0
0,0,0,0.0
7823,-15708,36660,1.0
0,0,0,0.0
0,0,0,0.0
7907,-14533,37303,1.0
0,0,0,0.0
0,0,0,0.0
7989,-13347,37951,1.0
0,0,0,0.0
0,0,0,0.0
0,0,0,0.0
0,0,0,0.0
8201,-11446,39419,1.0
0,0,0,0.0
8129,-10460,39262,1.0
0,0,0,0.0
8075,-9512,39188,1.0
8014,-9006,38988,1.0
0,0,0,0.0
7945,-8069,38845,1.0
0,0,0,0.0
0,0,0,0.0
8158,-6961,40200,1.0
8155,-6516,40291,1.0
0,0,0,0.0
0,0,0,0.0
8069,-5131,40183,1.0
0,0,0,0.0
0,0,0,0.0
5026,-2370,25231,0.0
4614,-1922,23228,0.0
4457,-1611,22502,0.0
4363,-1334,22095,0.0
4364,-1093,22164,0.0
4375,-851,22284,0.0
4369,-604,22316,0.0
4366,-356,22369,0.0
4368,-109,22447,0.0
4359,140,22469,0.0
4351,389,22500,0.0
4351,640,22566,0.0
4352,894,22647,0.0
4358,1151,22745,0.0
4340,1403,22732,0.0
4353,1665,22875,0.0
4342,1922,22895,0.0
4338,2182,22948,0.0
4334,2445,23005,0.0
4329,2709,23055,0.0
4324,2975,23119,0.0
4314,3239,23144,0.0
4313,3512,23223,0.0
4309,3786,23291,0.0
4297,4054,23311,0.0
4283,4322,23322,0.0
4289,4614,23447,0.0
4274,4884,23454,0.0
4282,5186,23597,0.0
8,10,42,0.0
4268,5762,23710,0.0
11,14,58,0.0
10,15,56,0.0
12,18,66,0.0
14,23,79,0.0
15,26,88,0.0
14,24,78,0.0
16,28,87,0.0
17,33,98,0.0
17,34,98,0.0
19,40,109,0.0
18,39,106,0.0
17,39,103,0.0
18,42,107,0.0
20,49,118,0.0
20,52,121,0.0
21,55,127,0.0
21,59,131,0.0
22,63,136,0.0
21,60,127,0.0
21,64,132,0.0
23,72,141,0.0
23,73,141,0.0
21,71,133,0.0
23,80,148,0.0
23,82,146,0.0
22,82,142,0.0
23,88,149,0.0
23,89,147,0.0
23,93,149,0.0
22,94,147,0.0
22,95,146,0.0
20,89,135,0.0
20,95,139,0.0
20,93,133,0.0
20,95,133,0.0
19,99,136,0.0
18,90,121,0.0
19,103,135,0.0
17,95,122,0.0
17,101,125,0.0
16,99,121,0.0
16,98,117,0.0
15,100,117,0.0
16,102,116,0.0
15,102,114,0.0
15,104,113,0.0
15,110,117,0.0
14,103,109,0.0
14,106,109,0.0
15,121,122,0.0
14,121,119,0.0
14,122,117,0.0
13,119,112,0.0
-13,-332,106,0.0
-12,-322,106,0.0
-11,-319,108,0.0
-11,-316,112,0.0
-10,-307,112,0.0
-9,-291,110,0.0
-8,-291,114,0.0
-8,-285,115,0.0
-7,-273,113,0.0
-7,-278,118,0.0
-6,-272,119,0.0
-5,-260,117,0.0
-5,-266,124,0.0
-4,-259,124,0.0
-4,-263,129,0.0
-4,-266,135,0.0
-3,-258,133,0.0
-3,-274,146,0.0
-3,-305,166,0.0
-2,-289,162,0.0
-1,-280,161,0.0
-1,-276,163,0.0
0,-268,161,0.0
0,-255,157,0.0
0,-239,151,0.0
0,-217,140,0.0
1,-221,146,0.0
0,-208,141,0.0
1,-197,137,0.0
1,-187,133,0.0
1,-188,137,0.0
2,-159,118,0.0
2,-157,120,0.0
2,-145,113,0.0
367,-22427,17869,0.0
401,-22050,17961,0.0
434,-21653,18029,0.0
466,-21294,18123,0.0
497,-20915,18193,0.0
526,-20538,18259,0.0
555,-20193,18345,0.0
584,-19825,18406,0.0
611,-19468,18470,0.0
637,-19126,18541,0.0
663,-18781,18605,0.0
688,-18464,18691,0.0
712,-18131,18754,0.0
735,-17790,18804,0.0
758,-17468,18868,0.0
779,-17142,18923,0.0
801,-16832,18989,0.0
834,-16785,19353,0.0
877,-16896,19913,0.0
904,-16720,20142,0.0
949,-16856,20760,0.0
994,-16978,21378,0.0
1039,-17077,21987,0.0
1408,-22275,29330,1.0
1450,-22108,29773,1.0
0,0,0,0.0
1523,-21618,30470,1.0
1554,-21301,30722,1.0
0,0,0,0.0
1625,-20795,31424,1.0
1659,-20522,31753,1.0
0,0,0,0.0
1726,-19986,32445,1.0
1753,-19640,32670,1.0
1789,-19409,33092,1.0
1822,-19145,33467,1.0
1840,-18725,33573,1.0
1870,-18430,33900,1.0
0,0,0,0.0
1926,-17806,34515,1.0
0,0,0,0.0
0,0,0,0.0
2002,-16826,35393,1.0
1985,-16154,34952,1.0
2013,-15870,35336,1.0
2037,-15539,35629,1.0
2049,-15133,35751,1.0
2061,-14725,35868,1.0
2065,-14277,35878,1.0
2079,-13902,36068,1.0
2073,-13392,35902,1.0
2048,-12778,35423,1.0
0,0,0,0.0
0,0,0,0.0
0,0,0,0.0
0,0,0,0.0
0,0,0,0.0
0,0,0,0.0
2144,-10285,37120,1.0
2142,-9854,37126,1.0
2142,-9441,37191,1.0
2137,-9010,37181,1.0
2135,-8593,37224,1.0
2127,-8160,37174,1.0
0,0,0,0.0
2100,-7267,36912,1.0
0,0,0,0.0
2100,-6483,37171,1.0
0,0,0,0.0
2060,-5593,36761,1.0
2043,-5164,36608,1.0
0,0,0,0.0
1999,-4309,36204,1.0
0,0,0,0.0
0,0,0,0.0
1312,-2081,24160,0.0
1246,-1736,23091,0.0
1189,-1428,22190,0.0
1183,-1189,22242,0.0
1178,-950,22299,0.0
1171,-708,22342,0.0
1164,-468,22411,0.0
1157,-225,22458,0.0
1150,17,22519,0.0
1143,262,22579,0.0
1133,508,22613,0.0
1124,755,22678,0.0
1115,1003,22735,0.0
1106,1254,22801,0.0
1096,1505,22858,0.0
1083,1755,22861,0.0
1075,2013,22970,0.0
1063,2268,23009,0.0
1053,2531,23104,0.0
1038,2787,23129,0.0
1024,3047,23176,0.0
1012,3313,23243,0.0
997,3574,23268,0.0
984,3848,23368,0.0
968,4115,23405,0.0
953,4388,23469,0.0
936,4660,23507,0.0
922,4946,23613,0.0
905,5231,23688,0.0
2,12,54,0.0
1,11,48,0.0
2,14,57,0.0
2,14,54,0.0
2,15,55,0.0
2,17,62,0.0
2,20,69,0.0
2,23,77,0.0
3,31,95,0.0
2,33,101,0.0
3,29,85,0.0
2,32,89,0.0
3,34,93,0.0
2,41,105,0.0
3,45,113,0.0
2,41,101,0.0
3,53,126,0.0
3,54,126,0.0
2,56,125,0.0
3,58,126,0.0
2,63,134,0.0
2,64,132,0.0
2,67,135,0.0
1,75,145,0.0
1,72,136,0.0
1,77,143,0.0
0,77,137,0.0
1,84,146,0.0
0,81,139,0.0
1,90,150,0.0
0,94,152,0.0
0,88,140,0.0
0,93,145,0.0
0,92,140,0.0
0,98,143,0.0
-1,96,139,0.0
-1,102,143,0.0
-1,97,134,0.0
-2,104,140,0.0
-1,100,133,0.0
-2,101,131,0.0
-2,100,126,0.0
-2,110,136,0.0
-2,105,126,0.0
-2,100,118,0.0
-3,108,124,0.0
-3,105,118,0.0
-4,106,117,0.0
-3,107,116,0.0
-4,113,120,0.0
-4,107,112,0.0
-5,113,115,0.0
-5,116,115,0.0
-5,123,120,0.0
43,-270,76,0.0
43,-268,79,0.0
45,-274,83,0.0
46,-271,86,0.0
46,-271,89,0.0
47,-267,91,0.0
48,-273,96,0.0
49,-270,98,0.0
49,-267,101,0.0
50,-267,104,0.0
51,-266,107,0.0
53,-270,111,0.0
54,-265,114,0.0
55,-267,118,0.0
56,-268,121,0.0
57,-270,126,0.0
57,-267,128,0.0
59,-273,134,0.0
58,-259,132,0.0
60,-265,137,0.0
59,-253,135,0.0
69,-294,161,0.0
68,-286,161,0.0
63,-259,150,0.0
61,-246,146,0.0
60,-235,143,0.0
59,-230,142,0.0
52,-198,126,0.0
53,-199,130,0.0
48,-181,121,0.0
47,-172,118,0.0
556,-1976,1385,0.0
6951,-24253,17394,0.0
6950,-23843,17502,0.0
6944,-23427,17598,0.0
6933,-22998,17677,0.0
6926,-22586,17763,0.0
6920,-22188,17851,0.0
6912,-21788,17930,0.0
6904,-21397,18011,0.0
6895,-21005,18084,0.0
6894,-20644,18177,0.0
6874,-20234,18219,0.0
6876,-19893,18318,0.0
6865,-19517,18378,0.0
6849,-19137,18427,0.0
6858,-18827,18539,0.0
6848,-18471,18600,0.0
6840,-18125,18664,0.0
6833,-17784,18728,0.0
6803,-17392,18731,0.0
6813,-17102,18837,0.0
6815,-16798,18925,0.0
6939,-16790,19349,0.0
7127,-16930,19958,0.0
7200,-16785,20244,0.0
7399,-16924,20886,0.0
7591,-17035,21513,0.0
7773,-17111,22116,0.0
10779,-23268,30784,1.0
10869,-23002,31156,1.0
0,0,0,0.0
0,0,0,0.0
11085,-22080,32128,1.0
11121,-21696,32346,1.0
11165,-21329,32588,1.0
0,0,0,0.0
0,0,0,0.0
11376,-20363,33542,1.0
11422,-19993,33791,1.0
0,0,0,0.0
0,0,0,0.0
0,0,0,0.0
11654,-18582,34925,1.0
0,0,0,0.0
11700,-17755,35279,1.0
0,0,0,0.0
0,0,0,0.0
0,0,0,0.0
0,0,0,0.0
11760,-15621,35994,1.0
0,0,0,0.0
0,0,0,0.0
11720,-14256,36184,1.0
11634,-13719,36018,1.0
11645,-13302,36155,1.0
0,0,0,0.0
0,0,0,0.0
0,0,0,0.0
0,0,0,0.0
0,0,0,0.0
0,0,0,0.0
12011,-10631,38001,1.0
12109,-10276,38414,1.0
12108,-9832,38510,1.0
0,0,0,0.0
0,0,0,0.0
0,0,0,0.0
0,0,0,0.0
0,0,0,0.0
0,0,0,0.0
0,0,0,0.0
0,0,0,0.0
11954,-5775,38896,1.0
0,0,0,0.0
11835,-4847,38700,1.0
0,0,0,0.0
0,0,0,0.0
7506,-2241,24722,0.0
6998,-1829,23105,0.0
6550,-1469,21682,0.0
6673,-1247,22140,0.0
6662,-995,22157,0.0
6673,-746,22245,0.0
6678,-495,22316,0.0
6675,-241,22360,0.0
6682,12,22433,0.0
6668,267,22441,0.0
6683,524,22544,0.0
6681,782,22591,0.0
6689,1042,22674,0.0
6692,1304,22734,0.0
6689,1566,22779,0.0
6681,1827,22802,0.0
6688,2095,22881,0.0
6694,2364,22956,0.0
6694,2633,23009,0.0
6691,2902,23054,0.0
6687,3173,23094,0.0
6699,3453,23188,0.0
6686,3724,23201,0.0
6708,4015,23330,0.0
6698,4291,23352,0.0
6695,4572,23396,0.0
6705,4865,23484,0.0
6697,5147,23512,0.0
6702,5443,23589,0.0
6702,5737,23646,0.0
7067,6361,24992,0.0
11,10,41,0.0
15,15,57,0.0
17,17,60,0.0
17,18,62,0.0
19,22,71,0.0
22,27,84,0.0
21,26,79,0.0
22,28,82,0.0
21,29,80,0.0
26,36,97,0.0
23,33,88,0.0
26,39,98,0.0
27,42,101,0.0
30,48,113,0.0
29,49,113,0.0
27,45,102,0.0
29,51,110,0.0
33,60,125,0.0
33,63,126,0.0
36,70,138,0.0
33,64,124,0.0
33,66,124,0.0
33,70,128,0.0
35,76,135,0.0
36,80,139,0.0
35,81,136,0.0
34,81,134,0.0
33,80,129,0.0
30,75,117,0.0
33,85,130,0.0
32,84,125,0.0
30,82,118,0.0
30,82,117,0.0
30,87,120,0.0
29,84,113,0.0
29,87,116,0.0
28,86,112,0.0
28,90,113,0.0
27,89,109,0.0
28,92,112,0.0
27,93,110,0.0
27,93,108,0.0
27,98,110,0.0
23,88,98,0.0
24,93,100,0.0
