//X,Y,Z,Classification
27.0,-221.0,106.0,0.0
27.0,-224.0,104.0,0.0
26.0,-214.0,97.0,0.0
28.0,-229.0,101.0,0.0
28.0,-228.0,97.0,0.0
28.0,-226.0,93.0,0.0
29.0,-233.0,94.0,0.0
30.0,-238.0,93.0,0.0
31.0,-247.0,94.0,0.0
35.0,-270.0,99.0,0.0
36.0,-282.0,99.0,0.0
37.0,-285.0,97.0,0.0
37.0,-281.0,93.0,0.0
37.0,-281.0,89.0,0.0
269.0,14886.0,14529.0,0.0
305.0,19116.0,19059.0,0.0
229.0,16491.0,16794.0,0.0
165.0,14047.0,14614.0,0.0
159.0,16512.0,17550.0,0.0
119.0,16048.0,17424.0,0.0
81.0,15628.0,17337.0,0.0
52.0,17866.0,20251.0,0.0
10.0,17611.0,20397.0,0.0
-29.0,17348.0,20533.0,0.0
-69.0,16883.0,20422.0,0.0
-107.0,16484.0,20382.0,0.0
-146.0,16209.0,20486.0,0.0
-183.0,15916.0,20565.0,0.0
-222.0,15720.0,20769.0,0.0
-253.0,15126.0,20436.0,0.0
-299.0,15336.0,21194.0,0.0
-334.0,15037.0,21257.0,0.0
-371.0,14803.0,21410.0,0.0
-586.0,20958.0,31022.0,0.0
-624.0,20159.0,30542.0,0.0
-660.0,19428.0,30135.0,0.0
-718.0,19349.0,30733.0,0.0
-767.0,19015.0,30939.0,0.0
-882.0,20211.0,33692.0,0.0
-923.0,19626.0,33533.0,0.0
-763.0,15108.0,26463.0,0.0
-795.0,14685.0,26381.0,0.0
-832.0,14393.0,26526.0,0.0
-903.0,14627.0,27667.0,0.0
-936.0,14233.0,27640.0,0.0
-967.0,13840.0,27606.0,0.0
-957.0,12916.0,26474.0,0.0
-1006.0,12800.0,26973.0,0.0
-1051.0,12626.0,27366.0,0.0
-1072.0,12169.0,27144.0,0.0
-1103.0,11836.0,27188.0,0.0
-1273.0,12937.0,30616.0,0.0
-1329.0,12790.0,31208.0,0.0
-1407.0,12825.0,32284.0,0.0
-1433.0,12381.0,32180.0,0.0
-1037.0,8490.0,22803.0,0.0
-1059.0,8217.0,22820.0,0.0
-1100.0,8089.0,23255.0,0.0
-1123.0,7823.0,23303.0,0.0
-1152.0,7603.0,23487.0,0.0
-1166.0,7285.0,23371.0,0.0
-1175.0,6950.0,23180.0,0.0
-1189.0,6653.0,23092.0,0.0
-1196.0,6327.0,22896.0,0.0
-1216.0,6070.0,22933.0,0.0
-1226.0,5773.0,22807.0,0.0
-1250.0,5539.0,22928.0,0.0
-1265.0,5268.0,22894.0,0.0
-1280.0,5006.0,22887.0,0.0
-1291.0,4731.0,22817.0,0.0
-1303.0,4463.0,22760.0,0.0
-1316.0,4202.0,22734.0,0.0
-1324.0,3929.0,22636.0,0.0
-1334.0,3664.0,22556.0,0.0
-1344.0,3406.0,22508.0,0.0
-1351.0,3141.0,22404.0,0.0
-1360.0,2887.0,22356.0,0.0
-1369.0,2634.0,22303.0,0.0
-1374.0,2377.0,22194.0,0.0
-1384.0,2128.0,22152.0,0.0
-1390.0,1882.0,22095.0,0.0
-1395.0,1632.0,21995.0,0.0
-1402.0,1388.0,21938.0,0.0
-1399.0,1139.0,21749.0,0.0
-1377.0,881.0,21249.0,0.0
-1414.0,663.0,21679.0,0.0
-1420.0,426.0,21639.0,0.0
-1396.0,187.0,21146.0,0.0
-1392.0,-41.0,20954.0,0.0
-1431.0,-275.0,21423.0,0.0
-1436.0,-507.0,21374.0,0.0
-1390.0,-714.0,20593.0,0.0
-1438.0,-966.0,21204.0,0.0
-1442.0,-1194.0,21156.0,0.0
-1443.0,-1421.0,21090.0,0.0
-1444.0,-1645.0,21009.0,0.0
-1450.0,-1874.0,21001.0,0.0
-1450.0,-2098.0,20927.0,0.0
-1449.0,-2318.0,20840.0,0.0
-1450.0,-2542.0,20790.0,0.0
-1452.0,-2766.0,20745.0,0.0
-1450.0,-2983.0,20657.0,0.0
-1450.0,-3204.0,20597.0,0.0
-1452.0,-3428.0,20566.0,0.0
-1451.0,-3648.0,20505.0,0.0
-1448.0,-3861.0,20415.0,0.0
-1446.0,-4080.0,20354.0,0.0
-1446.0,-4300.0,20302.0,0.0
-1444.0,-4521.0,20260.0,0.0
-1444.0,-4743.0,20213.0,0.0
-1442.0,-4964.0,20168.0,0.0
-1440.0,-5183.0,20113.0,0.0
-1437.0,-5402.0,20061.0,0.0
-1433.0,-5617.0,19987.0,0.0
-3.0,-11.0,42.0,0.0
-3.0,-12.0,42.0,0.0
-4.0,-18.0,61.0,0.0
-2.0,-10.0,34.0,0.0
-4.0,-19.0,57.0,0.0
-4.0,-18.0,53.0,0.0
-4.0,-21.0,60.0,0.0
-1293.0,-6815.0,18053.0,0.0
-4.0,-24.0,64.0,0.0
-4.0,-22.0,56.0,0.0
-4.0,-24.0,61.0,0.0
-5.0,-24.0,58.0,0.0
-5.0,-28.0,65.0,0.0
-5.0,-30.0,69.0,0.0
-3.0,-22.0,47.0,0.0
-5.0,-34.0,72.0,0.0
-4.0,-29.0,60.0,0.0
-5.0,-36.0,73.0,0.0
-5.0,-38.0,74.0,0.0
-5.0,-43.0,82.0,0.0
-6.0,-45.0,83.0,0.0
-6.0,-44.0,80.0,0.0
-5.0,-47.0,82.0,0.0
-5.0,-45.0,77.0,0.0
-6.0,-52.0,87.0,0.0
-6.0,-50.0,82.0,0.0
-6.0,-61.0,95.0,0.0
-7.0,-60.0,93.0,0.0
-7.0,-67.0,101.0,0.0
-6.0,-66.0,98.0,0.0
-7.0,-69.0,100.0,0.0
-7.0,-73.0,102.0,0.0
-6.0,-70.0,97.0,0.0
-6.0,-82.0,109.0,0.0
-7.0,-81.0,107.0,0.0
-6.0,-84.0,108.0,0.0
-8.0,-92.0,115.0,0.0
-6.0,-90.0,110.0,0.0
-7.0,-93.0,111.0,0.0
-7.0,-100.0,117.0,0.0
-6.0,-99.0,114.0,0.0
-7.0,-105.0,118.0,0.0
-7.0,-104.0,114.0,0.0
-6.0,-111.0,118.0,0.0
-6.0,-117.0,122.0,0.0
-7.0,-113.0,116.0,0.0
-6.0,-109.0,109.0,0.0
-6.0,-122.0,120.0,0.0
-6.0,-123.0,119.0,0.0
-5.0,-129.0,120.0,0.0
-6.0,-136.0,126.0,0.0
-6.0,-135.0,121.0,0.0
-5.0,-139.0,122.0,0.0
-6.0,-147.0,126.0,0.0
-6.0,-150.0,126.0,0.0
-5.0,-147.0,121.0,0.0
-5.0,-148.0,119.0,0.0
-4.0,-152.0,120.0,0.0
-4.0,-163.0,126.0,0.0
-4.0,-165.0,124.0,0.0
-4.0,-164.0,120.0,0.0
-4.0,-165.0,119.0,0.0
-4.0,-174.0,122.0,0.0
-3.0,-178.0,122.0,0.0
-3.0,-177.0,118.0,0.0
-3.0,-188.0,123.0,0.0
-3.0,-186.0,119.0,0.0
-2.0,-187.0,117.0,0.0
-2.0,-193.0,118.0,0.0
-1.0,-194.0,116.0,0.0
-1.0,-195.0,113.0,0.0
-1.0,-195.0,111.0,0.0
0.0,-198.0,110.0,0.0
-1.0,-200.0,107.0,0.0
0.0,-203.0,106.0,0.0
0.0,-202.0,103.0,0.0
0.0,-204.0,102.0,0.0
1.0,-201.0,98.0,0.0
1.0,-210.0,99.0,0.0
1.0,-209.0,96.0,0.0
1.0,-212.0,94.0,0.0
1.0,-220.0,95.0,0.0
2.0,-216.0,91.0,0.0
3.0,-222.0,90.0,0.0
3.0,-213.0,85.0,0.0
3.0,-227.0,86.0,0.0
5.0,-290.0,107.0,0.0
6.0,-305.0,109.0,0.0
7.0,-307.0,107.0,0.0
7.0,-311.0,103.0,0.0
7.0,-315.0,102.0,0.0
8.0,-318.0,99.0,0.0
1496.0,14034.0,13810.0,0.0
1478.0,13955.0,14028.0,0.0
1449.0,13783.0,14152.0,0.0
1436.0,13757.0,14429.0,0.0
1414.0,13642.0,14618.0,0.0
1395.0,13561.0,14845.0,0.0
1380.0,13511.0,15112.0,0.0
1364.0,13454.0,15376.0,0.0
1349.0,13407.0,15656.0,0.0
1343.0,13430.0,16028.0,0.0
1330.0,13400.0,16343.0,0.0
1309.0,13285.0,16561.0,0.0
1290.0,13187.0,16806.0,0.0
1538.0,15816.0,20607.0,0.0
1445.0,14963.0,19935.0,0.0
1679.0,17513.0,23862.0,0.0
1477.0,15505.0,21608.0,0.0
1390.0,14700.0,20955.0,0.0
1380.0,14688.0,21426.0,0.0
1541.0,16510.0,24646.0,0.0
1688.0,18200.0,27810.0,0.0
1637.0,17767.0,27798.0,0.0
1510.0,16493.0,26424.0,0.0
1475.0,16209.0,26603.0,0.0
1575.0,17401.0,29263.0,0.0
1391.0,15473.0,26670.0,0.0
1359.0,15198.0,26857.0,0.0
1296.0,14576.0,26417.0,0.0
1253.0,14172.0,26352.0,0.0
1208.0,13732.0,26207.0,0.0
1167.0,13342.0,26144.0,0.0
1133.0,13012.0,26191.0,0.0
1173.0,13529.0,27985.0,0.0
1164.0,13478.0,28662.0,0.0
1155.0,13434.0,29388.0,0.0
1206.0,14078.0,31694.0,0.0
1159.0,13576.0,31477.0,0.0
1120.0,13168.0,31459.0,0.0
1096.0,12912.0,31807.0,0.0
1071.0,12646.0,32143.0,0.0
1034.0,12236.0,32114.0,0.0
720.0,8528.0,23128.0,0.0
713.0,8448.0,23697.0,0.0
691.0,8187.0,23773.0,0.0
667.0,7897.0,23761.0,0.0
640.0,7560.0,23595.0,0.0
582.0,6865.0,22249.0,0.0
559.0,6574.0,22156.0,0.0
540.0,6314.0,22153.0,0.0
0.0,0.0,0.0,0.0
525.0,6063.0,23157.0,0.0
505.0,5795.0,23151.0,0.0
485.0,5512.0,23078.0,0.0
467.0,5232.0,23005.0,0.0
440.0,4868.0,22520.0,0.0
429.0,4673.0,22815.0,0.0
413.0,4411.0,22782.0,0.0
396.0,4138.0,22679.0,0.0
379.0,3871.0,22596.0,0.0
365.0,3611.0,22538.0,0.0
350.0,3352.0,22469.0,0.0
335.0,3093.0,22394.0,0.0
322.0,2839.0,22323.0,0.0
308.0,2587.0,22263.0,0.0
296.0,2335.0,22180.0,0.0
283.0,2086.0,22100.0,0.0
272.0,1839.0,22025.0,0.0
262.0,1595.0,21961.0,0.0
251.0,1352.0,21880.0,0.0
236.0,1088.0,21372.0,0.0
229.0,861.0,21463.0,0.0
223.0,635.0,21673.0,0.0
214.0,400.0,21602.0,0.0
203.0,163.0,21202.0,0.0
193.0,-64.0,20921.0,0.0
191.0,-296.0,21365.0,0.0
185.0,-527.0,21374.0,0.0
176.0,-746.0,21024.0,0.0
173.0,-979.0,21143.0,0.0
168.0,-1207.0,21150.0,0.0
164.0,-1433.0,21092.0,0.0
158.0,-1641.0,20831.0,0.0
154.0,-1874.0,20895.0,0.0
152.0,-2103.0,20909.0,0.0
148.0,-2322.0,20832.0,0.0
146.0,-2542.0,20762.0,0.0
144.0,-2761.0,20697.0,0.0
142.0,-2983.0,20662.0,0.0
141.0,-3207.0,20630.0,0.0
140.0,-3421.0,20545.0,0.0
139.0,-3642.0,20499.0,0.0
140.0,-3865.0,20467.0,0.0
140.0,-4073.0,20365.0,0.0
141.0,-4288.0,20298.0,0.0
142.0,-4513.0,20275.0,0.0
143.0,-4729.0,20216.0,0.0
145.0,-4947.0,20161.0,0.0
147.0,-5164.0,20111.0,0.0
148.0,-5295.0,19736.0,0.0
151.0,-5502.0,19657.0,0.0
155.0,-5726.0,19636.0,0.0
161.0,-6033.0,19887.0,0.0
166.0,-6255.0,19845.0,0.0
170.0,-6461.0,19755.0,0.0
176.0,-6688.0,19726.0,0.0
181.0,-6914.0,19688.0,0.0
187.0,-7135.0,19636.0,0.0
194.0,-7343.0,19551.0,0.0
200.0,-7569.0,19511.0,0.0
207.0,-7785.0,19442.0,0.0
216.0,-8018.0,19413.0,0.0
223.0,-8228.0,19327.0,0.0
233.0,-8463.0,19300.0,0.0
241.0,-8668.0,19201.0,0.0
251.0,-8912.0,19185.0,0.0
261.0,-9144.0,19142.0,0.0
0.0,-23.0,49.0,0.0
0.0,-33.0,66.0,0.0
0.0,-30.0,59.0,0.0
0.0,-31.0,59.0,0.0
0.0,-44.0,82.0,0.0
1.0,-39.0,71.0,0.0
1.0,-49.0,85.0,0.0
1.0,-57.0,96.0,0.0
1.0,-60.0,101.0,0.0
1.0,-55.0,91.0,0.0
1.0,-58.0,91.0,0.0
1.0,-60.0,92.0,0.0
2.0,-69.0,104.0,0.0
1.0,-75.0,112.0,0.0
2.0,-67.0,98.0,0.0
2.0,-77.0,109.0,0.0
2.0,-78.0,107.0,0.0
2.0,-77.0,105.0,0.0
3.0,-85.0,112.0,0.0
3.0,-89.0,116.0,0.0
2.0,-90.0,113.0,0.0
3.0,-95.0,118.0,0.0
3.0,-96.0,116.0,0.0
3.0,-99.0,117.0,0.0
4.0,-96.0,111.0,0.0
3.0,-99.0,111.0,0.0
4.0,-114.0,126.0,0.0
5.0,-112.0,121.0,0.0
5.0,-117.0,123.0,0.0
5.0,-119.0,123.0,0.0
5.0,-121.0,122.0,0.0
5.0,-124.0,124.0,0.0
6.0,-128.0,124.0,0.0
6.0,-128.0,121.0,0.0
6.0,-125.0,116.0,0.0
7.0,-133.0,121.0,0.0
7.0,-139.0,123.0,0.0
8.0,-142.0,124.0,0.0
8.0,-149.0,126.0,0.0
9.0,-159.0,133.0,0.0
8.0,-152.0,124.0,0.0
8.0,-155.0,123.0,0.0
9.0,-159.0,124.0,0.0
10.0,-171.0,130.0,0.0
9.0,-167.0,124.0,0.0
10.0,-169.0,123.0,0.0
11.0,-176.0,126.0,0.0
11.0,-175.0,122.0,0.0
11.0,-174.0,118.0,0.0
11.0,-176.0,116.0,0.0
12.0,-183.0,119.0,0.0
14.0,-203.0,128.0,0.0
12.0,-192.0,119.0,0.0
14.0,-207.0,124.0,0.0
14.0,-199.0,116.0,0.0
14.0,-205.0,117.0,0.0
15.0,-206.0,115.0,0.0
15.0,-204.0,111.0,0.0
16.0,-213.0,113.0,0.0
15.0,-208.0,107.0,0.0
16.0,-213.0,107.0,0.0
17.0,-221.0,108.0,0.0
17.0,-218.0,104.0,0.0
17.0,-224.0,104.0,0.0
18.0,-228.0,103.0,0.0
19.0,-230.0,100.0,0.0
19.0,-228.0,97.0,0.0
19.0,-226.0,93.0,0.0
20.0,-233.0,93.0,0.0
20.0,-237.0,91.0,0.0
22.0,-261.0,98.0,0.0
25.0,-283.0,102.0,0.0
27.0,-305.0,107.0,0.0
28.0,-301.0,102.0,0.0
27.0,-301.0,98.0,0.0
28.0,-302.0,95.0,0.0
-341.0,17589.0,17074.0,0.0
-382.0,17354.0,17208.0,0.0
-356.0,14447.0,14633.0,0.0
-390.0,14240.0,14735.0,0.0
-501.0,16586.0,17533.0,0.0
-533.0,16179.0,17473.0,0.0
-560.0,15647.0,17263.0,0.0
-600.0,15504.0,17478.0,0.0
-1152.0,27608.0,31804.0,0.0
-1181.0,26405.0,31085.0,0.0
-1240.0,25910.0,31173.0,0.0
-1289.0,25265.0,31069.0,0.0
-1330.0,24511.0,30811.0,0.0
-911.0,15812.0,20320.0,0.0
-1444.0,23678.0,31112.0,0.0
-976.0,15135.0,20338.0,0.0
-1041.0,15301.0,21028.0,0.0
-1085.0,15129.0,21270.0,0.0
-1121.0,14854.0,21366.0,0.0
0.0,0.0,0.0,0.0
-1680.0,20180.0,30405.0,0.0
-1724.0,19734.0,30442.0,0.0
-1789.0,19539.0,30864.0,0.0
-1834.0,19129.0,30950.0,0.0
-2044.0,20365.0,33761.0,0.0
-2077.0,19789.0,33622.0,0.0
-1679.0,15308.0,26663.0,0.0
-1744.0,15210.0,27170.0,0.0
-1808.0,15102.0,27676.0,0.0
-1846.0,14764.0,27767.0,0.0
-1872.0,14345.0,27698.0,0.0
-1895.0,13913.0,27592.0,0.0
-1941.0,13655.0,27826.0,0.0
-1968.0,13270.0,27800.0,0.0
-1966.0,12701.0,27368.0,0.0
-1906.0,11799.0,26164.0,0.0
-2016.0,11960.0,27310.0,0.0
-2159.0,12269.0,28862.0,0.0
-2208.0,12023.0,29159.0,0.0
-2474.0,12899.0,32273.0,0.0
-2501.0,12481.0,32242.0,0.0
-1792.0,8559.0,22843.0,0.0
-1872.0,8550.0,23597.0,0.0
-1898.0,8289.0,23679.0,0.0
-1919.0,8006.0,23696.0,0.0
-1943.0,7736.0,23744.0,0.0
-1951.0,7412.0,23621.0,0.0
-1963.0,7104.0,23534.0,0.0
-1977.0,6816.0,23501.0,0.0
-1987.0,6511.0,23396.0,0.0
-1994.0,6208.0,23289.0,0.0
-2006.0,5923.0,23232.0,0.0
-2014.0,5631.0,23137.0,0.0
-2021.0,5341.0,23036.0,0.0
-2032.0,5066.0,22985.0,0.0
-2037.0,4781.0,22875.0,0.0
-2046.0,4508.0,22807.0,0.0
-2055.0,4238.0,22746.0,0.0
-2063.0,3970.0,22677.0,0.0
-2067.0,3699.0,22574.0,0.0
-2072.0,3433.0,22484.0,0.0
-2080.0,3174.0,22429.0,0.0
-2081.0,2911.0,22313.0,0.0
-2087.0,2654.0,22242.0,0.0
-2091.0,2399.0,22159.0,0.0
-2100.0,2153.0,22131.0,0.0
-2107.0,1905.0,22089.0,0.0
-2107.0,1654.0,21973.0,0.0
-2113.0,1410.0,21925.0,0.0
-2115.0,1165.0,21834.0,0.0
-2062.0,899.0,21198.0,0.0
-2119.0,682.0,21675.0,0.0
-2130.0,445.0,21683.0,0.0
-2085.0,204.0,21141.0,0.0
-2074.0,-26.0,20940.0,0.0
-2125.0,-260.0,21366.0,0.0
-2133.0,-494.0,21369.0,0.0
-2136.0,-726.0,21314.0,0.0
-2135.0,-955.0,21225.0,0.0
-2137.0,-1183.0,21165.0,0.0
-2141.0,-1414.0,21136.0,0.0
-2139.0,-1639.0,21047.0,0.0
-2141.0,-1866.0,20993.0,0.0
-2141.0,-2091.0,20931.0,0.0
-2138.0,-2312.0,20829.0,0.0
-2140.0,-2537.0,20793.0,0.0
-2136.0,-2756.0,20702.0,0.0
-2137.0,-2980.0,20653.0,0.0
-2138.0,-3205.0,20612.0,0.0
-2137.0,-3425.0,20550.0,0.0
-2133.0,-3641.0,20460.0,0.0
-2131.0,-3862.0,20407.0,0.0
-2132.0,-4085.0,20365.0,0.0
-2131.0,-4305.0,20310.0,0.0
-2129.0,-4526.0,20257.0,0.0
-2126.0,-4743.0,20190.0,0.0
-3.0,-7.0,30.0,0.0
-3.0,-7.0,29.0,0.0
-2.0,-5.0,21.0,0.0
-3.0,-7.0,31.0,0.0
-2116.0,-5851.0,19947.0,0.0
-4.0,-11.0,38.0,0.0
-3.0,-8.0,27.0,0.0
-2.0,-6.0,21.0,0.0
-3.0,-8.0,25.0,0.0
-5.0,-16.0,47.0,0.0
-5.0,-17.0,47.0,0.0
-4.0,-13.0,38.0,0.0
-4.0,-14.0,36.0,0.0
-6.0,-21.0,54.0,0.0
-5.0,-18.0,43.0,0.0
-5.0,-22.0,53.0,0.0
-5.0,-19.0,44.0,0.0
-4.0,-16.0,37.0,0.0
-6.0,-24.0,53.0,0.0
-4.0,-19.0,40.0,0.0
-6.0,-28.0,58.0,0.0
-6.0,-25.0,50.0,0.0
-6.0,-32.0,63.0,0.0
-6.0,-31.0,60.0,0.0
-8.0,-39.0,72.0,0.0
-8.0,-46.0,81.0,0.0
-8.0,-44.0,77.0,0.0
-8.0,-48.0,81.0,0.0
-8.0,-44.0,72.0,0.0
-10.0,-55.0,89.0,0.0
-9.0,-54.0,86.0,0.0
-8.0,-51.0,79.0,0.0
-10.0,-62.0,93.0,0.0
-10.0,-63.0,92.0,0.0
-10.0,-68.0,97.0,0.0
-10.0,-63.0,87.0,0.0
-10.0,-70.0,95.0,0.0
-9.0,-69.0,93.0,0.0
-11.0,-81.0,106.0,0.0
-11.0,-84.0,108.0,0.0
-10.0,-76.0,95.0,0.0
-10.0,-84.0,102.0,0.0
-9.0,-74.0,89.0,0.0
-11.0,-95.0,111.0,0.0
-11.0,-99.0,113.0,0.0
-10.0,-91.0,102.0,0.0
-12.0,-103.0,113.0,0.0
-10.0,-95.0,102.0,0.0
-11.0,-106.0,111.0,0.0
-10.0,-96.0,98.0,0.0
-11.0,-108.0,107.0,0.0
-10.0,-105.0,102.0,0.0
-11.0,-117.0,112.0,0.0
-10.0,-121.0,113.0,0.0
-10.0,-123.0,112.0,0.0
-11.0,-126.0,112.0,0.0
-11.0,-129.0,113.0,0.0
-10.0,-123.0,106.0,0.0
-10.0,-135.0,113.0,0.0
-10.0,-137.0,112.0,0.0
-10.0,-139.0,111.0,0.0
-10.0,-145.0,114.0,0.0
-10.0,-147.0,113.0,0.0
-10.0,-145.0,109.0,0.0
-10.0,-159.0,116.0,0.0
-9.0,-153.0,109.0,0.0
-9.0,-148.0,104.0,0.0
-9.0,-156.0,106.0,0.0
-9.0,-160.0,106.0,0.0
-8.0,-156.0,101.0,0.0
-9.0,-170.0,108.0,0.0
-8.0,-172.0,107.0,0.0
-8.0,-179.0,108.0,0.0
-7.0,-178.0,106.0,0.0
-7.0,-177.0,102.0,0.0
-7.0,-176.0,100.0,0.0
-7.0,-184.0,101.0,0.0
-6.0,-178.0,95.0,0.0
-6.0,-177.0,92.0,0.0
-5.0,-182.0,92.0,0.0
-5.0,-182.0,89.0,0.0
-4.0,-176.0,84.0,0.0
-5.0,-189.0,88.0,0.0
-4.0,-184.0,83.0,0.0
-3.0,-180.0,79.0,0.0
-4.0,-187.0,80.0,0.0
-3.0,-185.0,76.0,0.0
-3.0,-193.0,78.0,0.0
-2.0,-210.0,82.0,0.0
-2.0,-231.0,87.0,0.0
-2.0,-292.0,108.0,0.0
-2.0,-297.0,105.0,0.0
-1.0,-298.0,102.0,0.0
-1.0,-301.0,99.0,0.0
0.0,-296.0,94.0,0.0
0.0,-308.0,95.0,0.0
120.0,-316.0,63.0,0.0
118.0,-306.0,65.0,0.0
117.0,-301.0,67.0,0.0
113.0,-286.0,67.0,0.0
112.0,-280.0,69.0,0.0
113.0,-279.0,72.0,0.0
112.0,-272.0,73.0,0.0
117.0,-281.0,79.0,0.0
113.0,-269.0,78.0,0.0
114.0,-267.0,82.0,0.0
114.0,-264.0,83.0,0.0
115.0,-262.0,87.0,0.0
115.0,-259.0,88.0,0.0
117.0,-261.0,92.0,0.0
119.0,-262.0,96.0,0.0
121.0,-262.0,99.0,0.0
121.0,-258.0,101.0,0.0
125.0,-264.0,107.0,0.0
126.0,-261.0,108.0,0.0
125.0,-256.0,111.0,0.0
125.0,-253.0,112.0,0.0
126.0,-251.0,115.0,0.0
132.0,-260.0,123.0,0.0
128.0,-249.0,121.0,0.0
129.0,-247.0,124.0,0.0
131.0,-247.0,127.0,0.0
130.0,-242.0,128.0,0.0
138.0,-254.0,138.0,0.0
144.0,-261.0,146.0,0.0
146.0,-260.0,150.0,0.0
144.0,-254.0,149.0,0.0
140.0,-242.0,147.0,0.0
132.0,-227.0,141.0,0.0
134.0,-227.0,145.0,0.0
130.0,-216.0,142.0,0.0
125.0,-204.0,137.0,0.0
117.0,-189.0,130.0,0.0
117.0,-185.0,131.0,0.0
108.0,-169.0,123.0,0.0
107.0,-165.0,122.0,0.0
94.0,-144.0,109.0,0.0
94.0,-142.0,111.0,0.0
87.0,-129.0,104.0,0.0
77.0,-113.0,93.0,0.0
74.0,-107.0,90.0,0.0
70.0,-99.0,85.0,0.0
64.0,-88.0,78.0,0.0
67.0,-92.0,82.0,0.0
71.0,-95.0,88.0,0.0
57.0,-76.0,73.0,0.0
59.0,-78.0,75.0,0.0
52.0,-67.0,67.0,0.0
54.0,-68.0,70.0,0.0
52.0,-65.0,67.0,0.0
49.0,-60.0,64.0,0.0
22617.0,-26886.0,29410.0,1.0
45.0,-53.0,60.0,0.0
23253.0,-26660.0,30632.0,1.0
1169.0,-1315.0,1549.0,0.0
1162.0,-1284.0,1551.0,0.0
1165.0,-1262.0,1563.0,0.0
22527.0,-23947.0,30408.0,1.0
22884.0,-23852.0,31067.0,1.0
23104.0,-23605.0,31543.0,1.0
23074.0,-23100.0,31678.0,1.0
23070.0,-22624.0,31845.0,1.0
22527.0,-21632.0,31261.0,1.0
22540.0,-21184.0,31440.0,1.0
22685.0,-20860.0,31805.0,1.0
23024.0,-20704.0,32441.0,1.0
22952.0,-20175.0,32499.0,1.0
22971.0,-19729.0,32682.0,1.0
22921.0,-19225.0,32765.0,1.0
22578.0,-18484.0,32423.0,1.0
22617.0,-18062.0,32625.0,1.0
22805.0,-17757.0,33044.0,1.0
22866.0,-17348.0,33276.0,1.0
22876.0,-16899.0,33432.0,1.0
22839.0,-16417.0,33517.0,1.0
1194.0,-834.0,1761.0,0.0
22541.0,-15306.0,33348.0,1.0
22609.0,-14904.0,33580.0,1.0
22847.0,-14607.0,34064.0,1.0
22843.0,-14152.0,34187.0,1.0
22822.0,-13688.0,34283.0,1.0
22810.0,-13229.0,34389.0,1.0
22642.0,-12683.0,34256.0,1.0
22660.0,-12246.0,34405.0,1.0
22595.0,-11764.0,34421.0,1.0
22832.0,-11437.0,34899.0,1.0
22781.0,-10960.0,34936.0,1.0
22787.0,-10513.0,35059.0,1.0
22822.0,-10079.0,35223.0,1.0
22640.0,-9550.0,35049.0,1.0
22613.0,-9091.0,35115.0,1.0
22620.0,-8646.0,35228.0,1.0
21886.0,-7932.0,34183.0,1.0
21667.0,-7424.0,33939.0,1.0
21627.0,-6981.0,33970.0,1.0
21724.0,-6581.0,34216.0,1.0
22650.0,-6410.0,35768.0,1.0
22641.0,-5958.0,35849.0,1.0
22659.0,-5510.0,35969.0,1.0
22832.0,-5096.0,36334.0,1.0
22844.0,-4641.0,36441.0,1.0
22828.0,-4181.0,36504.0,1.0
22874.0,-3730.0,36663.0,1.0
12893.0,-1843.0,20713.0,0.0
13.0,-1.0,21.0,0.0
14.0,-2.0,23.0,0.0
8.0,-1.0,14.0,0.0
15.0,-1.0,26.0,0.0
24.0,-1.0,39.0,0.0
15.0,0.0,25.0,0.0
22.0,0.0,36.0,0.0
17.0,0.0,28.0,0.0
18.0,0.0,31.0,0.0
27.0,0.0,46.0,0.0
29.0,1.0,48.0,0.0
31.0,2.0,52.0,0.0
23.0,2.0,39.0,0.0
32.0,4.0,53.0,0.0
31.0,4.0,52.0,0.0
37.0,6.0,63.0,0.0
31.0,5.0,52.0,0.0
45.0,10.0,76.0,0.0
37.0,9.0,63.0,0.0
41.0,11.0,70.0,0.0
50.0,14.0,85.0,0.0
44.0,14.0,75.0,0.0
48.0,16.0,82.0,0.0
50.0,17.0,85.0,0.0
48.0,17.0,80.0,0.0
49.0,19.0,83.0,0.0
51.0,22.0,88.0,0.0
51.0,22.0,87.0,0.0
55.0,25.0,93.0,0.0
53.0,26.0,90.0,0.0
60.0,31.0,103.0,0.0
58.0,31.0,98.0,0.0
61.0,34.0,104.0,0.0
54.0,32.0,93.0,0.0
63.0,37.0,106.0,0.0
62.0,39.0,105.0,0.0
63.0,41.0,107.0,0.0
59.0,41.0,101.0,0.0
59.0,41.0,99.0,0.0
60.0,44.0,103.0,0.0
57.0,42.0,97.0,0.0
55.0,42.0,93.0,0.0
57.0,46.0,98.0,0.0
55.0,45.0,94.0,0.0
58.0,49.0,97.0,0.0
51.0,46.0,88.0,0.0
52.0,47.0,89.0,0.0
58.0,53.0,98.0,0.0
57.0,54.0,96.0,0.0
52.0,51.0,89.0,0.0
57.0,59.0,98.0,0.0
57.0,58.0,95.0,0.0
62.0,66.0,104.0,0.0
58.0,63.0,98.0,0.0
59.0,66.0,101.0,0.0
61.0,71.0,104.0,0.0
61.0,71.0,102.0,0.0
64.0,77.0,108.0,0.0
62.0,77.0,106.0,0.0
64.0,81.0,109.0,0.0
63.0,81.0,107.0,0.0
65.0,86.0,110.0,0.0
66.0,89.0,111.0,0.0
68.0,93.0,114.0,0.0
68.0,96.0,114.0,0.0
67.0,96.0,113.0,0.0
70.0,104.0,119.0,0.0
70.0,106.0,117.0,0.0
69.0,106.0,115.0,0.0
74.0,117.0,125.0,0.0
74.0,118.0,123.0,0.0
75.0,121.0,124.0,0.0
76.0,126.0,125.0,0.0
76.0,129.0,126.0,0.0
75.0,131.0,124.0,0.0
74.0,131.0,122.0,0.0
76.0,138.0,125.0,0.0
77.0,143.0,126.0,0.0
77.0,145.0,127.0,0.0
78.0,150.0,128.0,0.0
79.0,156.0,130.0,0.0
82.0,164.0,134.0,0.0
79.0,160.0,128.0,0.0
81.0,168.0,131.0,0.0
120.0,-326.0,67.0,0.0
115.0,-305.0,66.0,0.0
113.0,-297.0,67.0,0.0
112.0,-291.0,69.0,0.0
109.0,-280.0,69.0,0.0
108.0,-276.0,72.0,0.0
115.0,-287.0,79.0,0.0
112.0,-276.0,79.0,0.0
110.0,-268.0,79.0,0.0
112.0,-268.0,82.0,0.0
112.0,-266.0,85.0,0.0
113.0,-264.0,88.0,0.0
114.0,-263.0,91.0,0.0
114.0,-261.0,93.0,0.0
116.0,-262.0,97.0,0.0
116.0,-257.0,98.0,0.0
121.0,-264.0,105.0,0.0
122.0,-264.0,108.0,0.0
120.0,-255.0,107.0,0.0
124.0,-260.0,113.0,0.0
124.0,-256.0,115.0,0.0
123.0,-252.0,116.0,0.0
127.0,-256.0,122.0,0.0
127.0,-252.0,124.0,0.0
126.0,-246.0,124.0,0.0
131.0,-255.0,132.0,0.0
133.0,-254.0,135.0,0.0
136.0,-255.0,140.0,0.0
143.0,-265.0,149.0,0.0
145.0,-266.0,154.0,0.0
142.0,-257.0,153.0,0.0
146.0,-258.0,158.0,0.0
137.0,-240.0,150.0,0.0
131.0,-227.0,146.0,0.0
128.0,-219.0,144.0,0.0
124.0,-208.0,141.0,0.0
119.0,-197.0,136.0,0.0
106.0,-173.0,122.0,0.0
102.0,-164.0,119.0,0.0
105.0,-166.0,124.0,0.0
95.0,-149.0,114.0,0.0
94.0,-146.0,114.0,0.0
83.0,-125.0,101.0,0.0
78.0,-117.0,96.0,0.0
74.0,-109.0,92.0,0.0
79.0,-115.0,99.0,0.0
79.0,-112.0,99.0,0.0
71.0,-98.0,90.0,0.0
67.0,-92.0,86.0,0.0
69.0,-93.0,88.0,0.0
62.0,-83.0,80.0,0.0
57.0,-73.0,74.0,0.0
50.0,-64.0,66.0,0.0
49.0,-62.0,65.0,0.0
47.0,-59.0,63.0,0.0
47.0,-58.0,64.0,0.0
22699.0,-27068.0,30507.0,1.0
22926.0,-26846.0,31008.0,1.0
22879.0,-26301.0,31137.0,1.0
22818.0,-25743.0,31243.0,1.0
22506.0,-24913.0,31000.0,1.0
22542.0,-24475.0,31231.0,1.0
22596.0,-24056.0,31483.0,1.0
22745.0,-23735.0,31868.0,1.0
22750.0,-23263.0,32050.0,1.0
22749.0,-22787.0,32220.0,1.0
22586.0,-22153.0,32157.0,1.0
22526.0,-21625.0,32237.0,1.0
22529.0,-21161.0,32404.0,1.0
22643.0,-20800.0,32729.0,1.0
22634.0,-20325.0,32875.0,1.0
22593.0,-19823.0,32971.0,1.0
22612.0,-19376.0,33151.0,1.0
22567.0,-18875.0,33236.0,1.0
22568.0,-18415.0,33386.0,1.0
22582.0,-17965.0,33553.0,1.0
22565.0,-17492.0,33671.0,1.0
22501.0,-16985.0,33717.0,1.0
22544.0,-16560.0,33921.0,1.0
1182.0,-844.0,1787.0,0.0
22528.0,-15634.0,34169.0,1.0
22487.0,-15151.0,34240.0,1.0
22571.0,-14752.0,34500.0,1.0
22551.0,-14283.0,34597.0,1.0
22546.0,-13825.0,34717.0,1.0
22532.0,-13362.0,34820.0,1.0
22550.0,-12918.0,34970.0,1.0
22538.0,-12456.0,35071.0,1.0
22528.0,-11998.0,35176.0,1.0
22505.0,-11531.0,35255.0,1.0
22541.0,-11096.0,35428.0,1.0
22520.0,-10633.0,35509.0,1.0
22524.0,-10180.0,35625.0,1.0
22509.0,-9720.0,35711.0,1.0
22523.0,-9272.0,35840.0,1.0
22527.0,-8819.0,35952.0,1.0
1190.0,-441.0,1905.0,0.0
21610.0,-7589.0,34686.0,1.0
21610.0,-7151.0,34784.0,1.0
1196.0,-372.0,1931.0,0.0
22531.0,-6544.0,36460.0,1.0
22537.0,-6088.0,36566.0,1.0
22558.0,-5635.0,36692.0,1.0
22514.0,-5165.0,36711.0,1.0
22537.0,-4711.0,36839.0,1.0
22567.0,-4257.0,36975.0,1.0
22522.0,-3788.0,36989.0,1.0
12648.0,-1868.0,20819.0,0.0
11780.0,-1498.0,19436.0,0.0
16.0,-2.0,27.0,0.0
11.0,-1.0,18.0,0.0
15.0,-1.0,26.0,0.0
21.0,-1.0,36.0,0.0
22.0,-1.0,38.0,0.0
20.0,0.0,35.0,0.0
25.0,0.0,42.0,0.0
29.0,0.0,49.0,0.0
31.0,1.0,54.0,0.0
26.0,1.0,44.0,0.0
29.0,3.0,50.0,0.0
29.0,3.0,48.0,0.0
35.0,5.0,60.0,0.0
35.0,5.0,59.0,0.0
33.0,6.0,55.0,0.0
38.0,7.0,66.0,0.0
42.0,9.0,71.0,0.0
44.0,11.0,77.0,0.0
51.0,14.0,89.0,0.0
50.0,14.0,86.0,0.0
47.0,14.0,82.0,0.0
51.0,17.0,89.0,0.0
51.0,19.0,89.0,0.0
53.0,20.0,91.0,0.0
55.0,22.0,95.0,0.0
53.0,22.0,92.0,0.0
55.0,24.0,96.0,0.0
61.0,28.0,106.0,0.0
57.0,28.0,99.0,0.0
57.0,29.0,98.0,0.0
59.0,32.0,103.0,0.0
61.0,35.0,107.0,0.0
60.0,36.0,104.0,0.0
62.0,38.0,107.0,0.0
71.0,45.0,122.0,0.0
60.0,40.0,105.0,0.0
57.0,39.0,100.0,0.0
54.0,39.0,95.0,0.0
62.0,45.0,108.0,0.0
59.0,45.0,103.0,0.0
60.0,48.0,106.0,0.0
52.0,43.0,92.0,0.0
56.0,47.0,98.0,0.0
54.0,47.0,96.0,0.0
52.0,46.0,93.0,0.0
57.0,52.0,100.0,0.0
55.0,52.0,96.0,0.0
53.0,52.0,94.0,0.0
56.0,57.0,98.0,0.0
56.0,58.0,98.0,0.0
57.0,60.0,100.0,0.0
54.0,59.0,94.0,0.0
59.0,66.0,103.0,0.0
61.0,68.0,105.0,0.0
59.0,69.0,103.0,0.0
59.0,70.0,103.0,0.0
62.0,76.0,107.0,0.0
61.0,77.0,107.0,0.0
60.0,78.0,105.0,0.0
63.0,82.0,108.0,0.0
63.0,84.0,109.0,0.0
62.0,85.0,107.0,0.0
63.0,89.0,110.0,0.0
64.0,93.0,112.0,0.0
68.0,99.0,117.0,0.0
69.0,104.0,119.0,0.0
68.0,105.0,117.0,0.0
71.0,111.0,122.0,0.0
69.0,110.0,117.0,0.0
69.0,112.0,119.0,0.0
70.0,117.0,121.0,0.0
73.0,124.0,125.0,0.0
72.0,125.0,123.0,0.0
71.0,126.0,121.0,0.0
74.0,134.0,127.0,0.0
76.0,141.0,129.0,0.0
76.0,144.0,129.0,0.0
77.0,148.0,130.0,0.0
76.0,148.0,128.0,0.0
78.0,156.0,131.0,0.0
78.0,159.0,131.0,0.0
77.0,160.0,128.0,0.0
75.0,159.0,125.0,0.0
116.0,-324.0,67.0,0.0
112.0,-308.0,68.0,0.0
109.0,-294.0,69.0,0.0
111.0,-296.0,72.0,0.0
106.0,-280.0,71.0,0.0
108.0,-281.0,75.0,0.0
109.0,-279.0,77.0,0.0
110.0,-277.0,79.0,0.0
110.0,-275.0,83.0,0.0
111.0,-272.0,85.0,0.0
110.0,-266.0,86.0,0.0
112.0,-267.0,91.0,0.0
112.0,-265.0,92.0,0.0
116.0,-271.0,98.0,0.0
116.0,-266.0,100.0,0.0
115.0,-263.0,101.0,0.0
120.0,-269.0,107.0,0.0
121.0,-269.0,111.0,0.0
122.0,-265.0,113.0,0.0
124.0,-265.0,116.0,0.0
123.0,-261.0,119.0,0.0
127.0,-266.0,124.0,0.0
126.0,-260.0,125.0,0.0
126.0,-258.0,128.0,0.0
128.0,-256.0,130.0,0.0
125.0,-247.0,130.0,0.0
128.0,-250.0,135.0,0.0
134.0,-258.0,143.0,0.0
139.0,-263.0,150.0,0.0
142.0,-265.0,155.0,0.0
139.0,-256.0,153.0,0.0
135.0,-245.0,151.0,0.0
126.0,-225.0,142.0,0.0
126.0,-222.0,144.0,0.0
120.0,-208.0,139.0,0.0
112.0,-193.0,131.0,0.0
109.0,-185.0,129.0,0.0
109.0,-180.0,129.0,0.0
100.0,-163.0,120.0,0.0
103.0,-166.0,125.0,0.0
99.0,-159.0,122.0,0.0
93.0,-146.0,115.0,0.0
80.0,-123.0,100.0,0.0
82.0,-124.0,103.0,0.0
78.0,-117.0,99.0,0.0
71.0,-105.0,91.0,0.0
67.0,-98.0,87.0,0.0
63.0,-89.0,81.0,0.0
58.0,-81.0,76.0,0.0
53.0,-74.0,70.0,0.0
56.0,-76.0,75.0,0.0
22557.0,-30003.0,30119.0,1.0
64.0,-84.0,86.0,0.0
44.0,-57.0,60.0,0.0
22609.0,-28550.0,30810.0,1.0
1111.0,-1379.0,1525.0,0.0
22486.0,-27398.0,31040.0,1.0
22519.0,-26942.0,31279.0,1.0
22506.0,-26435.0,31454.0,1.0
22524.0,-25964.0,31668.0,1.0
22458.0,-25401.0,31761.0,1.0
22448.0,-24902.0,31927.0,1.0
22417.0,-24384.0,32063.0,1.0
22436.0,-23922.0,32267.0,1.0
22423.0,-23428.0,32422.0,1.0
22412.0,-22938.0,32578.0,1.0
22361.0,-22410.0,32674.0,1.0
22427.0,-22000.0,32935.0,1.0
22384.0,-21484.0,33036.0,1.0
22348.0,-20978.0,33145.0,1.0
22355.0,-20514.0,33313.0,1.0
22354.0,-20044.0,33468.0,1.0
22338.0,-19562.0,33597.0,1.0
22346.0,-19102.0,33761.0,1.0
22335.0,-18627.0,33893.0,1.0
22325.0,-18153.0,34024.0,1.0
22322.0,-17686.0,34164.0,1.0
22310.0,-17215.0,34290.0,1.0
22287.0,-16735.0,34393.0,1.0
22297.0,-16281.0,34546.0,1.0
22320.0,-15837.0,34717.0,1.0
22309.0,-15369.0,34833.0,1.0
22314.0,-14912.0,34972.0,1.0
22248.0,-14410.0,34999.0,1.0
22260.0,-13960.0,35144.0,1.0
22272.0,-13509.0,35288.0,1.0
22299.0,-13067.0,35454.0,1.0
22314.0,-12618.0,35601.0,1.0
22288.0,-12145.0,35678.0,1.0
22310.0,-11699.0,35830.0,1.0
22297.0,-11234.0,35926.0,1.0
22267.0,-10761.0,35991.0,1.0
22267.0,-10305.0,36104.0,1.0
22286.0,-9855.0,36244.0,1.0
22321.0,-9412.0,36409.0,1.0
22279.0,-8936.0,36447.0,1.0
22298.0,-8485.0,36583.0,1.0
22299.0,-8027.0,36687.0,1.0
22263.0,-7555.0,36730.0,1.0
22171.0,-7066.0,36676.0,1.0
22309.0,-6650.0,37002.0,1.0
22314.0,-6189.0,37106.0,1.0
22351.0,-5737.0,37262.0,1.0
22315.0,-5264.0,37294.0,1.0
22307.0,-4799.0,37373.0,1.0
22336.0,-4341.0,37510.0,1.0
22300.0,-3868.0,37537.0,1.0
12427.0,-1896.0,20966.0,0.0
11506.0,-1515.0,19455.0,0.0
7.0,-1.0,12.0,0.0
11.0,-1.0,19.0,0.0
20.0,-1.0,35.0,0.0
19.0,-1.0,34.0,0.0
24.0,-1.0,41.0,0.0
23.0,0.0,40.0,0.0
24.0,0.0,42.0,0.0
26.0,1.0,45.0,0.0
25.0,1.0,44.0,0.0
33.0,2.0,58.0,0.0
37.0,2.0,65.0,0.0
34.0,4.0,60.0,0.0
36.0,5.0,63.0,0.0
39.0,6.0,69.0,0.0
37.0,6.0,66.0,0.0
39.0,8.0,68.0,0.0
37.0,8.0,66.0,0.0
46.0,11.0,80.0,0.0
43.0,11.0,76.0,0.0
51.0,14.0,90.0,0.0
50.0,15.0,88.0,0.0
48.0,16.0,86.0,0.0
47.0,17.0,84.0,0.0
50.0,19.0,89.0,0.0
52.0,21.0,93.0,0.0
50.0,21.0,90.0,0.0
52.0,23.0,92.0,0.0
55.0,26.0,98.0,0.0
53.0,27.0,95.0,0.0
57.0,30.0,102.0,0.0
59.0,33.0,105.0,0.0
58.0,34.0,104.0,0.0
56.0,33.0,101.0,0.0
60.0,37.0,107.0,0.0
66.0,43.0,118.0,0.0
59.0,40.0,105.0,0.0
57.0,39.0,102.0,0.0
56.0,41.0,102.0,0.0
65.0,48.0,116.0,0.0
57.0,44.0,104.0,0.0
55.0,45.0,100.0,0.0
53.0,44.0,95.0,0.0
55.0,48.0,101.0,0.0
57.0,51.0,102.0,0.0
54.0,49.0,97.0,0.0
51.0,48.0,94.0,0.0
54.0,52.0,97.0,0.0
51.0,51.0,92.0,0.0
54.0,56.0,99.0,0.0
54.0,57.0,98.0,0.0
54.0,58.0,97.0,0.0
52.0,58.0,95.0,0.0
55.0,63.0,100.0,0.0
56.0,65.0,100.0,0.0
58.0,69.0,105.0,0.0
58.0,70.0,103.0,0.0
56.0,70.0,101.0,0.0
60.0,76.0,107.0,0.0
59.0,77.0,106.0,0.0
61.0,81.0,108.0,0.0
62.0,85.0,110.0,0.0
61.0,86.0,109.0,0.0
64.0,92.0,115.0,0.0
63.0,92.0,112.0,0.0
64.0,96.0,114.0,0.0
66.0,101.0,116.0,0.0
67.0,105.0,119.0,0.0
67.0,107.0,118.0,0.0
67.0,109.0,118.0,0.0
67.0,113.0,118.0,0.0
71.0,120.0,124.0,0.0
71.0,124.0,126.0,0.0
72.0,129.0,128.0,0.0
73.0,133.0,128.0,0.0
74.0,137.0,129.0,0.0
74.0,141.0,130.0,0.0
75.0,144.0,131.0,0.0
75.0,149.0,131.0,0.0
76.0,153.0,132.0,0.0
74.0,151.0,128.0,0.0
77.0,159.0,132.0,0.0
77.0,163.0,132.0,0.0
76.0,167.0,132.0,0.0
110.0,-315.0,67.0,0.0
110.0,-309.0,69.0,0.0
106.0,-291.0,69.0,0.0
105.0,-287.0,71.0,0.0
106.0,-285.0,73.0,0.0
103.0,-275.0,74.0,0.0
104.0,-274.0,76.0,0.0
108.0,-281.0,82.0,0.0
106.0,-270.0,82.0,0.0
111.0,-278.0,88.0,0.0
109.0,-271.0,90.0,0.0
112.0,-274.0,93.0,0.0
111.0,-268.0,95.0,0.0
112.0,-267.0,98.0,0.0
114.0,-268.0,102.0,0.0
115.0,-267.0,105.0,0.0
115.0,-264.0,107.0,0.0
117.0,-265.0,111.0,0.0
121.0,-269.0,115.0,0.0
121.0,-265.0,118.0,0.0
120.0,-262.0,120.0,0.0
124.0,-265.0,125.0,0.0
124.0,-261.0,127.0,0.0
123.0,-256.0,128.0,0.0
123.0,-253.0,130.0,0.0
124.0,-252.0,133.0,0.0
126.0,-253.0,137.0,0.0
138.0,-272.0,151.0,0.0
138.0,-267.0,154.0,0.0
142.0,-270.0,159.0,0.0
140.0,-264.0,159.0,0.0
131.0,-244.0,151.0,0.0
125.0,-230.0,146.0,0.0
120.0,-217.0,142.0,0.0
117.0,-209.0,140.0,0.0
112.0,-198.0,136.0,0.0
110.0,-190.0,134.0,0.0
102.0,-174.0,126.0,0.0
101.0,-170.0,125.0,0.0
90.0,-150.0,113.0,0.0
87.0,-143.0,110.0,0.0
81.0,-130.0,104.0,0.0
78.0,-124.0,102.0,0.0
80.0,-124.0,103.0,0.0
68.0,-104.0,89.0,0.0
75.0,-112.0,98.0,0.0
68.0,-101.0,91.0,0.0
12796.0,-18594.0,17060.0,0.0
55.0,-78.0,74.0,0.0
59.0,-83.0,80.0,0.0
22074.0,-30524.0,30084.0,1.0
64.0,-88.0,88.0,0.0
22374.0,-29904.0,30919.0,1.0
22324.0,-29326.0,31057.0,1.0
22344.0,-28842.0,31289.0,1.0
22297.0,-28275.0,31423.0,1.0
22266.0,-27734.0,31579.0,1.0
22283.0,-27253.0,31798.0,1.0
22186.0,-26636.0,31848.0,1.0
22228.0,-26192.0,32098.0,1.0
22234.0,-25704.0,32292.0,1.0
22228.0,-25206.0,32467.0,1.0
22230.0,-24717.0,32650.0,1.0
22200.0,-24196.0,32783.0,1.0
22176.0,-23684.0,32921.0,1.0
22173.0,-23198.0,33091.0,1.0
22206.0,-22751.0,33310.0,1.0
22153.0,-22215.0,33394.0,1.0
22153.0,-21736.0,33559.0,1.0
22171.0,-21276.0,33749.0,1.0
22130.0,-20761.0,33845.0,1.0
22146.0,-20301.0,34026.0,1.0
22127.0,-19811.0,34153.0,1.0
22082.0,-19299.0,34234.0,1.0
22093.0,-18838.0,34400.0,1.0
22072.0,-18350.0,34513.0,1.0
22101.0,-17906.0,34704.0,1.0
22071.0,-17414.0,34800.0,1.0
22049.0,-16930.0,34905.0,1.0
1141.0,-852.0,1814.0,0.0
22021.0,-15981.0,35135.0,1.0
22044.0,-15533.0,35306.0,1.0
22048.0,-15072.0,35445.0,1.0
22049.0,-14610.0,35576.0,1.0
22080.0,-14166.0,35753.0,1.0
22057.0,-13689.0,35843.0,1.0
22037.0,-13214.0,35934.0,1.0
22064.0,-12768.0,36099.0,1.0
22041.0,-12293.0,36184.0,1.0
22078.0,-11851.0,36362.0,1.0
22058.0,-11378.0,36446.0,1.0
22083.0,-10929.0,36602.0,1.0
22055.0,-10453.0,36668.0,1.0
22041.0,-9985.0,36757.0,1.0
22032.0,-9519.0,36850.0,1.0
22053.0,-9066.0,36992.0,1.0
22014.0,-8587.0,37032.0,1.0
22040.0,-8135.0,37179.0,1.0
22012.0,-7663.0,37234.0,1.0
21962.0,-7182.0,37248.0,1.0
22068.0,-6753.0,37528.0,1.0
22037.0,-6278.0,37571.0,1.0
22040.0,-5814.0,37673.0,1.0
1141.0,-277.0,1955.0,0.0
22079.0,-4890.0,37925.0,1.0
22073.0,-4420.0,38004.0,1.0
22101.0,-3955.0,38141.0,1.0
12176.0,-1919.0,21063.0,0.0
11231.0,-1531.0,19471.0,0.0
11208.0,-1287.0,19472.0,0.0
5.0,-1.0,9.0,0.0
10.0,-1.0,19.0,0.0
25.0,-1.0,43.0,0.0
15.0,-1.0,28.0,0.0
23.0,0.0,42.0,0.0
23.0,0.0,42.0,0.0
35.0,0.0,62.0,0.0
28.0,1.0,50.0,0.0
32.0,2.0,57.0,0.0
31.0,2.0,56.0,0.0
36.0,4.0,65.0,0.0
36.0,5.0,64.0,0.0
34.0,5.0,61.0,0.0
42.0,8.0,78.0,0.0
40.0,7.0,71.0,0.0
34.0,7.0,62.0,0.0
36.0,9.0,64.0,0.0
42.0,11.0,77.0,0.0
43.0,13.0,77.0,0.0
55.0,18.0,101.0,0.0
46.0,16.0,84.0,0.0
51.0,19.0,93.0,0.0
49.0,19.0,91.0,0.0
42.0,17.0,77.0,0.0
51.0,22.0,93.0,0.0
52.0,24.0,94.0,0.0
56.0,27.0,102.0,0.0
56.0,29.0,103.0,0.0
63.0,33.0,115.0,0.0
61.0,34.0,111.0,0.0
57.0,34.0,105.0,0.0
52.0,31.0,94.0,0.0
59.0,38.0,109.0,0.0
57.0,38.0,105.0,0.0
61.0,42.0,111.0,0.0
57.0,40.0,106.0,0.0
60.0,45.0,110.0,0.0
61.0,46.0,112.0,0.0
55.0,43.0,101.0,0.0
59.0,48.0,109.0,0.0
61.0,51.0,113.0,0.0
56.0,49.0,104.0,0.0
54.0,50.0,101.0,0.0
52.0,48.0,95.0,0.0
58.0,55.0,108.0,0.0
52.0,51.0,96.0,0.0
53.0,53.0,98.0,0.0
53.0,56.0,98.0,0.0
53.0,57.0,98.0,0.0
51.0,55.0,94.0,0.0
53.0,60.0,100.0,0.0
54.0,62.0,100.0,0.0
56.0,66.0,103.0,0.0
54.0,65.0,100.0,0.0
56.0,70.0,103.0,0.0
57.0,73.0,105.0,0.0
59.0,76.0,107.0,0.0
57.0,76.0,106.0,0.0
57.0,78.0,105.0,0.0
58.0,81.0,106.0,0.0
60.0,86.0,110.0,0.0
61.0,89.0,112.0,0.0
61.0,92.0,113.0,0.0
63.0,96.0,115.0,0.0
62.0,97.0,112.0,0.0
63.0,101.0,115.0,0.0
63.0,104.0,116.0,0.0
65.0,109.0,119.0,0.0
68.0,117.0,125.0,0.0
66.0,116.0,121.0,0.0
70.0,124.0,126.0,0.0
70.0,129.0,128.0,0.0
68.0,125.0,122.0,0.0
70.0,133.0,126.0,0.0
71.0,136.0,127.0,0.0
72.0,141.0,129.0,0.0
72.0,145.0,129.0,0.0
72.0,148.0,129.0,0.0
72.0,151.0,129.0,0.0
73.0,156.0,130.0,0.0
71.0,155.0,126.0,0.0
73.0,162.0,130.0,0.0
106.0,-308.0,66.0,0.0
103.0,-297.0,67.0,0.0
102.0,-290.0,69.0,0.0
101.0,-284.0,71.0,0.0
101.0,-278.0,73.0,0.0
99.0,-271.0,74.0,0.0
102.0,-274.0,78.0,0.0
101.0,-267.0,80.0,0.0
103.0,-271.0,84.0,0.0
104.0,-270.0,87.0,0.0
105.0,-267.0,89.0,0.0
108.0,-270.0,93.0,0.0
107.0,-264.0,95.0,0.0
107.0,-263.0,97.0,0.0
109.0,-264.0,101.0,0.0
113.0,-269.0,107.0,0.0
112.0,-265.0,108.0,0.0
113.0,-262.0,111.0,0.0
114.0,-261.0,113.0,0.0
116.0,-262.0,117.0,0.0
116.0,-258.0,119.0,0.0
120.0,-262.0,125.0,0.0
119.0,-258.0,126.0,0.0
117.0,-251.0,127.0,0.0
119.0,-249.0,129.0,0.0
119.0,-247.0,131.0,0.0
124.0,-252.0,138.0,0.0
129.0,-259.0,146.0,0.0
128.0,-254.0,147.0,0.0
128.0,-251.0,149.0,0.0
127.0,-246.0,149.0,0.0
122.0,-231.0,145.0,0.0
117.0,-220.0,141.0,0.0
118.0,-218.0,143.0,0.0
105.0,-192.0,129.0,0.0
106.0,-190.0,132.0,0.0
100.0,-177.0,125.0,0.0
100.0,-174.0,126.0,0.0
94.0,-161.0,120.0,0.0
86.0,-146.0,111.0,0.0
91.0,-152.0,119.0,0.0
81.0,-134.0,106.0,0.0
72.0,-117.0,96.0,0.0
69.0,-109.0,92.0,0.0
64.0,-101.0,87.0,0.0
58.0,-91.0,80.0,0.0
60.0,-91.0,83.0,0.0
60.0,-90.0,83.0,0.0
54.0,-80.0,76.0,0.0
1062.0,-1528.0,1479.0,0.0
1055.0,-1492.0,1478.0,0.0
21702.0,-30176.0,30624.0,1.0
21900.0,-29935.0,31113.0,1.0
22049.0,-29621.0,31533.0,1.0
22042.0,-29097.0,31726.0,1.0
22065.0,-28614.0,31962.0,1.0
1077.0,-1372.0,1571.0,0.0
22035.0,-27559.0,32311.0,1.0
21958.0,-26959.0,32390.0,1.0
1100.0,-1326.0,1634.0,0.0
21977.0,-25982.0,32792.0,1.0
21936.0,-25436.0,32914.0,1.0
21944.0,-24952.0,33106.0,1.0
21946.0,-24461.0,33287.0,1.0
21945.0,-23969.0,33461.0,1.0
21927.0,-23460.0,33605.0,1.0
21934.0,-22979.0,33783.0,1.0
21918.0,-22479.0,33928.0,1.0
21881.0,-21956.0,34033.0,1.0
21879.0,-21472.0,34191.0,1.0
21836.0,-20951.0,34285.0,1.0
21853.0,-20488.0,34468.0,1.0
21860.0,-20018.0,34634.0,1.0
21831.0,-19515.0,34739.0,1.0
21834.0,-19043.0,34895.0,1.0
21833.0,-18569.0,35040.0,1.0
21839.0,-18100.0,35196.0,1.0
21810.0,-17604.0,35291.0,1.0
21852.0,-17167.0,35500.0,1.0
21857.0,-16700.0,35647.0,1.0
1108.0,-822.0,1814.0,0.0
21775.0,-15700.0,35784.0,1.0
21865.0,-15296.0,36065.0,1.0
1110.0,-752.0,1838.0,0.0
21810.0,-14321.0,36233.0,1.0
1131.0,-718.0,1886.0,0.0
21791.0,-13376.0,36453.0,1.0
1130.0,-669.0,1897.0,0.0
21800.0,-12449.0,36710.0,1.0
1121.0,-616.0,1896.0,0.0
21844.0,-11541.0,37021.0,1.0
21750.0,-11026.0,36977.0,1.0
21773.0,-10572.0,37131.0,1.0
21804.0,-10121.0,37294.0,1.0
1117.0,-494.0,1918.0,0.0
1116.0,-470.0,1920.0,0.0
21795.0,-8718.0,37604.0,1.0
21802.0,-8255.0,37720.0,1.0
21802.0,-7787.0,37823.0,1.0
21639.0,-7265.0,37641.0,1.0
21818.0,-6856.0,38053.0,1.0
21811.0,-6384.0,38138.0,1.0
21814.0,-5915.0,38240.0,1.0
21794.0,-5440.0,38299.0,1.0
21797.0,-4969.0,38397.0,1.0
21833.0,-4504.0,38553.0,1.0
21827.0,-4030.0,38630.0,1.0
11939.0,-1944.0,21180.0,0.0
10995.0,-1551.0,19547.0,0.0
10914.0,-1301.0,19446.0,0.0
12.0,-1.0,21.0,0.0
14.0,-1.0,27.0,0.0
16.0,-1.0,29.0,0.0
15.0,-1.0,28.0,0.0
19.0,0.0,35.0,0.0
6.0,0.0,14.0,0.0
16.0,0.0,29.0,0.0
26.0,1.0,48.0,0.0
23.0,1.0,42.0,0.0
23.0,2.0,43.0,0.0
26.0,2.0,48.0,0.0
28.0,3.0,53.0,0.0
29.0,5.0,55.0,0.0
31.0,5.0,59.0,0.0
37.0,7.0,70.0,0.0
39.0,9.0,74.0,0.0
39.0,10.0,74.0,0.0
35.0,10.0,65.0,0.0
37.0,11.0,68.0,0.0
40.0,13.0,75.0,0.0
47.0,16.0,88.0,0.0
51.0,19.0,96.0,0.0
45.0,18.0,84.0,0.0
44.0,18.0,82.0,0.0
48.0,21.0,91.0,0.0
46.0,21.0,87.0,0.0
48.0,24.0,92.0,0.0
55.0,28.0,102.0,0.0
48.0,26.0,92.0,0.0
56.0,31.0,106.0,0.0
55.0,33.0,103.0,0.0
53.0,33.0,99.0,0.0
55.0,35.0,106.0,0.0
53.0,36.0,102.0,0.0
62.0,43.0,117.0,0.0
54.0,39.0,102.0,0.0
58.0,43.0,109.0,0.0
56.0,43.0,107.0,0.0
56.0,46.0,106.0,0.0
54.0,45.0,101.0,0.0
52.0,45.0,97.0,0.0
52.0,46.0,97.0,0.0
50.0,45.0,93.0,0.0
46.0,44.0,88.0,0.0
48.0,48.0,92.0,0.0
46.0,46.0,88.0,0.0
50.0,52.0,96.0,0.0
51.0,53.0,96.0,0.0
47.0,50.0,89.0,0.0
49.0,55.0,93.0,0.0
49.0,56.0,93.0,0.0
52.0,62.0,101.0,0.0
49.0,60.0,94.0,0.0
51.0,63.0,97.0,0.0
53.0,67.0,100.0,0.0
51.0,67.0,98.0,0.0
55.0,74.0,106.0,0.0
52.0,71.0,98.0,0.0
53.0,74.0,101.0,0.0
54.0,79.0,104.0,0.0
54.0,79.0,103.0,0.0
54.0,81.0,102.0,0.0
55.0,86.0,105.0,0.0
57.0,90.0,109.0,0.0
56.0,90.0,106.0,0.0
60.0,97.0,113.0,0.0
58.0,97.0,109.0,0.0
61.0,106.0,116.0,0.0
61.0,105.0,113.0,0.0
64.0,113.0,119.0,0.0
64.0,117.0,120.0,0.0
65.0,121.0,122.0,0.0
64.0,121.0,120.0,0.0
64.0,126.0,121.0,0.0
67.0,133.0,125.0,0.0
68.0,137.0,127.0,0.0
68.0,140.0,126.0,0.0
66.0,140.0,123.0,0.0
69.0,148.0,127.0,0.0
71.0,155.0,131.0,0.0
68.0,151.0,124.0,0.0
68.0,154.0,124.0,0.0
102.0,-304.0,67.0,0.0
101.0,-298.0,69.0,0.0
98.0,-286.0,70.0,0.0
96.0,-275.0,70.0,0.0
95.0,-268.0,72.0,0.0
99.0,-278.0,77.0,0.0
99.0,-272.0,78.0,0.0
101.0,-276.0,83.0,0.0
100.0,-268.0,84.0,0.0
99.0,-262.0,85.0,0.0
104.0,-274.0,92.0,0.0
101.0,-262.0,92.0,0.0
105.0,-267.0,97.0,0.0
104.0,-263.0,99.0,0.0
109.0,-270.0,105.0,0.0
107.0,-260.0,104.0,0.0
109.0,-262.0,108.0,0.0
108.0,-257.0,110.0,0.0
112.0,-262.0,115.0,0.0
112.0,-258.0,117.0,0.0
111.0,-254.0,119.0,0.0
115.0,-259.0,125.0,0.0
119.0,-263.0,130.0,0.0
114.0,-250.0,128.0,0.0
116.0,-251.0,131.0,0.0
117.0,-248.0,133.0,0.0
123.0,-258.0,143.0,0.0
125.0,-260.0,148.0,0.0
129.0,-262.0,153.0,0.0
124.0,-249.0,149.0,0.0
124.0,-245.0,150.0,0.0
118.0,-230.0,145.0,0.0
113.0,-217.0,141.0,0.0
109.0,-208.0,137.0,0.0
106.0,-197.0,133.0,0.0
106.0,-193.0,135.0,0.0
94.0,-171.0,121.0,0.0
92.0,-163.0,119.0,0.0
85.0,-149.0,112.0,0.0
89.0,-154.0,118.0,0.0
73.0,-125.0,99.0,0.0
68.0,-115.0,93.0,0.0
65.0,-108.0,89.0,0.0
63.0,-104.0,88.0,0.0
63.0,-102.0,88.0,0.0
58.0,-92.0,82.0,0.0
11969.0,-18501.0,16766.0,0.0
12244.0,-18621.0,17279.0,0.0
12512.0,-18719.0,17786.0,0.0
1054.0,-1551.0,1510.0,0.0
1051.0,-1521.0,1515.0,0.0
21163.0,-30108.0,30715.0,1.0
1037.0,-1451.0,1516.0,0.0
21489.0,-29537.0,31602.0,1.0
21675.0,-29273.0,32078.0,1.0
1056.0,-1401.0,1573.0,0.0
21772.0,-28370.0,32621.0,1.0
21714.0,-27784.0,32729.0,1.0
1065.0,-1339.0,1616.0,0.0
21716.0,-26770.0,33113.0,1.0
21725.0,-26277.0,33314.0,1.0
21707.0,-25752.0,33468.0,1.0
1064.0,-1238.0,1649.0,0.0
1086.0,-1238.0,1692.0,0.0
21702.0,-24250.0,33994.0,1.0
21649.0,-23697.0,34084.0,1.0
21656.0,-23213.0,34264.0,1.0
21652.0,-22718.0,34424.0,1.0
21645.0,-22222.0,34578.0,1.0
1087.0,-1092.0,1746.0,0.0
21685.0,-21287.0,34964.0,1.0
1091.0,-1047.0,1769.0,0.0
21662.0,-20296.0,35240.0,1.0
1098.0,-1005.0,1796.0,0.0
1071.0,-955.0,1758.0,0.0
1080.0,-940.0,1780.0,0.0
1077.0,-914.0,1784.0,0.0
1094.0,-903.0,1818.0,0.0
1094.0,-879.0,1825.0,0.0
21613.0,-16901.0,36183.0,1.0
1094.0,-831.0,1840.0,0.0
21630.0,-15964.0,36485.0,1.0
1080.0,-774.0,1830.0,0.0
1091.0,-758.0,1855.0,0.0
21536.0,-14479.0,36719.0,1.0
1097.0,-714.0,1878.0,0.0
1086.0,-682.0,1866.0,0.0
1123.0,-681.0,1936.0,0.0
1089.0,-637.0,1883.0,0.0
1090.0,-613.0,1891.0,0.0
1100.0,-596.0,1915.0,0.0
1129.0,-586.0,1971.0,0.0
1119.0,-557.0,1960.0,0.0
1111.0,-528.0,1952.0,0.0
1082.0,-490.0,1906.0,0.0
1098.0,-474.0,1939.0,0.0
21603.0,-8864.0,38241.0,1.0
21579.0,-8383.0,38303.0,1.0
21424.0,-7854.0,38133.0,1.0
21428.0,-7387.0,38242.0,1.0
21553.0,-6956.0,38565.0,1.0
21581.0,-6491.0,38714.0,1.0
1089.0,-303.0,1959.0,0.0
21566.0,-5538.0,38881.0,1.0
21542.0,-5057.0,38932.0,1.0
1081.0,-230.0,1959.0,0.0
21586.0,-4112.0,39194.0,1.0
11677.0,-1965.0,21251.0,0.0
10782.0,-1575.0,19665.0,0.0
10.0,-2.0,18.0,0.0
14.0,-1.0,27.0,0.0
11588.0,-916.0,21273.0,0.0
10032.0,-568.0,18454.0,0.0
14.0,0.0,27.0,0.0
12.0,0.0,25.0,0.0
17.0,0.0,33.0,0.0
23.0,0.0,44.0,0.0
14.0,0.0,26.0,0.0
24.0,1.0,47.0,0.0
20.0,1.0,40.0,0.0
28.0,3.0,53.0,0.0
26.0,3.0,49.0,0.0
24.0,3.0,48.0,0.0
24.0,4.0,46.0,0.0
32.0,6.0,61.0,0.0
40.0,9.0,78.0,0.0
34.0,8.0,64.0,0.0
32.0,9.0,61.0,0.0
45.0,14.0,87.0,0.0
46.0,15.0,88.0,0.0
45.0,16.0,87.0,0.0
46.0,18.0,89.0,0.0
42.0,16.0,81.0,0.0
38.0,16.0,73.0,0.0
45.0,21.0,88.0,0.0
51.0,24.0,98.0,0.0
49.0,25.0,94.0,0.0
55.0,29.0,106.0,0.0
58.0,32.0,112.0,0.0
51.0,30.0,100.0,0.0
54.0,32.0,105.0,0.0
54.0,34.0,103.0,0.0
56.0,36.0,108.0,0.0
54.0,38.0,105.0,0.0
52.0,37.0,102.0,0.0
54.0,41.0,106.0,0.0
57.0,43.0,111.0,0.0
57.0,46.0,110.0,0.0
50.0,41.0,99.0,0.0
49.0,42.0,96.0,0.0
51.0,44.0,98.0,0.0
48.0,44.0,95.0,0.0
53.0,49.0,102.0,0.0
49.0,48.0,97.0,0.0
44.0,44.0,86.0,0.0
45.0,46.0,87.0,0.0
45.0,47.0,89.0,0.0
48.0,52.0,94.0,0.0
43.0,48.0,85.0,0.0
45.0,51.0,87.0,0.0
45.0,53.0,88.0,0.0
45.0,54.0,88.0,0.0
46.0,57.0,91.0,0.0
50.0,64.0,98.0,0.0
47.0,61.0,92.0,0.0
50.0,67.0,98.0,0.0
52.0,70.0,100.0,0.0
50.0,71.0,99.0,0.0
52.0,75.0,102.0,0.0
52.0,75.0,101.0,0.0
53.0,80.0,104.0,0.0
55.0,85.0,108.0,0.0
53.0,83.0,103.0,0.0
54.0,87.0,104.0,0.0
55.0,90.0,107.0,0.0
56.0,95.0,110.0,0.0
59.0,101.0,114.0,0.0
60.0,106.0,117.0,0.0
60.0,106.0,115.0,0.0
60.0,110.0,116.0,0.0
63.0,117.0,121.0,0.0
61.0,118.0,119.0,0.0
63.0,122.0,122.0,0.0
63.0,125.0,121.0,0.0
65.0,133.0,126.0,0.0
65.0,133.0,123.0,0.0
65.0,137.0,124.0,0.0
66.0,141.0,125.0,0.0
67.0,149.0,129.0,0.0
68.0,153.0,130.0,0.0
65.0,147.0,122.0,0.0
66.0,155.0,126.0,0.0
93.0,-288.0,65.0,0.0
96.0,-292.0,69.0,0.0
95.0,-284.0,70.0,0.0
91.0,-268.0,69.0,0.0
91.0,-267.0,72.0,0.0
94.0,-271.0,77.0,0.0
94.0,-270.0,79.0,0.0
95.0,-267.0,81.0,0.0
94.0,-260.0,82.0,0.0
101.0,-273.0,90.0,0.0
98.0,-261.0,90.0,0.0
97.0,-258.0,91.0,0.0
104.0,-273.0,100.0,0.0
100.0,-257.0,97.0,0.0
101.0,-256.0,100.0,0.0
104.0,-262.0,107.0,0.0
106.0,-264.0,110.0,0.0
105.0,-254.0,109.0,0.0
110.0,-264.0,117.0,0.0
107.0,-255.0,116.0,0.0
110.0,-257.0,121.0,0.0
112.0,-260.0,126.0,0.0
116.0,-263.0,132.0,0.0
113.0,-253.0,130.0,0.0
114.0,-251.0,132.0,0.0
114.0,-249.0,135.0,0.0
120.0,-259.0,144.0,0.0
124.0,-261.0,149.0,0.0
125.0,-260.0,152.0,0.0
117.0,-241.0,145.0,0.0
116.0,-235.0,145.0,0.0
113.0,-225.0,142.0,0.0
109.0,-216.0,140.0,0.0
100.0,-194.0,130.0,0.0
95.0,-183.0,125.0,0.0
93.0,-174.0,123.0,0.0
86.0,-161.0,116.0,0.0
87.0,-159.0,117.0,0.0
79.0,-141.0,107.0,0.0
75.0,-133.0,102.0,0.0
73.0,-127.0,101.0,0.0
74.0,-127.0,103.0,0.0
72.0,-121.0,100.0,0.0
60.0,-100.0,85.0,0.0
55.0,-91.0,80.0,0.0
57.0,-91.0,82.0,0.0
11725.0,-18555.0,16909.0,0.0
52.0,-81.0,76.0,0.0
20140.0,-30846.0,29466.0,1.0
1010.0,-1522.0,1489.0,0.0
1019.0,-1509.0,1512.0,0.0
20603.0,-30006.0,30768.0,1.0
20770.0,-29735.0,31221.0,1.0
20955.0,-29485.0,31702.0,1.0
21137.0,-29221.0,32177.0,1.0
21277.0,-28896.0,32590.0,1.0
1026.0,-1369.0,1582.0,0.0
21517.0,-28179.0,33349.0,1.0
21522.0,-27671.0,33551.0,1.0
1015.0,-1281.0,1592.0,0.0
21462.0,-26569.0,33832.0,1.0
1035.0,-1256.0,1641.0,0.0
21433.0,-25519.0,34150.0,1.0
21393.0,-24970.0,34265.0,1.0
21401.0,-24476.0,34452.0,1.0
21407.0,-23984.0,34634.0,1.0
21419.0,-23500.0,34824.0,1.0
21385.0,-22966.0,34934.0,1.0
1036.0,-1089.0,1702.0,0.0
1076.0,-1107.0,1777.0,0.0
1044.0,-1050.0,1730.0,0.0
1049.0,-1030.0,1746.0,0.0
1028.0,-987.0,1720.0,0.0
1060.0,-993.0,1781.0,0.0
1084.0,-990.0,1827.0,0.0
1083.0,-965.0,1834.0,0.0
1047.0,-909.0,1780.0,0.0
1056.0,-892.0,1801.0,0.0
1053.0,-866.0,1804.0,0.0
21326.0,-17076.0,36662.0,1.0
1061.0,-825.0,1833.0,0.0
1056.0,-798.0,1831.0,0.0
1057.0,-775.0,1839.0,0.0
1098.0,-780.0,1915.0,0.0
1043.0,-718.0,1827.0,0.0
1060.0,-706.0,1863.0,0.0
1076.0,-692.0,1897.0,0.0
1049.0,-651.0,1856.0,0.0
1070.0,-642.0,1900.0,0.0
1085.0,-626.0,1932.0,0.0
1059.0,-587.0,1891.0,0.0
1077.0,-574.0,1931.0,0.0
1085.0,-553.0,1950.0,0.0
21301.0,-10395.0,38372.0,1.0
1081.0,-503.0,1954.0,0.0
1092.0,-484.0,1979.0,0.0
1073.0,-451.0,1949.0,0.0
1077.0,-430.0,1962.0,0.0
1054.0,-396.0,1925.0,0.0
21220.0,-7512.0,38866.0,1.0
1079.0,-358.0,1983.0,0.0
21312.0,-6590.0,39237.0,1.0
1096.0,-315.0,2024.0,0.0
1074.0,-284.0,1989.0,0.0
21317.0,-5154.0,39537.0,1.0
1074.0,-235.0,1999.0,0.0
1056.0,-207.0,1970.0,0.0
11408.0,-1984.0,21307.0,0.0
10567.0,-1598.0,19781.0,0.0
10.0,-1.0,20.0,0.0
7.0,-1.0,14.0,0.0
11.0,-1.0,22.0,0.0
21.0,-2.0,42.0,0.0
14.0,0.0,27.0,0.0
17.0,0.0,35.0,0.0
17.0,0.0,34.0,0.0
22.0,0.0,43.0,0.0
20.0,0.0,39.0,0.0
31.0,1.0,60.0,0.0
23.0,1.0,46.0,0.0
29.0,3.0,57.0,0.0
22.0,3.0,44.0,0.0
29.0,5.0,58.0,0.0
35.0,6.0,68.0,0.0
28.0,6.0,55.0,0.0
33.0,8.0,65.0,0.0
37.0,9.0,72.0,0.0
35.0,10.0,68.0,0.0
39.0,12.0,77.0,0.0
35.0,11.0,69.0,0.0
39.0,13.0,77.0,0.0
38.0,15.0,75.0,0.0
44.0,18.0,88.0,0.0
40.0,18.0,80.0,0.0
44.0,20.0,88.0,0.0
42.0,20.0,83.0,0.0
45.0,23.0,90.0,0.0
48.0,26.0,96.0,0.0
42.0,23.0,82.0,0.0
50.0,30.0,99.0,0.0
48.0,30.0,97.0,0.0
55.0,36.0,110.0,0.0
44.0,29.0,88.0,0.0
56.0,39.0,113.0,0.0
50.0,37.0,101.0,0.0
53.0,40.0,106.0,0.0
49.0,39.0,99.0,0.0
53.0,43.0,105.0,0.0
47.0,39.0,94.0,0.0
49.0,42.0,97.0,0.0
47.0,42.0,94.0,0.0
43.0,40.0,86.0,0.0
46.0,44.0,93.0,0.0
43.0,42.0,86.0,0.0
42.0,43.0,85.0,0.0
44.0,46.0,89.0,0.0
44.0,47.0,87.0,0.0
40.0,44.0,81.0,0.0
44.0,50.0,88.0,0.0
44.0,51.0,88.0,0.0
42.0,51.0,86.0,0.0
44.0,54.0,90.0,0.0
45.0,57.0,91.0,0.0
47.0,61.0,95.0,0.0
45.0,59.0,89.0,0.0
45.0,62.0,92.0,0.0
49.0,68.0,99.0,0.0
48.0,69.0,97.0,0.0
49.0,73.0,99.0,0.0
48.0,72.0,98.0,0.0
51.0,76.0,101.0,0.0
51.0,79.0,102.0,0.0
50.0,80.0,100.0,0.0
52.0,87.0,106.0,0.0
54.0,91.0,109.0,0.0
55.0,96.0,111.0,0.0
55.0,98.0,112.0,0.0
57.0,103.0,115.0,0.0
56.0,103.0,113.0,0.0
58.0,107.0,114.0,0.0
59.0,114.0,119.0,0.0
59.0,114.0,117.0,0.0
59.0,119.0,119.0,0.0
60.0,123.0,119.0,0.0
61.0,127.0,120.0,0.0
63.0,134.0,125.0,0.0
61.0,133.0,121.0,0.0
62.0,137.0,123.0,0.0
62.0,141.0,124.0,0.0
65.0,150.0,127.0,0.0
65.0,152.0,128.0,0.0
64.0,151.0,124.0,0.0
96.0,-304.0,69.0,0.0
97.0,-301.0,72.0,0.0
95.0,-293.0,73.0,0.0
93.0,-282.0,74.0,0.0
90.0,-271.0,75.0,0.0
95.0,-282.0,80.0,0.0
93.0,-271.0,81.0,0.0
94.0,-271.0,84.0,0.0
94.0,-269.0,87.0,0.0
97.0,-271.0,91.0,0.0
100.0,-275.0,95.0,0.0
99.0,-272.0,97.0,0.0
101.0,-272.0,100.0,0.0
102.0,-269.0,103.0,0.0
103.0,-269.0,107.0,0.0
105.0,-271.0,111.0,0.0
105.0,-266.0,112.0,0.0
109.0,-271.0,118.0,0.0
108.0,-268.0,120.0,0.0
108.0,-262.0,121.0,0.0
111.0,-267.0,127.0,0.0
112.0,-264.0,130.0,0.0
111.0,-259.0,130.0,0.0
114.0,-261.0,135.0,0.0
115.0,-261.0,139.0,0.0
115.0,-258.0,141.0,0.0
119.0,-261.0,146.0,0.0
125.0,-272.0,156.0,0.0
120.0,-259.0,153.0,0.0
121.0,-255.0,155.0,0.0
119.0,-247.0,154.0,0.0
114.0,-234.0,149.0,0.0
107.0,-216.0,142.0,0.0
105.0,-210.0,140.0,0.0
100.0,-196.0,135.0,0.0
96.0,-187.0,132.0,0.0
92.0,-177.0,128.0,0.0
81.0,-151.0,112.0,0.0
88.0,-163.0,123.0,0.0
71.0,-130.0,101.0,0.0
74.0,-133.0,106.0,0.0
74.0,-131.0,106.0,0.0
66.0,-115.0,96.0,0.0
66.0,-112.0,96.0,0.0
64.0,-107.0,94.0,0.0
56.0,-93.0,83.0,0.0
11464.0,-18583.0,17026.0,0.0
11737.0,-18720.0,17559.0,0.0
19697.0,-30902.0,29673.0,1.0
1008.0,-1556.0,1531.0,0.0
19907.0,-30203.0,30399.0,1.0
1006.0,-1500.0,1546.0,0.0
20237.0,-29672.0,31308.0,1.0
20414.0,-29417.0,31781.0,1.0
1013.0,-1435.0,1588.0,0.0
20741.0,-28847.0,32684.0,1.0
1006.0,-1374.0,1596.0,0.0
21083.0,-28278.0,33616.0,1.0
1023.0,-1348.0,1643.0,0.0
21196.0,-27387.0,34176.0,1.0
21185.0,-26857.0,34345.0,1.0
21179.0,-26335.0,34519.0,1.0
21192.0,-25839.0,34721.0,1.0
1044.0,-1248.0,1721.0,0.0
1040.0,-1219.0,1723.0,0.0
1023.0,-1174.0,1702.0,0.0
1030.0,-1157.0,1722.0,0.0
1052.0,-1157.0,1767.0,0.0
1012.0,-1090.0,1709.0,0.0
1040.0,-1094.0,1762.0,0.0
1041.0,-1071.0,1773.0,0.0
1015.0,-1020.0,1736.0,0.0
1047.0,-1028.0,1799.0,0.0
1050.0,-1007.0,1812.0,0.0
1042.0,-974.0,1804.0,0.0
21053.0,-19212.0,36604.0,1.0
1040.0,-925.0,1816.0,0.0
1075.0,-931.0,1884.0,0.0
21051.0,-17752.0,37035.0,1.0
1068.0,-875.0,1887.0,0.0
1041.0,-830.0,1847.0,0.0
1076.0,-832.0,1914.0,0.0
1029.0,-772.0,1838.0,0.0
1041.0,-758.0,1865.0,0.0
1064.0,-750.0,1914.0,0.0
1056.0,-721.0,1906.0,0.0
1056.0,-697.0,1914.0,0.0
1054.0,-672.0,1915.0,0.0
1053.0,-647.0,1919.0,0.0
1050.0,-620.0,1919.0,0.0
1066.0,-606.0,1957.0,0.0
1047.0,-572.0,1928.0,0.0
1056.0,-552.0,1948.0,0.0
1062.0,-531.0,1964.0,0.0
1075.0,-513.0,1996.0,0.0
1053.0,-479.0,1960.0,0.0
1049.0,-453.0,1959.0,0.0
1077.0,-441.0,2015.0,0.0
1047.0,-405.0,1964.0,0.0
1071.0,-390.0,2016.0,0.0
1050.0,-359.0,1981.0,0.0
1067.0,-340.0,2019.0,0.0
1077.0,-318.0,2042.0,0.0
1076.0,-293.0,2045.0,0.0
1063.0,-265.0,2024.0,0.0
1061.0,-240.0,2028.0,0.0
1037.0,-211.0,1984.0,0.0
11.0,-2.0,21.0,0.0
8.0,-1.0,16.0,0.0
10169.0,-1356.0,19588.0,0.0
9.0,-1.0,19.0,0.0
12.0,-1.0,24.0,0.0
17.0,-1.0,34.0,0.0
19.0,0.0,36.0,0.0
27.0,0.0,53.0,0.0
17.0,0.0,33.0,0.0
30.0,0.0,60.0,0.0
25.0,1.0,50.0,0.0
27.0,1.0,53.0,0.0
25.0,2.0,50.0,0.0
30.0,3.0,62.0,0.0
31.0,4.0,63.0,0.0
29.0,5.0,59.0,0.0
34.0,6.0,68.0,0.0
30.0,6.0,62.0,0.0
37.0,8.0,75.0,0.0
31.0,8.0,63.0,0.0
39.0,11.0,79.0,0.0
42.0,13.0,85.0,0.0
40.0,13.0,81.0,0.0
42.0,15.0,86.0,0.0
46.0,18.0,94.0,0.0
50.0,21.0,103.0,0.0
47.0,20.0,96.0,0.0
48.0,23.0,99.0,0.0
47.0,23.0,96.0,0.0
