//X,Y,Z,Classification
145,-263,147,0.0
144,-259,148,0.0
139,-247,145,0.0
143,-250,151,0.0
132,-225,140,0.0
137,-231,147,0.0
126,-210,137,0.0
126,-207,139,0.0
115,-186,128,0.0
114,-182,128,0.0
115,-181,131,0.0
102,-159,118,0.0
15481,-23519,17876,0.0
5007,-7492,5836,0.0
15408,-22702,18121,0.0
15504,-22493,18397,0.0
5288,-7553,6330,0.0
15377,-21619,18561,0.0
15333,-21217,18661,0.0
15267,-20787,18730,0.0
15214,-20380,18813,0.0
15151,-19966,18880,0.0
15097,-19565,18954,0.0
15041,-19168,19024,0.0
14996,-18787,19103,0.0
14954,-18413,19183,0.0
14014,-16956,18101,0.0
14453,-17180,18793,0.0
14415,-16831,18868,0.0
14516,-16642,19123,0.0
14575,-16405,19322,0.0
14659,-16191,19552,0.0
14617,-15842,19615,0.0
14578,-15496,19678,0.0
14549,-15164,19752,0.0
14500,-14815,19798,0.0
14459,-14475,19850,0.0
14454,-14174,19950,0.0
14411,-13838,19999,0.0
14371,-13507,20047,0.0
14321,-13169,20079,0.0
14313,-12871,20169,0.0
14266,-12541,20201,0.0
14251,-12241,20277,0.0
14222,-11929,20330,0.0
14183,-11612,20368,0.0
14157,-11306,20423,0.0
14118,-10993,20457,0.0
14094,-10692,20510,0.0
14069,-10392,20560,0.0
14038,-10090,20600,0.0
14029,-9805,20672,0.0
14008,-9511,20724,0.0
13986,-9220,20774,0.0
13996,-8948,20869,0.0
14002,-8674,20955,0.0
13960,-8373,20972,0.0
13950,-8090,21031,0.0
13980,-7830,21150,0.0
13944,-7536,21172,0.0
13971,-7274,21284,0.0
13913,-6968,21267,0.0
13910,-6692,21332,0.0
13938,-6430,21444,0.0
13923,-6148,21488,0.0
13966,-5891,21622,0.0
13997,-5627,21735,0.0
13975,-5341,21765,0.0
13993,-5071,21857,0.0
13993,-4795,21918,0.0
14028,-4528,22034,0.0
14015,-4245,22074,0.0
14039,-3974,22170,0.0
14039,-3694,22229,0.0
14020,-3409,22256,0.0
14044,-3135,22349,0.0
14068,-2858,22442,0.0
14076,-2578,22510,0.0
14069,-2294,22550,0.0
14098,-2015,22648,0.0
14108,-1732,22714,0.0
14127,-1448,22797,0.0
14129,-1163,22848,0.0
14147,-877,22923,0.0
14193,-591,23044,0.0
14195,-302,23094,0.0
14196,-11,23140,0.0
14218,280,23220,0.0
14268,576,23342,0.0
14236,869,23333,0.0
14253,1165,23399,0.0
13929,1429,22907,0.0
13985,1726,23036,0.0
14364,2073,23698,0.0
13823,2286,22840,0.0
14426,2691,23872,0.0
14367,2985,23809,0.0
14223,3258,23602,0.0
14454,3620,24018,0.0
14562,3959,24228,0.0
14599,4285,24321,0.0
14,4,24,0.0
19,6,33,0.0
14,4,24,0.0
20,7,35,0.0
16,6,28,0.0
26,10,44,0.0
21,9,35,0.0
24,11,42,0.0
35,17,60,0.0
37,19,64,0.0
38,20,64,0.0
37,20,64,0.0
43,25,74,0.0
40,24,69,0.0
52,32,88,0.0
49,31,83,0.0
52,34,87,0.0
45,31,76,0.0
54,39,92,0.0
57,43,96,0.0
53,42,92,0.0
58,46,99,0.0
55,44,93,0.0
56,48,96,0.0
59,52,101,0.0
51,45,86,0.0
58,54,99,0.0
59,56,101,0.0
55,54,94,0.0
62,62,105,0.0
61,63,104,0.0
62,65,105,0.0
62,67,105,0.0
60,68,103,0.0
63,73,107,0.0
63,74,108,0.0
62,75,105,0.0
64,79,108,0.0
66,83,112,0.0
65,85,110,0.0
67,88,113,0.0
66,89,112,0.0
73,101,124,0.0
71,99,119,0.0
65,94,109,0.0
69,102,116,0.0
70,106,117,0.0
69,106,115,0.0
72,113,120,0.0
70,113,117,0.0
72,117,119,0.0
73,121,121,0.0
71,123,119,0.0
71,122,116,0.0
72,128,119,0.0
75,135,123,0.0
75,139,124,0.0
74,139,121,0.0
77,147,125,0.0
75,148,124,0.0
75,150,122,0.0
76,154,123,0.0
78,161,125,0.0
114,-310,64,0.0
109,-291,63,0.0
107,-282,64,0.0
107,-281,67,0.0
108,-278,69,0.0
108,-275,72,0.0
107,-267,73,0.0
111,-274,78,0.0
107,-261,77,0.0
110,-264,81,0.0
111,-263,84,0.0
110,-255,84,0.0
111,-256,88,0.0
108,-244,87,0.0
111,-250,92,0.0
112,-247,94,0.0
112,-244,97,0.0
116,-248,101,0.0
115,-243,103,0.0
118,-248,108,0.0
115,-238,107,0.0
119,-244,113,0.0
121,-244,116,0.0
119,-237,116,0.0
118,-232,117,0.0
122,-236,123,0.0
127,-243,130,0.0
142,-268,147,0.0
145,-269,151,0.0
147,-267,155,0.0
147,-266,158,0.0
143,-254,155,0.0
145,-254,160,0.0
141,-243,156,0.0
130,-221,146,0.0
127,-214,144,0.0
119,-198,137,0.0
110,-181,128,0.0
109,-175,128,0.0
109,-171,129,0.0
15162,-23533,18012,0.0
15099,-23081,18103,0.0
4997,-7522,6045,0.0
15152,-22456,18489,0.0
15059,-21974,18534,0.0
5292,-7601,6567,0.0
14933,-21107,18682,0.0
14894,-20717,18782,0.0
14818,-20277,18832,0.0
14758,-19864,18897,0.0
14726,-19493,18996,0.0
14682,-19111,19077,0.0
14623,-18713,19136,0.0
14038,-17656,18497,0.0
13944,-17231,18497,0.0
14400,-17484,19230,0.0
14419,-17195,19380,0.0
14317,-16766,19365,0.0
14329,-16472,19501,0.0
14302,-16135,19582,0.0
14253,-15777,19632,0.0
14233,-15453,19718,0.0
14187,-15103,19768,0.0
14164,-14781,19845,0.0
14105,-14423,19871,0.0
14092,-14116,19959,0.0
14061,-13792,20021,0.0
14014,-13454,20055,0.0
13972,-13124,20097,0.0
13919,-12786,20119,0.0
13876,-12461,20155,0.0
13863,-12163,20231,0.0
13859,-11876,20319,0.0
13846,-11582,20393,0.0
13810,-11268,20430,0.0
13811,-10987,20521,0.0
13821,-10713,20624,0.0
13764,-10390,20626,0.0
13716,-10075,20639,0.0
13708,-9791,20711,0.0
13706,-9513,20790,0.0
13681,-9218,20832,0.0
13700,-8954,20941,0.0
13679,-8664,20987,0.0
13671,-8382,21050,0.0
13674,-8108,21131,0.0
13633,-7809,21141,0.0
13667,-7554,21268,0.0
13627,-7257,21278,0.0
13634,-6986,21359,0.0
13606,-6698,21385,0.0
13626,-6433,21485,0.0
13610,-6151,21526,0.0
13619,-5881,21608,0.0
13643,-5617,21711,0.0
13670,-5351,21818,0.0
13634,-5062,21823,0.0
13632,-4787,21880,0.0
13650,-4517,21970,0.0
13649,-4241,22029,0.0
13651,-3964,22090,0.0
13639,-3684,22128,0.0
13687,-3419,22262,0.0
13706,-3145,22350,0.0
13738,-2872,22457,0.0
13755,-2595,22539,0.0
13757,-2313,22594,0.0
12860,-1899,21168,0.0
13785,-1753,22740,0.0
13819,-1472,22847,0.0
12843,-1103,21278,0.0
13795,-900,22903,0.0
13839,-615,23024,0.0
13863,-327,23108,0.0
13862,-38,23153,0.0
13910,251,23276,0.0
13890,543,23286,0.0
13890,835,23327,0.0
13933,1131,23440,0.0
13631,1397,22971,0.0
13698,1695,23121,0.0
14021,2034,23704,0.0
13492,2246,22844,0.0
14071,2646,23863,0.0
14099,2956,23945,0.0
14103,3263,23985,0.0
14163,3585,24121,0.0
14197,3905,24210,0.0
14229,4227,24294,0.0
13,3,24,0.0
29,9,50,0.0
19,6,34,0.0
29,11,50,0.0
22,8,39,0.0
31,12,53,0.0
28,12,49,0.0
36,17,63,0.0
34,16,58,0.0
39,20,67,0.0
39,20,67,0.0
43,24,75,0.0
36,21,63,0.0
48,30,85,0.0
46,30,80,0.0
48,32,84,0.0
48,33,85,0.0
44,31,78,0.0
58,43,101,0.0
49,37,87,0.0
59,46,103,0.0
58,47,101,0.0
59,50,103,0.0
57,49,100,0.0
54,49,96,0.0
64,58,110,0.0
64,60,113,0.0
57,56,100,0.0
57,56,99,0.0
60,61,104,0.0
59,63,103,0.0
58,63,102,0.0
61,67,106,0.0
63,72,109,0.0
59,69,103,0.0
59,70,102,0.0
65,80,114,0.0
62,78,108,0.0
63,82,111,0.0
63,83,110,0.0
64,86,112,0.0
62,85,107,0.0
64,91,112,0.0
67,96,115,0.0
67,98,115,0.0
69,104,119,0.0
66,101,114,0.0
66,105,116,0.0
69,110,117,0.0
69,112,119,0.0
68,113,116,0.0
68,117,118,0.0
72,126,123,0.0
71,126,121,0.0
74,134,127,0.0
73,134,123,0.0
73,137,123,0.0
72,138,122,0.0
72,142,122,0.0
75,149,125,0.0
73,149,123,0.0
75,156,126,0.0
74,156,123,0.0
109,-303,63,0.0
106,-292,64,0.0
107,-289,67,0.0
108,-289,70,0.0
105,-275,70,0.0
103,-267,71,0.0
106,-271,75,0.0
104,-262,76,0.0
107,-265,80,0.0
106,-262,82,0.0
107,-259,84,0.0
107,-257,87,0.0
109,-258,90,0.0
111,-259,94,0.0
111,-255,96,0.0
111,-253,97,0.0
115,-258,104,0.0
111,-246,102,0.0
117,-254,108,0.0
119,-255,112,0.0
116,-248,112,0.0
119,-249,116,0.0
119,-244,117,0.0
121,-247,122,0.0
123,-245,125,0.0
122,-239,126,0.0
127,-247,133,0.0
134,-258,143,0.0
144,-272,155,0.0
140,-262,153,0.0
146,-269,160,0.0
138,-252,156,0.0
135,-244,154,0.0
136,-240,156,0.0
132,-231,153,0.0
128,-220,150,0.0
119,-202,141,0.0
125,-209,150,0.0
109,-178,131,0.0
108,-174,130,0.0
14830,-23526,18130,0.0
14752,-23047,18197,0.0
14713,-22634,18309,0.0
4999,-7572,6275,0.0
14706,-21930,18615,0.0
14595,-21423,18626,0.0
5293,-7646,6810,0.0
14490,-20595,18785,0.0
14464,-20226,18895,0.0
14396,-19801,18947,0.0
14315,-19363,18978,0.0
14287,-19002,19075,0.0
14236,-18614,19141,0.0
14178,-18220,19193,0.0
14151,-17869,19285,0.0
6540,-8113,8971,0.0
14055,-17125,19402,0.0
6829,-8171,9486,0.0
13993,-16435,19556,0.0
13919,-16046,19570,0.0
13897,-15718,19654,0.0
13845,-15358,19692,0.0
13806,-15018,19748,0.0
13768,-14681,19803,0.0
13758,-14375,19895,0.0
13728,-14052,19956,0.0
13705,-13735,20024,0.0
13677,-13417,20087,0.0
13629,-13081,20116,0.0
13604,-12770,20177,0.0
13594,-12475,20257,0.0
13566,-12164,20310,0.0
13537,-11854,20360,0.0
13504,-11544,20402,0.0
13467,-11231,20437,0.0
13432,-10922,20471,0.0
13396,-10614,20503,0.0
13385,-10328,20571,0.0
13348,-10022,20598,0.0
13332,-9735,20657,0.0
13313,-9447,20709,0.0
13288,-9153,20748,0.0
13294,-8884,20835,0.0
13284,-8604,20898,0.0
13268,-8320,20948,0.0
13310,-8072,21089,0.0
13276,-7779,21109,0.0
13237,-7485,21120,0.0
13267,-7229,21239,0.0
13298,-6973,21358,0.0
13292,-6697,21416,0.0
13293,-6425,21488,0.0
13321,-6164,21598,0.0
13295,-5879,21623,0.0
13336,-5623,21753,0.0
13319,-5342,21790,0.0
13349,-5079,21900,0.0
13317,-4794,21911,0.0
13340,-4527,22009,0.0
13347,-4254,22079,0.0
13366,-3984,22169,0.0
13366,-3707,22226,0.0
13350,-3426,22258,0.0
13396,-3160,22388,0.0
13409,-2885,22465,0.0
76,-15,128,0.0
96,-17,163,0.0
12681,-1935,21394,0.0
13068,-1721,22098,0.0
13060,-1445,22131,0.0
12519,-1122,21260,0.0
13441,-921,22872,0.0
13467,-638,22964,0.0
13545,-355,23142,0.0
13577,-67,23244,0.0
87,1,151,0.0
77,2,132,0.0
13547,802,23319,0.0
13245,1070,22840,0.0
13223,1354,22840,0.0
13170,1634,22787,0.0
13139,1916,22770,0.0
13150,2206,22823,0.0
13717,2601,23845,0.0
13763,2914,23962,0.0
13784,3223,24031,0.0
13832,3542,24149,0.0
13863,3860,24235,0.0
13885,4177,24304,0.0
13905,4497,24371,0.0
20,7,36,0.0
13,4,23,0.0
22,9,41,0.0
16,6,29,0.0
27,11,49,0.0
31,15,57,0.0
33,16,60,0.0
35,18,62,0.0
35,19,64,0.0
40,22,71,0.0
40,23,71,0.0
48,29,86,0.0
45,28,80,0.0
47,31,85,0.0
54,36,98,0.0
50,35,90,0.0
52,37,92,0.0
55,42,99,0.0
55,42,99,0.0
57,46,101,0.0
54,45,98,0.0
57,48,101,0.0
62,54,110,0.0
63,57,113,0.0
58,55,106,0.0
60,57,108,0.0
59,58,105,0.0
61,62,109,0.0
56,59,102,0.0
54,58,97,0.0
57,64,104,0.0
61,68,109,0.0
60,71,109,0.0
62,74,111,0.0
60,73,107,0.0
57,71,102,0.0
58,75,105,0.0
61,80,109,0.0
62,82,111,0.0
61,83,108,0.0
60,84,108,0.0
61,88,109,0.0
63,92,112,0.0
63,94,111,0.0
65,100,116,0.0
65,102,115,0.0
65,104,115,0.0
65,106,115,0.0
63,106,111,0.0
70,119,124,0.0
68,117,119,0.0
69,121,120,0.0
70,127,123,0.0
70,129,122,0.0
72,137,126,0.0
72,138,125,0.0
70,139,123,0.0
70,141,123,0.0
70,143,122,0.0
73,153,127,0.0
73,156,126,0.0
73,160,127,0.0
107,-307,65,0.0
107,-301,68,0.0
102,-284,66,0.0
103,-282,70,0.0
105,-282,72,0.0
104,-275,74,0.0
103,-273,77,0.0
103,-267,78,0.0
99,-254,78,0.0
101,-255,80,0.0
105,-261,86,0.0
105,-259,88,0.0
106,-257,91,0.0
103,-247,90,0.0
107,-251,96,0.0
106,-247,97,0.0
107,-245,99,0.0
110,-249,104,0.0
112,-250,108,0.0
114,-251,112,0.0
114,-248,113,0.0
111,-237,112,0.0
116,-245,119,0.0
116,-242,120,0.0
115,-236,121,0.0
124,-252,133,0.0
127,-253,138,0.0
139,-273,152,0.0
137,-266,152,0.0
143,-274,161,0.0
142,-268,163,0.0
141,-261,162,0.0
136,-250,159,0.0
128,-232,151,0.0
123,-219,147,0.0
120,-211,144,0.0
118,-205,144,0.0
109,-186,135,0.0
109,-183,135,0.0
14577,-24006,18176,0.0
14480,-23488,18221,0.0
14442,-23070,18334,0.0
14381,-22621,18415,0.0
13886,-21505,17932,0.0
5001,-7623,6511,0.0
14239,-21368,18691,0.0
14161,-20911,18734,0.0
5312,-7720,7083,0.0
14061,-20100,18886,0.0
14024,-19720,18976,0.0
13975,-19323,19045,0.0
13908,-18910,19088,0.0
13865,-18533,19161,0.0
13830,-18168,19240,0.0
13782,-17791,19300,0.0
13745,-17430,19372,0.0
6554,-8164,9296,0.0
13651,-16695,19480,0.0
6853,-8227,9838,0.0
6997,-8244,10104,0.0
13561,-15678,19696,0.0
13126,-14884,19173,0.0
12620,-14032,18535,0.0
13047,-14220,19266,0.0
13418,-14331,19920,0.0
13396,-14015,19992,0.0
13354,-13680,20031,0.0
13329,-13366,20092,0.0
13309,-13058,20162,0.0
13280,-12744,20216,0.0
13251,-12432,20266,0.0
13187,-12089,20261,0.0
13165,-11787,20320,0.0
13101,-11450,20311,0.0
13094,-11165,20388,0.0
13089,-10883,20468,0.0
13053,-10575,20496,0.0
13020,-10273,20531,0.0
12990,-9974,20565,0.0
12986,-9697,20639,0.0
13012,-9442,20762,0.0
13001,-9161,20823,0.0
12961,-8860,20837,0.0
12934,-8570,20871,0.0
12161,-7802,19694,0.0
12924,-8021,21002,0.0
12841,-7699,20938,0.0
12776,-7393,20904,0.0
12876,-7181,21138,0.0
12910,-6930,21264,0.0
12933,-6671,21370,0.0
268,-132,445,0.0
12914,-6120,21471,0.0
12940,-5861,21579,0.0
12868,-5559,21522,0.0
12914,-5309,21663,0.0
12903,-5034,21707,0.0
12958,-4784,21860,0.0
12974,-4516,21947,0.0
12990,-4248,22032,0.0
13032,-3988,22162,0.0
13053,-3719,22254,0.0
13077,-3450,22353,0.0
13046,-3165,22354,0.0
1137,-252,1953,0.0
13064,-2615,22494,0.0
13100,-2345,22608,0.0
12361,-1949,21381,0.0
12740,-1736,22085,0.0
12752,-1465,22155,0.0
12338,-1153,21482,0.0
13156,-946,22954,0.0
13159,-663,23006,0.0
13193,-379,23110,0.0
11645,-82,20440,0.0
11642,170,20472,0.0
11645,425,20516,0.0
11695,682,20641,0.0
13171,1058,23287,0.0
11701,1197,20724,0.0
11706,1457,20768,0.0
11731,1721,20845,0.0
12852,2172,22875,0.0
13029,2494,23224,0.0
13416,2870,23952,0.0
13469,3185,24080,0.0
13480,3493,24133,0.0
13501,3806,24203,0.0
13540,4127,24306,0.0
13548,4441,24352,0.0
15,5,26,0.0
17,6,32,0.0
25,10,47,0.0
21,8,39,0.0
32,14,59,0.0
36,16,66,0.0
30,15,56,0.0
26,13,47,0.0
27,14,50,0.0
37,20,67,0.0
36,21,66,0.0
39,23,72,0.0
46,29,83,0.0
63,41,115,0.0
48,33,89,0.0
51,36,93,0.0
54,40,100,0.0
52,40,96,0.0
57,45,104,0.0
53,42,97,0.0
69,59,128,0.0
67,59,124,0.0
67,60,123,0.0
60,56,111,0.0
58,55,108,0.0
59,58,107,0.0
57,58,107,0.0
59,62,110,0.0
59,62,108,0.0
55,60,101,0.0
53,60,99,0.0
54,63,100,0.0
59,70,109,0.0
56,69,104,0.0
56,70,103,0.0
57,73,106,0.0
57,75,106,0.0
58,78,107,0.0
60,83,110,0.0
60,83,108,0.0
60,86,111,0.0
62,91,114,0.0
61,92,111,0.0
59,91,109,0.0
61,96,112,0.0
65,104,118,0.0
63,104,115,0.0
63,105,115,0.0
64,110,116,0.0
64,112,117,0.0
67,120,123,0.0
67,122,121,0.0
63,118,115,0.0
68,130,124,0.0
67,130,121,0.0
70,137,126,0.0
70,142,126,0.0
67,138,120,0.0
67,141,120,0.0
72,152,128,0.0
72,156,128,0.0
68,151,121,0.0
99,-289,63,0.0
98,-282,65,0.0
98,-281,67,0.0
97,-274,69,0.0
97,-268,70,0.0
97,-266,73,0.0
98,-264,75,0.0
96,-255,76,0.0
95,-248,76,0.0
100,-256,83,0.0
96,-245,82,0.0
101,-256,89,0.0
97,-240,86,0.0
100,-244,91,0.0
99,-241,92,0.0
103,-245,97,0.0
105,-246,100,0.0
106,-246,103,0.0
108,-248,108,0.0
110,-247,110,0.0
105,-235,109,0.0
109,-239,114,0.0
112,-242,119,0.0
112,-238,120,0.0
114,-238,123,0.0
116,-242,129,0.0
125,-255,140,0.0
129,-261,146,0.0
135,-267,155,0.0
135,-265,157,0.0
134,-257,157,0.0
128,-244,153,0.0
123,-231,149,0.0
118,-219,144,0.0
114,-208,140,0.0
111,-200,138,0.0
109,-193,136,0.0
97,-170,124,0.0
93,-160,119,0.0
14195,-23918,18229,0.0
14111,-23418,18284,0.0
14066,-22988,18385,0.0
14008,-22540,18464,0.0
13932,-22071,18517,0.0
13787,-21502,18475,0.0
4994,-7665,6745,0.0
13764,-20790,18734,0.0
13727,-20402,18826,0.0
5292,-7738,7312,0.0
13642,-19618,18985,0.0
13601,-19235,19062,0.0
13549,-18839,19119,0.0
13511,-18468,19195,0.0
13458,-18080,19246,0.0
13425,-17723,19325,0.0
13382,-17355,19385,0.0
13340,-16992,19443,0.0
13304,-16638,19507,0.0
6780,-8324,10002,0.0
6845,-8247,10155,0.0
12531,-14814,18698,0.0
12785,-14826,19185,0.0
12330,-14019,18601,0.0
12758,-14221,19352,0.0
13074,-14280,19936,0.0
13051,-13963,20001,0.0
13044,-13665,20091,0.0
12992,-13323,20111,0.0
12962,-13007,20162,0.0
12951,-12710,20239,0.0
12866,-12344,20200,0.0
12871,-12068,20302,0.0
12760,-11685,20216,0.0
12751,-11398,20291,0.0
12753,-11122,20382,0.0
12746,-10839,20455,0.0
12031,-9972,19390,0.0
12007,-9691,19429,0.0
12012,-9436,19514,0.0
12698,-9702,20710,0.0
12668,-9406,20740,0.0
12678,-9140,20835,0.0
11964,-8369,19734,0.0
12672,-8592,20978,0.0
11962,-7855,19874,0.0
12620,-8016,21040,0.0
11960,-7341,20006,0.0
11941,-7074,20042,0.0
11943,-6820,20112,0.0
11922,-6553,20142,0.0
11923,-6299,20209,0.0
11918,-6042,20263,0.0
11937,-5796,20357,0.0
11915,-5530,20381,0.0
509,-224,874,0.0
11887,-5009,20451,0.0
11910,-4764,20551,0.0
11910,-4509,20607,0.0
11922,-4259,20684,0.0
11889,-3991,20681,0.0
11879,-3733,20719,0.0
11897,-3482,20803,0.0
11908,-3229,20874,0.0
11901,-2970,20915,0.0
11908,-2715,20978,0.0
11904,-2456,21020,0.0
11924,-2201,21104,0.0
11910,-1940,21129,0.0
11906,-1680,21169,0.0
11916,-1421,21232,0.0
11913,-1160,21272,0.0
11927,-900,21341,0.0
11960,-640,21444,0.0
11944,-375,21459,0.0
11402,-106,20526,0.0
11342,146,20457,0.0
11390,400,20581,0.0
11399,656,20635,0.0
11380,909,20636,0.0
11413,1168,20733,0.0
11430,1428,20799,0.0
11455,1691,20878,0.0
11461,1953,20925,0.0
11485,2219,20998,0.0
809,175,1483,0.0
11506,2752,21101,0.0
11519,3022,21154,0.0
11552,3299,21246,0.0
11570,3575,21310,0.0
11591,3854,21374,0.0
6,2,13,0.0
23,8,43,0.0
16,6,31,0.0
21,9,40,0.0
27,12,53,0.0
23,10,43,0.0
29,14,55,0.0
32,17,61,0.0
28,15,52,0.0
36,21,69,0.0
32,19,60,0.0
38,24,74,0.0
38,24,73,0.0
36,24,69,0.0
45,32,86,0.0
43,31,80,0.0
47,35,89,0.0
52,41,99,0.0
43,35,83,0.0
49,41,94,0.0
52,44,98,0.0
50,44,94,0.0
52,47,99,0.0
46,43,86,0.0
51,50,97,0.0
52,51,98,0.0
57,59,109,0.0
51,53,96,0.0
52,57,99,0.0
52,58,99,0.0
49,56,93,0.0
52,62,98,0.0
55,67,104,0.0
55,69,104,0.0
55,70,106,0.0
55,71,105,0.0
54,72,102,0.0
53,72,101,0.0
54,76,103,0.0
56,80,106,0.0
54,79,101,0.0
59,88,110,0.0
55,84,104,0.0
57,89,107,0.0
57,91,108,0.0
61,100,115,0.0
56,93,104,0.0
59,102,112,0.0
61,105,113,0.0
60,107,112,0.0
62,113,116,0.0
61,114,115,0.0
63,118,116,0.0
63,123,118,0.0
64,126,119,0.0
65,131,120,0.0
63,130,117,0.0
66,138,121,0.0
66,141,122,0.0
67,148,125,0.0
65,144,118,0.0
65,147,119,0.0
98,-295,65,0.0
99,-294,69,0.0
96,-282,68,0.0
96,-275,70,0.0
96,-274,73,0.0
93,-261,73,0.0
96,-267,77,0.0
98,-267,81,0.0
95,-254,79,0.0
94,-249,82,0.0
98,-257,87,0.0
98,-253,88,0.0
99,-252,92,0.0
99,-249,93,0.0
100,-247,96,0.0
101,-247,99,0.0
99,-238,98,0.0
101,-242,103,0.0
107,-251,110,0.0
107,-249,113,0.0
106,-240,112,0.0
111,-249,119,0.0
112,-250,123,0.0
111,-243,124,0.0
113,-243,127,0.0
117,-250,134,0.0
125,-262,144,0.0
127,-263,149,0.0
132,-269,156,0.0
128,-258,154,0.0
126,-250,153,0.0
125,-242,153,0.0
125,-241,155,0.0
116,-220,145,0.0
110,-204,139,0.0
108,-199,139,0.0
103,-187,133,0.0
92,-166,121,0.0
13817,-24193,18113,0.0
13774,-23756,18221,0.0
13724,-23312,18315,0.0
13659,-22847,18386,0.0
13606,-22409,18468,0.0
13569,-22000,18568,0.0
13521,-21580,18651,0.0
13465,-21150,18718,0.0
4996,-7723,7000,0.0
13368,-20330,18865,0.0
13336,-19953,18958,0.0
5310,-7813,7602,0.0
11626,-16823,16760,0.0
11606,-16512,16845,0.0
11556,-16161,16885,0.0
11512,-15823,16930,0.0
11498,-15529,17017,0.0
11542,-15314,17189,0.0
12041,-15691,18041,0.0
6973,-8922,10511,0.0
6975,-8761,10575,0.0
6795,-8377,10362,0.0
6850,-8286,10505,0.0
6987,-8289,10773,0.0
6945,-8080,10767,0.0
6954,-7930,10837,0.0
6920,-7733,10841,0.0
11903,-13029,18739,0.0
11828,-12679,18716,0.0
11840,-12423,18825,0.0
11813,-12128,18872,0.0
11833,-11881,18992,0.0
11804,-11587,19033,0.0
11757,-11278,19042,0.0
11772,-11030,19150,0.0
11817,-10810,19309,0.0
11740,-10477,19264,0.0
11735,-10212,19335,0.0
11707,-9929,19369,0.0
11718,-9680,19465,0.0
11695,-9402,19503,0.0
172,-134,289,0.0
11685,-8880,19637,0.0
11649,-8597,19650,0.0
11666,-8354,19749,0.0
11653,-8089,19800,0.0
11684,-7855,19921,0.0
11620,-7559,19881,0.0
11614,-7301,19940,0.0
11631,-7057,20034,0.0
11621,-6797,20083,0.0
11624,-6545,20152,0.0
11610,-6285,20192,0.0
11589,-6020,20219,0.0
11620,-5782,20332,0.0
11611,-5525,20378,0.0
11612,-5272,20439,0.0
11612,-5018,20499,0.0
11623,-4769,20575,0.0
11605,-4509,20600,0.0
11622,-4261,20688,0.0
11595,-3997,20695,0.0
11595,-3743,20748,0.0
11596,-3488,20802,0.0
11609,-3237,20877,0.0
11604,-2980,20920,0.0
11608,-2725,20979,0.0
11611,-2469,21035,0.0
11592,-2208,21048,0.0
11612,-1955,21134,0.0
11640,-1700,21231,0.0
11608,-1437,21220,0.0
11630,-1179,21304,0.0
11653,-921,21392,0.0
11636,-659,21404,0.0
11649,-397,21471,0.0
11151,-128,20595,0.0
10984,122,20324,0.0
11069,374,20520,0.0
11126,629,20664,0.0
11115,884,20681,0.0
11072,1134,20636,0.0
11148,1399,20814,0.0
11158,1658,20867,0.0
11178,1921,20938,0.0
11203,2186,21019,0.0
11230,2455,21101,0.0
11220,2717,21114,0.0
11223,2983,21152,0.0
11258,3260,21248,0.0
11243,3524,21249,0.0
12,4,26,0.0
28,10,55,0.0
10,3,20,0.0
14,5,26,0.0
18,7,35,0.0
22,10,42,0.0
27,13,53,0.0
26,13,50,0.0
32,16,62,0.0
31,17,59,0.0
33,19,65,0.0
33,20,65,0.0
40,25,78,0.0
42,28,81,0.0
50,33,96,0.0
44,32,86,0.0
44,32,87,0.0
48,37,94,0.0
52,41,102,0.0
49,40,95,0.0
48,40,93,0.0
54,48,106,0.0
51,46,99,0.0
57,53,110,0.0
49,47,96,0.0
49,50,97,0.0
51,51,99,0.0
52,54,101,0.0
50,54,97,0.0
51,56,100,0.0
52,59,101,0.0
48,56,93,0.0
47,57,92,0.0
51,63,100,0.0
51,65,101,0.0
49,64,97,0.0
53,70,103,0.0
52,72,103,0.0
52,73,102,0.0
53,76,103,0.0
55,80,107,0.0
54,81,105,0.0
53,81,103,0.0
55,86,107,0.0
53,85,103,0.0
54,90,106,0.0
56,93,109,0.0
57,98,110,0.0
59,101,113,0.0
57,103,111,0.0
60,109,115,0.0
60,113,117,0.0
60,113,115,0.0
61,118,117,0.0
58,116,112,0.0
62,126,119,0.0
63,130,121,0.0
61,130,118,0.0
62,134,119,0.0
64,142,123,0.0
67,149,126,0.0
61,141,116,0.0
64,148,121,0.0
94,-292,66,0.0
95,-290,69,0.0
94,-281,69,0.0
88,-261,68,0.0
90,-261,71,0.0
92,-265,74,0.0
91,-259,76,0.0
90,-252,77,0.0
90,-248,79,0.0
92,-254,83,0.0
90,-242,83,0.0
94,-249,88,0.0
94,-245,89,0.0
94,-241,92,0.0
98,-247,97,0.0
101,-253,102,0.0
97,-241,100,0.0
101,-245,106,0.0
104,-249,111,0.0
102,-241,110,0.0
105,-246,116,0.0
103,-237,115,0.0
107,-245,122,0.0
107,-241,123,0.0
110,-243,127,0.0
114,-250,135,0.0
127,-273,151,0.0
122,-257,147,0.0
130,-270,159,0.0
123,-252,151,0.0
122,-249,153,0.0
113,-227,145,0.0
113,-224,145,0.0
108,-211,140,0.0
101,-193,131,0.0
95,-179,124,0.0
90,-169,122,0.0
974,-1774,1305,0.0
13437,-24096,18156,0.0
13395,-23659,18260,0.0
13353,-23228,18362,0.0
13291,-22766,18431,0.0
11551,-19480,16149,0.0
11556,-19185,16286,0.0
11521,-18826,16365,0.0
11487,-18473,16441,0.0
11453,-18125,16516,0.0
4987,-7767,7246,0.0
11394,-17450,16669,0.0
11360,-17113,16737,0.0
5316,-7876,7887,0.0
11293,-16447,16865,0.0
11266,-16130,16935,0.0
11235,-15807,16997,0.0
11196,-15478,17045,0.0
11300,-15347,17308,0.0
6865,-9156,10578,0.0
6791,-8895,10527,0.0
6674,-8580,10404,0.0
6885,-8688,10795,0.0
6772,-8383,10676,0.0
6788,-8244,10760,0.0
6749,-8036,10755,0.0
6740,-7867,10795,0.0
6767,-7740,10896,0.0
6785,-7602,10978,0.0
11561,-12684,18797,0.0
11558,-12412,18881,0.0
11510,-12095,18893,0.0
11506,-11827,18974,0.0
11473,-11529,19006,0.0
11481,-11274,19102,0.0
11491,-11021,19203,0.0
11470,-10740,19250,0.0
11492,-10499,19367,0.0
11489,-10236,19441,0.0
11492,-9978,19526,0.0
11481,-9710,19585,0.0
11532,-9493,19748,0.0
11529,-9231,19818,0.0
11538,-8980,19911,0.0
11538,-8720,19983,0.0
11512,-8443,20011,0.0
11538,-8204,20128,0.0
11538,-7945,20196,0.0
11529,-7682,20251,0.0
11518,-7418,20299,0.0
11528,-7167,20384,0.0
11531,-6912,20456,0.0
11529,-6654,20517,0.0
11546,-6405,20612,0.0
11551,-6151,20685,0.0
11547,-5892,20739,0.0
11545,-5633,20797,0.0
11554,-5380,20874,0.0
11558,-5124,20942,0.0
11567,-4870,21016,0.0
11560,-4610,21061,0.0
11564,-4353,21126,0.0
11557,-4092,21168,0.0
11549,-3831,21209,0.0
11583,-3582,21325,0.0
11552,-3313,21322,0.0
11583,-3062,21433,0.0
11563,-2796,21448,0.0
11567,-2536,21505,0.0
11557,-2272,21536,0.0
11526,-2005,21528,0.0
11550,-1747,21620,0.0
11560,-1486,21688,0.0
11535,-1219,21687,0.0
139,-12,263,0.0
11556,-692,21816,0.0
11375,-420,21518,0.0
10893,-151,20648,0.0
10756,99,20428,0.0
10826,351,20598,0.0
10826,603,20638,0.0
10837,857,20696,0.0
10863,1114,20783,0.0
10877,1371,20844,0.0
10882,1629,20889,0.0
10852,1882,20867,0.0
10898,2149,20987,0.0
10924,2416,21072,0.0
10946,2684,21147,0.0
10955,2951,21196,0.0
10972,3222,21258,0.0
10946,3481,21240,0.0
29,9,57,0.0
12,4,25,0.0
17,6,34,0.0
14,5,29,0.0
16,7,34,0.0
16,8,33,0.0
20,9,39,0.0
24,12,46,0.0
28,14,54,0.0
28,16,57,0.0
34,20,69,0.0
30,18,59,0.0
36,23,72,0.0
40,27,80,0.0
38,27,76,0.0
41,29,82,0.0
39,29,78,0.0
41,32,83,0.0
47,37,92,0.0
43,37,87,0.0
47,41,95,0.0
45,41,91,0.0
46,42,93,0.0
50,48,101,0.0
43,43,87,0.0
47,47,95,0.0
48,50,96,0.0
50,54,101,0.0
50,55,101,0.0
48,55,97,0.0
47,54,94,0.0
45,53,89,0.0
44,54,90,0.0
47,59,93,0.0
51,67,104,0.0
50,67,101,0.0
48,65,96,0.0
48,66,95,0.0
49,70,99,0.0
53,77,106,0.0
51,78,104,0.0
53,81,106,0.0
51,81,104,0.0
52,85,106,0.0
52,85,104,0.0
52,87,104,0.0
55,95,110,0.0
53,94,107,0.0
57,102,114,0.0
54,99,108,0.0
56,104,111,0.0
57,109,114,0.0
55,107,110,0.0
56,112,112,0.0
57,117,114,0.0
60,123,117,0.0
60,127,118,0.0
59,127,115,0.0
59,131,117,0.0
60,134,117,0.0
61,141,121,0.0
61,142,118,0.0
61,144,119,0.0
95,-303,69,0.0
94,-295,70,0.0
92,-284,71,0.0
91,-277,73,0.0
85,-257,71,0.0
92,-271,77,0.0
91,-266,80,0.0
92,-266,83,0.0
91,-259,83,0.0
92,-257,86,0.0
93,-257,89,0.0
94,-258,92,0.0
94,-251,93,0.0
95,-252,96,0.0
93,-244,97,0.0
99,-254,103,0.0
101,-258,108,0.0
102,-253,110,0.0
103,-254,114,0.0
103,-249,115,0.0
105,-253,120,0.0
108,-254,124,0.0
108,-254,127,0.0
110,-253,130,0.0
111,-250,133,0.0
121,-270,147,0.0
123,-271,151,0.0
129,-279,161,0.0
122,-260,153,0.0
121,-255,155,0.0
115,-241,150,0.0
118,-242,155,0.0
113,-227,149,0.0
99,-198,133,0.0
104,-204,141,0.0
99,-191,135,0.0
83,-158,114,0.0
11434,-21333,15788,0.0
11373,-20901,15845,0.0
11389,-20613,16005,0.0
11339,-20210,16072,0.0
11301,-19831,16149,0.0
1844,-3186,2657,0.0
11239,-19116,16320,0.0
11197,-18744,16384,0.0
11164,-18394,16460,0.0
11140,-18059,16545,0.0
11099,-17701,16603,0.0
11059,-17350,16660,0.0
11045,-17041,16753,0.0
11004,-16695,16804,0.0
10982,-16381,16881,0.0
10955,-16063,16948,0.0
10880,-15678,16938,0.0
10909,-15445,17087,0.0
11040,-15355,17398,0.0
6646,-9078,10536,0.0
6647,-8915,10599,0.0
6559,-8636,10518,0.0
6574,-8495,10601,0.0
6633,-8410,10755,0.0
6565,-8164,10701,0.0
6590,-8034,10796,0.0
6563,-7844,10809,0.0
6586,-7713,10901,0.0
6602,-7574,10981,0.0
6740,-7572,11264,0.0
8895,-9783,14937,0.0
0,0,0,0.0
1091,-1149,1851,0.0
8908,-9167,15165,0.0
8827,-8876,15092,0.0
0,0,0,0.0
8864,-8499,15285,0.0
8786,-8221,15214,0.0
1227,-1119,2134,0.0
8761,-7792,15294,0.0
8907,-7716,15609,0.0
9420,-7943,16571,0.0
11612,-9525,20505,0.0
11632,-9275,20619,0.0
11600,-8983,20637,0.0
11599,-8716,20709,0.0
11652,-8490,20877,0.0
11633,-8209,20915,0.0
11620,-7935,20963,0.0
11634,-7680,21058,0.0
11605,-7395,21072,0.0
11631,-7148,21190,0.0
11593,-6859,21186,0.0
11655,-6630,21365,0.0
11606,-6338,21341,0.0
11666,-6105,21515,0.0
11642,-5828,21533,0.0
11652,-5567,21615,0.0
11664,-5307,21700,0.0
11609,-5018,21658,0.0
11681,-4783,21850,0.0
11616,-4491,21787,0.0
11618,-4226,21849,0.0
11664,-3976,21993,0.0
11663,-3708,22045,0.0
11652,-3438,22081,0.0
11665,-3174,22160,0.0
11654,-2903,22192,0.0
11604,-2623,22149,0.0
11636,-2361,22261,0.0
11640,-2093,22321,0.0
11629,-1821,22350,0.0
11660,-1555,22459,0.0
11624,-1280,22437,0.0
775,-68,1499,0.0
1001,-64,1940,0.0
11079,-441,21519,0.0
10659,-173,20743,0.0
10518,77,20511,0.0
10500,326,20512,0.0
10556,578,20661,0.0
10555,831,20698,0.0
10576,1086,20775,0.0
10569,1339,20796,0.0
10604,1600,20901,0.0
10590,1855,20911,0.0
10603,2115,20970,0.0
10602,2374,21002,0.0
10641,2645,21113,0.0
10650,2909,21161,0.0
10660,3177,21212,0.0
10674,3447,21272,0.0
10700,3724,21355,0.0
17,6,35,0.0
19,7,39,0.0
20,8,41,0.0
23,10,49,0.0
29,13,58,0.0
27,13,54,0.0
35,18,73,0.0
33,18,69,0.0
41,23,82,0.0
37,23,78,0.0
39,24,81,0.0
38,25,78,0.0
45,32,95,0.0
35,25,73,0.0
41,31,85,0.0
40,30,82,0.0
46,37,96,0.0
46,39,96,0.0
44,38,92,0.0
46,42,97,0.0
48,44,99,0.0
54,51,111,0.0
50,49,105,0.0
52,52,108,0.0
51,53,106,0.0
51,55,106,0.0
49,54,101,0.0
53,59,109,0.0
52,60,107,0.0
49,58,101,0.0
48,59,100,0.0
46,58,95,0.0
46,60,96,0.0
50,65,102,0.0
48,65,100,0.0
52,73,108,0.0
49,70,102,0.0
53,77,110,0.0
51,76,106,0.0
52,79,108,0.0
49,77,102,0.0
52,82,106,0.0
50,84,105,0.0
50,85,104,0.0
53,93,111,0.0
53,93,109,0.0
53,96,110,0.0
53,97,109,0.0
56,105,115,0.0
55,105,114,0.0
56,109,115,0.0
57,114,117,0.0
55,113,114,0.0
56,117,116,0.0
59,125,120,0.0
58,126,119,0.0
57,126,116,0.0
62,140,126,0.0
61,141,124,0.0
60,141,121,0.0
60,146,122,0.0
60,147,121,0.0
86,-281,65,0.0
87,-280,68,0.0
84,-266,68,0.0
81,-254,68,0.0
84,-260,72,0.0
84,-258,75,0.0
85,-254,77,0.0
85,-254,80,0.0
84,-244,79,0.0
86,-250,85,0.0
88,-248,87,0.0
89,-250,90,0.0
89,-246,92,0.0
92,-248,96,0.0
93,-250,100,0.0
97,-256,106,0.0
99,-257,109,0.0
98,-251,111,0.0
96,-242,109,0.0
98,-246,115,0.0
99,-243,117,0.0
101,-245,121,0.0
104,-250,126,0.0
102,-239,125,0.0
104,-242,130,0.0
115,-264,146,0.0
117,-263,149,0.0
117,-260,151,0.0
118,-259,154,0.0
106,-229,141,0.0
113,-242,152,0.0
103,-218,140,0.0
98,-203,134,0.0
94,-192,130,0.0
90,-181,125,0.0
82,-162,115,0.0
11152,-21658,15743,0.0
11102,-21240,15815,0.0
11060,-20839,15893,0.0
11041,-20489,16004,0.0
11003,-20104,16080,0.0
10971,-19736,16163,0.0
10935,-19367,16240,0.0
10909,-19019,16327,0.0
10869,-18650,16389,0.0
10845,-18313,16476,0.0
10815,-17969,16550,0.0
10790,-17636,16628,0.0
10754,-17290,16687,0.0
10720,-16952,16748,0.0
10718,-16664,16855,0.0
10690,-16341,16920,0.0
10648,-15998,16960,0.0
10572,-15610,16944,0.0
10607,-15389,17104,0.0
6498,-9261,10541,0.0
6461,-9044,10543,0.0
6444,-8857,10575,0.0
6388,-8618,10540,0.0
6387,-8457,10598,0.0
6401,-8314,10676,0.0
6377,-8124,10692,0.0
6378,-7968,10752,0.0
6388,-7821,10821,0.0
6396,-7674,10888,0.0
6427,-7555,10994,0.0
6608,-7607,11359,0.0
9254,-10427,15980,0.0
9557,-10537,16579,0.0
9079,-9792,15821,0.0
9389,-9901,16434,0.0
9616,-9909,16904,0.0
9222,-9282,16281,0.0
9520,-9354,16875,0.0
9622,-9225,17125,0.0
8488,-7936,15168,0.0
8496,-7744,15244,0.0
0,0,0,0.0
1117,-965,2020,0.0
11639,-9784,21122,1.0
11637,-9509,21196,1.0
11632,-9232,21264,1.0
11639,-8965,21352,1.0
11641,-8694,21430,1.0
11650,-8428,21519,1.0
11630,-8143,21556,1.0
11642,-7879,21648,1.0
11639,-7606,21713,1.0
11681,-7361,21861,1.0
11661,-7076,21891,1.0
11665,-6807,21966,1.0
11659,-6533,22022,1.0
11695,-6281,22155,1.0
725,-372,1378,0.0
11650,-5714,22198,1.0
11689,-5461,22338,1.0
11661,-5176,22345,1.0
11659,-4905,22401,1.0
11655,-4630,22453,1.0
11642,-4353,22488,1.0
11660,-4087,22583,1.0
11636,-3807,22592,1.0
11646,-3537,22668,1.0
11643,-3262,22717,1.0
11642,-2988,22771,1.0
11661,-2718,22861,1.0
11659,-2442,22911,1.0
11651,-2166,22949,1.0
11635,-1887,22967,1.0
11655,-1613,23057,1.0
943,-108,1871,0.0
11421,-1036,22690,1.0
11265,-752,22427,0.0
10777,-460,21500,0.0
10466,-195,20922,0.0
10241,55,20511,0.0
9893,293,19852,0.0
10269,554,20647,0.0
10285,806,20715,0.0
10310,1060,20805,0.0
10279,1310,20778,0.0
10311,1569,20878,0.0
10325,1827,20942,0.0
10350,2089,21029,0.0
10327,2343,21016,0.0
10355,2610,21107,0.0
10384,2879,21198,0.0
10408,3150,21281,0.0
8,2,17,0.0
7,2,15,0.0
6,1,14,0.0
8,3,17,0.0
19,7,38,0.0
13,6,30,0.0
17,8,35,0.0
19,9,41,0.0
24,13,51,0.0
25,14,52,0.0
29,17,62,0.0
36,22,76,0.0
36,23,76,0.0
34,23,74,0.0
31,23,67,0.0
35,25,74,0.0
39,29,83,0.0
38,30,80,0.0
40,33,86,0.0
44,37,94,0.0
41,36,88,0.0
42,38,90,0.0
43,40,90,0.0
41,40,89,0.0
45,45,97,0.0
45,46,96,0.0
43,46,92,0.0
44,47,93,0.0
48,54,103,0.0
48,55,102,0.0
44,53,95,0.0
48,58,102,0.0
44,55,93,0.0
42,55,91,0.0
43,58,93,0.0
44,60,95,0.0
44,61,94,0.0
45,64,97,0.0
45,65,95,0.0
45,67,96,0.0
45,69,97,0.0
46,73,99,0.0
46,74,99,0.0
46,75,98,0.0
48,80,102,0.0
47,82,101,0.0
47,82,99,0.0
49,90,106,0.0
51,93,108,0.0
50,94,107,0.0
49,95,104,0.0
50,99,107,0.0
53,106,113,0.0
53,108,112,0.0
51,107,109,0.0
52,112,111,0.0
53,116,112,0.0
53,120,113,0.0
53,123,114,0.0
54,127,114,0.0
53,126,112,0.0
54,133,115,0.0
57,141,120,0.0
55,140,117,0.0
85,-288,68,0.0
87,-290,71,0.0
85,-279,72,0.0
84,-272,73,0.0
84,-267,75,0.0
86,-269,78,0.0
85,-262,80,0.0
86,-262,83,0.0
87,-262,86,0.0
88,-261,89,0.0
89,-258,91,0.0
91,-261,96,0.0
90,-258,98,0.0
92,-259,101,0.0
97,-267,108,0.0
97,-262,110,0.0
98,-263,113,0.0
98,-257,114,0.0
97,-252,115,0.0
99,-256,120,0.0
100,-252,122,0.0
102,-256,128,0.0
102,-251,128,0.0
103,-251,133,0.0
113,-268,145,0.0
112,-263,147,0.0
118,-275,157,0.0
118,-269,157,0.0
115,-261,157,0.0
109,-241,148,0.0
109,-239,151,0.0
98,-212,137,0.0
101,-216,143,0.0
97,-204,139,0.0
89,-186,130,0.0
89,-179,128,0.0
10820,-21562,15769,0.0
10787,-21173,15859,0.0
10763,-20806,15961,0.0
10720,-20408,16031,0.0
10706,-20069,16141,0.0
10655,-19664,16194,0.0
10627,-19306,16276,0.0
10594,-18945,16351,0.0
10571,-18604,16436,0.0
10535,-18245,16501,0.0
10508,-17904,16574,0.0
10486,-17578,16656,0.0
10452,-17231,16713,0.0
10436,-16922,16800,0.0
10399,-16579,16849,0.0
10375,-16261,16917,0.0
10359,-15959,16998,0.0
10334,-15644,17059,0.0
10304,-15328,17112,0.0
6346,-9273,10601,0.0
6282,-9014,10554,0.0
6273,-8837,10597,0.0
6264,-8664,10642,0.0
6242,-8473,10662,0.0
6236,-8303,10706,0.0
6228,-8134,10748,0.0
6236,-7986,10817,0.0
6217,-7804,10837,0.0
6245,-7682,10939,0.0
6288,-7577,11067,0.0
6377,-7525,11276,0.0
6840,-7901,12152,0.0
6978,-7886,12452,0.0
7098,-7848,12723,0.0
7215,-7799,12989,0.0
7400,-7816,13378,0.0
7535,-7775,13680,0.0
7714,-7771,14061,0.0
7860,-7726,14386,0.0
8026,-7694,14749,0.0
789,-737,1455,0.0
8372,-7620,15504,0.0
8989,-7964,16708,0.0
9405,-8107,17548,0.0
11581,-9704,21685,1.0
11628,-9465,21852,1.0
11665,-9215,21998,1.0
11650,-8925,22045,1.0
0,0,0,0.0
11650,-8366,22193,1.0
11656,-8093,22278,1.0
0,0,0,0.0
0,0,0,0.0
0,0,0,0.0
0,0,0,0.0
0,0,0,0.0
0,0,0,0.0
988,-520,1929,0.0
0,0,0,0.0
0,0,0,0.0
0,0,0,0.0
1089,-471,2152,0.0
1004,-410,1987,0.0
991,-381,1967,0.0
11774,-4246,23431,1.0
11822,-3980,23584,1.0
11689,-3655,23377,1.0
11652,-3364,23362,1.0
11670,-3088,23454,1.0
11677,-2808,23523,1.0
11671,-2525,23566,1.0
11627,-2235,23531,1.0
11581,-1945,23490,1.0
11450,-1645,23277,1.0
11315,-1350,23051,1.0
11179,-1060,22824,1.0
10980,-773,22464,1.0
10481,-480,21486,0.0
10228,-217,21010,0.0
9856,34,20287,0.0
9661,273,19925,0.0
9985,530,20631,0.0
9992,780,20685,0.0
10004,1032,20745,0.0
10022,1285,20820,0.0
10022,1539,20859,0.0
10049,1798,20949,0.0
10042,2053,20971,0.0
10049,2311,21018,0.0
10074,2576,21107,0.0
10091,2841,21177,0.0
10105,3108,21238,0.0
10104,3371,21267,0.0
13,4,29,0.0
20,8,45,0.0
31,12,67,0.0
20,8,44,0.0
29,13,63,0.0
24,12,54,0.0
31,15,67,0.0
27,15,59,0.0
27,15,59,0.0
34,20,74,0.0
37,23,79,0.0
37,24,82,0.0
36,24,78,0.0
37,26,80,0.0
39,29,84,0.0
44,34,96,0.0
43,33,92,0.0
50,42,109,0.0
48,42,105,0.0
47,42,103,0.0
44,41,96,0.0
47,45,104,0.0
49,48,106,0.0
51,52,113,0.0
53,56,115,0.0
48,52,106,0.0
51,57,112,0.0
46,53,100,0.0
47,56,104,0.0
52,63,115,0.0
50,63,111,0.0
46,59,102,0.0
45,60,100,0.0
49,67,109,0.0
45,63,101,0.0
45,64,100,0.0
47,69,104,0.0
45,67,100,0.0
46,70,101,0.0
46,73,102,0.0
47,76,103,0.0
47,77,102,0.0
45,77,100,0.0
49,83,106,0.0
50,89,110,0.0
47,85,103,0.0
49,90,108,0.0
52,97,113,0.0
52,101,115,0.0
51,100,113,0.0
52,105,115,0.0
51,107,113,0.0
52,109,114,0.0
51,110,113,0.0
52,115,115,0.0
53,118,115,0.0
55,125,120,0.0
54,127,119,0.0
54,129,118,0.0
56,137,123,0.0
56,140,122,0.0
55,140,120,0.0
56,145,121,0.0
79,-276,66,0.0
79,-273,69,0.0
76,-256,67,0.0
81,-269,73,0.0
79,-260,74,0.0
80,-258,76,0.0
82,-264,81,0.0
84,-264,84,0.0
81,-252,83,0.0
83,-253,87,0.0
87,-262,93,0.0
88,-264,97,0.0
87,-255,97,0.0
89,-255,101,0.0
91,-258,106,0.0
92,-259,108,0.0
93,-255,110,0.0
93,-252,112,0.0
94,-254,117,0.0
96,-252,119,0.0
93,-243,119,0.0
95,-244,122,0.0
100,-252,130,0.0
98,-244,129,0.0
100,-246,133,0.0
109,-265,148,0.0
114,-273,157,0.0
108,-253,149,0.0
104,-242,145,0.0
107,-243,151,0.0
97,-220,140,0.0
96,-213,139,0.0
88,-192,129,0.0
83,-181,124,0.0
10557,-22262,15607,0.0
10531,-21877,15712,0.0
10495,-21475,15797,0.0
10464,-21089,15888,0.0
10436,-20712,15979,0.0
10399,-20323,16053,0.0
10380,-19973,16153,0.0
10351,-19607,16234,0.0
10316,-19235,16303,0.0
10277,-18862,16364,0.0
10253,-18517,16444,0.0
10196,-18120,16471,0.0
10179,-17798,16558,0.0
10169,-17491,16655,0.0
10146,-17163,16727,0.0
10104,-16809,16768,0.0
10089,-16503,16850,0.0
10063,-16181,16911,0.0
9910,-15662,16757,0.0
10037,-15588,17073,0.0
10005,-15266,17119,0.0
6125,-9179,10539,0.0
6090,-8964,10538,0.0
6077,-8782,10575,0.0
6063,-8601,10608,0.0
6063,-8441,10665,0.0
6075,-8297,10741,0.0
6054,-8110,10759,0.0
6039,-7933,10786,0.0
6049,-7787,10854,0.0
6062,-7649,10932,0.0
6142,-7590,11127,0.0
6304,-7629,11474,0.0
6682,-7916,12217,0.0
6784,-7865,12460,0.0
6933,-7862,12790,0.0
7051,-7817,13063,0.0
7230,-7833,13449,0.0
7391,-7822,13807,0.0
0,0,0,0.0
0,0,0,0.0
7868,-7738,14875,0.0
8126,-7790,15421,0.0
8209,-7666,15638,0.0
904,-822,1730,0.0
9259,-8188,17768,0.0
0,0,0,0.0
11661,-9738,22537,1.0
0,0,0,0.0
0,0,0,0.0
11897,-9060,23228,1.0
12006,-8849,23520,1.0
653,-465,1285,0.0
12040,-8286,23737,1.0
12148,-8064,24026,1.0
12066,-7716,23937,1.0
12033,-7401,23944,1.0
1033,-610,2063,0.0
973,-550,1949,0.0
12096,-6556,24282,1.0
940,-485,1893,0.0
981,-484,1983,0.0
11919,-5588,24128,1.0
11811,-5249,23973,1.0
11853,-4978,24123,1.0
11773,-4657,24022,1.0
11777,-4370,24093,1.0
869,-302,1784,0.0
11741,-3781,24139,1.0
0,0,0,0.0
0,0,0,0.0
0,0,0,0.0
11526,-2577,23924,1.0
1031,-205,2146,0.0
11344,-1973,23654,1.0
11212,-1672,23431,1.0
11132,-1382,23315,1.0
10978,-1089,23040,1.0
979,-73,2061,0.0
10213,-500,21525,0.0
9956,-237,21026,0.0
9697,13,20519,0.0
9346,250,19815,0.0
9716,507,20638,0.0
9741,757,20733,0.0
9750,1008,20790,0.0
9745,1259,20815,0.0
9743,1511,20850,0.0
9756,1765,20913,0.0
9770,2023,20980,0.0
9798,2287,21076,0.0
9786,2541,21083,0.0
9796,2803,21140,0.0
9828,3073,21242,0.0
10,2,24,0.0
9,3,21,0.0
24,9,54,0.0
26,10,58,0.0
12,5,29,0.0
20,9,45,0.0
20,10,45,0.0
25,13,55,0.0
23,12,52,0.0
25,15,58,0.0
25,15,57,0.0
29,19,65,0.0
30,20,68,0.0
34,24,77,0.0
36,26,79,0.0
40,30,88,0.0
38,30,87,0.0
41,33,92,0.0
40,34,90,0.0
43,38,97,0.0
42,39,95,0.0
44,41,97,0.0
42,41,94,0.0
44,44,99,0.0
46,47,103,0.0
41,44,92,0.0
50,55,113,0.0
50,57,114,0.0
45,53,102,0.0
43,53,98,0.0
43,53,97,0.0
47,61,108,0.0
40,53,91,0.0
44,59,100,0.0
46,64,105,0.0
41,59,93,0.0
39,57,88,0.0
42,64,97,0.0
45,68,102,0.0
41,65,94,0.0
43,69,97,0.0
43,73,100,0.0
41,70,94,0.0
43,75,99,0.0
42,74,94,0.0
43,78,98,0.0
44,82,100,0.0
46,86,103,0.0
46,90,105,0.0
47,93,108,0.0
47,96,106,0.0
47,98,107,0.0
46,98,105,0.0
49,106,111,0.0
48,107,111,0.0
49,112,111,0.0
52,120,118,0.0
53,124,118,0.0
51,123,116,0.0
50,124,114,0.0
52,130,117,0.0
53,138,121,0.0
51,134,115,0.0
51,137,115,0.0
79,-284,68,0.0
80,-280,71,0.0
75,-263,70,0.0
77,-263,72,0.0
78,-264,76,0.0
80,-268,81,0.0
83,-275,86,0.0
83,-269,88,0.0
82,-263,88,0.0
84,-265,92,0.0
85,-262,95,0.0
87,-264,98,0.0
86,-260,100,0.0
85,-253,101,0.0
90,-263,108,0.0
93,-270,114,0.0
93,-265,115,0.0
92,-260,117,0.0
95,-263,123,0.0
93,-253,121,0.0
94,-251,124,0.0
96,-254,129,0.0
97,-253,132,0.0
100,-257,137,0.0
106,-269,147,0.0
111,-278,156,0.0
110,-270,156,0.0
112,-273,161,0.0
107,-255,155,0.0
106,-248,154,0.0
96,-223,143,0.0
98,-222,146,0.0
90,-202,136,0.0
88,-196,135,0.0
76,-167,117,0.0
10212,-21799,15747,0.0
10173,-21386,15823,0.0
10151,-21016,15922,0.0
10128,-20649,16019,0.0
10091,-20257,16090,0.0
10069,-19899,16179,0.0
10037,-19528,16253,0.0
10007,-19163,16326,0.0
9983,-18814,16406,0.0
9952,-18459,16474,0.0
9913,-18089,16523,0.0
9884,-17745,16589,0.0
9869,-17431,16676,0.0
9851,-17111,16754,0.0
9832,-16793,16829,0.0
9823,-16496,16919,0.0
9760,-16112,16914,0.0
9773,-15855,17038,0.0
9687,-15443,16987,0.0
9763,-15292,17220,0.0
5964,-9177,10580,0.0
5906,-8922,10533,0.0
5898,-8749,10578,0.0
5924,-8625,10680,0.0
5900,-8429,10691,0.0
5895,-8263,10737,0.0
5901,-8113,10802,0.0
5857,-7895,10774,0.0
5884,-7775,10876,0.0
5896,-7633,10950,0.0
6002,-7612,11199,0.0
6502,-8075,12186,0.0
10663,-12964,20075,1.0
10764,-12805,20354,1.0
10865,-12643,20633,1.0
10908,-12411,20804,1.0
10958,-12184,20986,1.0
10977,-11922,21108,1.0
10962,-11624,21162,1.0
10997,-11380,21314,1.0
11064,-11167,21528,1.0
8115,-7984,15849,0.0
8136,-7798,15951,0.0
0,0,0,0.0
9002,-8172,17777,0.0
11365,-10030,22522,1.0
1036,-889,2063,0.0
0,0,0,0.0
950,-767,1905,0.0
1018,-796,2046,0.0
1043,-789,2103,0.0
11741,-8593,23740,1.0
0,0,0,0.0
926,-631,1885,0.0
11874,-7800,24233,1.0
1026,-648,2101,0.0
11907,-7227,24445,1.0
11896,-6924,24497,1.0
11974,-6670,24727,1.0
0,0,0,0.0
885,-448,1840,0.0
11726,-5654,24416,1.0
997,-456,2083,0.0
733,-318,1537,0.0
11626,-4734,24400,1.0
11565,-4419,24335,1.0
11577,-4133,24423,1.0
11515,-3822,24352,1.0
11449,-3512,24271,1.0
11398,-3209,24222,1.0
11340,-2906,24154,1.0
920,-213,1966,0.0
11245,-2313,24063,1.0
11159,-2012,23934,1.0
10974,-1699,23587,1.0
913,-118,1968,0.0
10774,-1117,23260,1.0
10556,-824,22837,1.0
9918,-519,21502,0.0
9709,-257,21091,0.0
9446,-5,20560,0.0
9001,228,19631,0.0
160,8,352,0.0
9453,733,20695,0.0
9468,982,20767,0.0
9463,1232,20795,0.0
9486,1486,20882,0.0
9485,1738,20918,0.0
9490,1993,20966,0.0
9518,2254,21063,0.0
9522,2512,21110,0.0
9537,2774,21176,0.0
9550,3039,21239,0.0
9558,3303,21292,0.0
14,5,32,0.0
12,4,27,0.0
17,7,41,0.0
17,8,40,0.0
22,10,52,0.0
26,13,59,0.0
29,15,67,0.0
37,21,85,0.0
33,19,74,0.0
28,17,63,0.0
31,20,71,0.0
40,27,92,0.0
48,34,110,0.0
37,27,84,0.0
40,30,92,0.0
39,31,90,0.0
46,39,108,0.0
39,33,88,0.0
41,38,96,0.0
46,43,106,0.0
43,41,99,0.0
41,42,96,0.0
43,44,100,0.0
42,44,97,0.0
49,54,114,0.0
49,55,114,0.0
46,54,107,0.0
45,54,105,0.0
47,58,110,0.0
47,60,110,0.0
42,54,96,0.0
46,61,105,0.0
48,66,111,0.0
42,60,99,0.0
43,62,100,0.0
41,61,95,0.0
41,64,98,0.0
42,67,99,0.0
42,68,99,0.0
43,71,102,0.0
42,72,100,0.0
42,74,100,0.0
42,74,98,0.0
44,80,104,0.0
44,81,103,0.0
43,82,102,0.0
44,86,104,0.0
45,90,106,0.0
46,94,108,0.0
47,98,111,0.0
46,99,109,0.0
46,101,110,0.0
48,106,112,0.0
47,107,111,0.0
47,110,111,0.0
49,118,117,0.0
49,120,116,0.0
50,123,116,0.0
50,126,117,0.0
48,125,114,0.0
50,132,117,0.0
51,136,118,0.0
49,137,116,0.0
71,-264,65,0.0
71,-259,67,0.0
72,-261,70,0.0
72,-258,73,0.0
73,-256,75,0.0
75,-261,79,0.0
73,-249,79,0.0
77,-258,84,0.0
77,-252,86,0.0
80,-260,92,0.0
78,-250,91,0.0
82,-258,97,0.0
83,-258,101,0.0
83,-254,102,0.0
86,-261,109,0.0
86,-255,109,0.0
86,-253,111,0.0
89,-257,116,0.0
85,-242,113,0.0
88,-247,119,0.0
89,-247,123,0.0
93,-251,128,0.0
94,-251,131,0.0
92,-241,130,0.0
104,-271,149,0.0
102,-261,148,0.0
103,-261,152,0.0
103,-255,152,0.0
94,-233,142,0.0
96,-233,146,0.0
90,-213,136,0.0
87,-205,135,0.0
79,-182,123,0.0
73,-165,114,0.0
9924,-22116,15686,0.0
9890,-21709,15771,0.0
9853,-21299,15845,0.0
9828,-20920,15936,0.0
9801,-20542,16021,0.0
9765,-20152,16091,0.0
9747,-19802,16184,0.0
9715,-19428,16253,0.0
9695,-19082,16339,0.0
9673,-18736,16419,0.0
9650,-18392,16495,0.0
9618,-18037,16554,0.0
9605,-17720,16643,0.0
9573,-17369,16696,0.0
9555,-17051,16772,0.0
9535,-16731,16842,0.0
9514,-16413,16909,0.0
9403,-15945,16812,0.0
9471,-15784,17034,0.0
9447,-15472,17090,0.0
5830,-9379,10607,0.0
5782,-9136,10577,0.0
5356,-8311,9852,0.0
5736,-8738,10605,0.0
5709,-8537,10612,0.0
5686,-8344,10623,0.0
5700,-8206,10703,0.0
5706,-8056,10767,0.0
5692,-7879,10792,0.0
5719,-7759,10893,0.0
5724,-7611,10955,0.0
5907,-7694,11357,0.0
952,-1214,1840,0.0
767,-959,1490,0.0
10563,-12904,20577,1.0
10707,-12794,20947,1.0
10674,-12470,20968,1.0
10716,-12235,21138,1.0
10689,-11922,21169,1.0
10711,-11664,21297,1.0
10702,-11373,21362,1.0
10787,-11181,21614,1.0
8025,-8109,16142,0.0
917,-903,1852,0.0
0,0,0,0.0
8813,-8217,17917,0.0
11182,-10137,22814,1.0
0,0,0,0.0
11280,-9642,23173,1.0
0,0,0,0.0
0,0,0,0.0
11455,-8908,23763,1.0
11503,-8650,23941,1.0
11552,-8391,24117,1.0
11567,-8105,24222,1.0
0,0,0,0.0
933,-605,1968,0.0
11696,-7298,24712,1.0
11733,-7021,24863,1.0
11661,-6680,24780,1.0
886,-485,1891,0.0
11628,-6066,24849,1.0
11569,-5739,24790,1.0
11466,-5395,24636,1.0
11457,-5098,24682,1.0
1022,-428,2209,0.0
11365,-4474,24610,1.0
11335,-4170,24606,1.0
11339,-3880,24675,1.0
11279,-3568,24604,1.0
11206,-3256,24505,1.0
11082,-2934,24292,1.0
836,-200,1839,0.0
10958,-2332,24131,1.0
906,-169,2000,0.0
10791,-1735,23870,1.0
10639,-1432,23585,1.0
972,-105,2161,0.0
10254,-842,22828,1.0
9651,-538,21531,0.0
9431,-276,21085,0.0
9186,-26,20577,0.0
782,18,1757,0.0
9173,463,20631,0.0
9193,711,20715,0.0
9201,959,20774,0.0
9202,1207,20813,0.0
9218,1460,20888,0.0
9230,1714,20953,0.0
9228,1966,20985,0.0
9225,2220,21015,0.0
9244,2480,21094,0.0
9260,2742,21169,0.0
9272,3004,21229,0.0
9280,3268,21283,0.0
10,3,24,0.0
3,1,10,0.0
7,3,18,0.0
20,9,47,0.0
16,7,39,0.0
17,9,42,0.0
19,10,44,0.0
20,11,48,0.0
19,11,44,0.0
22,14,54,0.0
32,21,75,0.0
24,17,58,0.0
29,21,68,0.0
37,28,88,0.0
30,23,72,0.0
36,30,85,0.0
35,30,83,0.0
34,30,82,0.0
44,41,106,0.0
40,38,97,0.0
38,37,90,0.0
43,44,103,0.0
40,42,95,0.0
43,47,103,0.0
38,43,91,0.0
43,50,104,0.0
44,54,107,0.0
42,53,102,0.0
41,52,99,0.0
41,53,99,0.0
39,53,96,0.0
38,53,92,0.0
37,52,89,0.0
38,55,91,0.0
41,61,99,0.0
38,59,93,0.0
38,59,90,0.0
40,64,96,0.0
38,63,92,0.0
35,60,86,0.0
38,67,94,0.0
42,76,103,0.0
42,76,101,0.0
42,78,102,0.0
41,79,101,0.0
42,82,102,0.0
40,81,98,0.0
40,83,99,0.0
42,89,102,0.0
42,92,105,0.0
43,94,105,0.0
44,99,107,0.0
45,104,111,0.0
43,100,104,0.0
47,112,113,0.0
46,113,112,0.0
46,116,112,0.0
45,115,110,0.0
48,124,116,0.0
45,121,110,0.0
46,125,112,0.0
49,135,118,0.0
47,133,114,0.0
69,-267,66,0.0
69,-263,68,0.0
68,-255,69,0.0
71,-261,74,0.0
73,-265,78,0.0
74,-263,81,0.0
75,-264,85,0.0
74,-256,84,0.0
75,-255,88,0.0
78,-263,93,0.0
81,-268,98,0.0
79,-259,98,0.0
79,-255,100,0.0
82,-261,106,0.0
83,-257,107,0.0
83,-256,111,0.0
88,-264,117,0.0
88,-262,120,0.0
87,-257,121,0.0
89,-259,125,0.0
86,-246,123,0.0
88,-249,128,0.0
91,-252,133,0.0
94,-254,138,0.0
101,-269,150,0.0
104,-274,156,0.0
100,-261,153,0.0
96,-246,147,0.0
93,-235,144,0.0
91,-226,142,0.0
85,-208,135,0.0
88,-214,142,0.0
78,-187,127,0.0
74,-173,121,0.0
9602,-22023,15708,0.0
9569,-21616,15789,0.0
9536,-21211,15866,0.0
9516,-20843,15962,0.0
9491,-20465,16045,0.0
9471,-20105,16135,0.0
9439,-19725,16203,0.0
9410,-19355,16273,0.0
9401,-19031,16375,0.0
9373,-18672,16441,0.0
9338,-18304,16493,0.0
9324,-17980,16579,0.0
9303,-17647,16651,0.0
9287,-17326,16729,0.0
9260,-16988,16785,0.0
9252,-16690,16875,0.0
9238,-16384,16951,0.0
9145,-15941,16879,0.0
9189,-15742,17060,0.0
9163,-15424,17108,0.0
4956,-8196,9306,0.0
5551,-9016,10479,0.0
5573,-8889,10577,0.0
5378,-8420,10259,0.0
5485,-8430,10519,0.0
5471,-8249,10543,0.0
5521,-8168,10693,0.0
5550,-8053,10802,0.0
5527,-7862,10806,0.0
5547,-7734,10895,0.0
5557,-7593,10966,0.0
5692,-7618,11282,0.0
10316,-13521,20539,1.0
10331,-13253,20656,1.0
624,-784,1254,0.0
10426,-12803,21024,1.0
10480,-12582,21219,1.0
10481,-12296,21305,1.0
10474,-12003,21375,1.0
10459,-11704,21430,1.0
10505,-11473,21606,1.0
10536,-11222,21751,1.0
7825,-8124,16214,0.0
7833,-7924,16292,0.0
0,0,0,0.0
8547,-8190,17902,0.0
10890,-10146,22886,1.0
0,0,0,0.0
11067,-9725,23419,1.0
0,0,0,0.0
11284,-9318,24032,1.0
11340,-9066,24230,1.0
11267,-8711,24151,1.0
11355,-8480,24414,1.0
11344,-8174,24464,1.0
11426,-7934,24717,1.0
11448,-7648,24837,1.0
0,0,0,0.0
0,0,0,0.0
11480,-6767,25122,1.0
11488,-6470,25210,1.0
11443,-6144,25179,1.0
857,-437,1891,0.0
11204,-5429,24789,1.0
0,0,0,0.0
11180,-4829,24862,1.0
11158,-4526,24878,1.0
915,-347,2046,0.0
11069,-3906,24802,1.0
0,0,0,0.0
10919,-3277,24585,1.0
895,-245,2021,0.0
10661,-2633,24117,1.0
10653,-2348,24154,1.0
10646,-2062,24193,1.0
10518,-1756,23956,1.0
10397,-1458,23733,1.0
10219,-1158,23376,1.0
10023,-865,22976,1.0
9373,-555,21531,0.0
9222,-297,21230,0.0
8907,-44,20547,0.0
8480,189,19601,0.0
835,41,1935,0.0
8925,688,20711,0.0
8920,935,20740,0.0
8941,1185,20827,0.0
8927,1431,20833,0.0
8934,1682,20889,0.0
8942,1935,20944,0.0
8980,2197,21071,0.0
8977,2450,21102,0.0
8995,2712,21181,0.0
8991,2969,21207,0.0
9014,3236,21295,0.0
8,2,19,0.0
18,7,44,0.0
18,7,43,0.0
15,7,37,0.0
16,8,40,0.0
21,11,52,0.0
24,13,58,0.0
24,15,61,0.0
26,16,65,0.0
33,21,79,0.0
28,19,69,0.0
29,20,71,0.0
33,25,80,0.0
33,25,80,0.0
38,31,93,0.0
37,31,92,0.0
37,32,92,0.0
38,35,94,0.0
41,39,102,0.0
40,40,100,0.0
42,43,104,0.0
37,38,92,0.0
39,43,97,0.0
41,46,101,0.0
35,41,87,0.0
42,50,105,0.0
42,52,105,0.0
41,52,104,0.0
46,60,115,0.0
41,55,102,0.0
40,55,99,0.0
43,61,107,0.0
42,61,104,0.0
38,58,96,0.0
40,61,101,0.0
38,60,96,0.0
38,62,96,0.0
41,69,103,0.0
39,68,99,0.0
39,70,99,0.0
37,67,95,0.0
37,68,93,0.0
38,71,96,0.0
39,75,98,0.0
36,73,93,0.0
40,80,99,0.0
41,84,103,0.0
40,85,101,0.0
39,85,100,0.0
39,88,100,0.0
41,93,104,0.0
41,95,105,0.0
42,100,106,0.0
42,101,106,0.0
45,112,115,0.0
46,116,116,0.0
44,112,110,0.0
44,117,113,0.0
45,121,113,0.0
45,124,113,0.0
45,126,114,0.0
45,130,114,0.0
45,133,114,0.0
66,-265,67,0.0
67,-264,70,0.0
71,-275,76,0.0
71,-271,78,0.0
72,-269,81,0.0
73,-270,84,0.0
73,-264,85,0.0
73,-261,87,0.0
75,-263,91,0.0
79,-274,98,0.0
80,-274,101,0.0
80,-269,103,0.0
80,-264,104,0.0
79,-261,106,0.0
84,-271,114,0.0
84,-267,115,0.0
85,-263,118,0.0
84,-258,119,0.0
87,-264,125,0.0
89,-265,129,0.0
89,-260,130,0.0
89,-257,133,0.0
88,-253,134,0.0
91,-256,139,0.0
101,-279,156,0.0
100,-273,156,0.0
102,-275,163,0.0
102,-268,162,0.0
95,-246,152,0.0
93,-237,150,0.0
89,-227,147,0.0
81,-201,135,0.0
77,-189,129,0.0
73,-176,124,0.0
