//X,Y,Z,Classification
295.0,-238.0,2231.0,0.0
0.0,0.0,1.0,0.0
1.0,-1.0,5.0,0.0
2.0,-1.0,22.0,0.0
5.0,-2.0,35.0,0.0
5.0,-2.0,38.0,0.0
4.0,-1.0,31.0,0.0
5.0,-1.0,37.0,0.0
5.0,0.0,45.0,0.0
6.0,-1.0,46.0,0.0
3.0,0.0,29.0,0.0
7.0,0.0,57.0,0.0
5.0,0.0,39.0,0.0
7.0,1.0,57.0,0.0
8.0,2.0,58.0,0.0
8.0,3.0,65.0,0.0
7.0,3.0,52.0,0.0
9.0,6.0,78.0,0.0
8.0,5.0,65.0,0.0
9.0,7.0,77.0,0.0
8.0,7.0,70.0,0.0
10.0,10.0,84.0,0.0
10.0,10.0,80.0,0.0
9.0,11.0,78.0,0.0
10.0,12.0,82.0,0.0
11.0,15.0,95.0,0.0
11.0,17.0,99.0,0.0
11.0,19.0,98.0,0.0
12.0,21.0,106.0,0.0
12.0,22.0,106.0,0.0
12.0,23.0,104.0,0.0
12.0,24.0,104.0,0.0
12.0,25.0,105.0,0.0
11.0,27.0,105.0,0.0
12.0,30.0,109.0,0.0
12.0,32.0,115.0,0.0
14.0,36.0,125.0,0.0
13.0,37.0,122.0,0.0
13.0,37.0,118.0,0.0
14.0,41.0,126.0,0.0
12.0,39.0,116.0,0.0
10.0,34.0,98.0,0.0
11.0,39.0,108.0,0.0
11.0,40.0,107.0,0.0
10.0,41.0,105.0,0.0
10.0,42.0,105.0,0.0
10.0,39.0,94.0,0.0
10.0,41.0,95.0,0.0
9.0,41.0,93.0,0.0
10.0,45.0,99.0,0.0
9.0,48.0,103.0,0.0
9.0,46.0,97.0,0.0
9.0,46.0,92.0,0.0
9.0,47.0,93.0,0.0
9.0,49.0,93.0,0.0
8.0,50.0,94.0,0.0
7.0,48.0,87.0,0.0
8.0,52.0,91.0,0.0
7.0,50.0,86.0,0.0
8.0,53.0,90.0,0.0
8.0,56.0,91.0,0.0
8.0,60.0,96.0,0.0
7.0,57.0,90.0,0.0
8.0,62.0,96.0,0.0
7.0,63.0,95.0,0.0
7.0,61.0,90.0,0.0
7.0,68.0,97.0,0.0
7.0,74.0,103.0,0.0
7.0,69.0,93.0,0.0
7.0,75.0,99.0,0.0
7.0,80.0,103.0,0.0
7.0,86.0,109.0,0.0
7.0,84.0,104.0,0.0
7.0,97.0,118.0,0.0
7.0,94.0,112.0,0.0
6.0,87.0,102.0,0.0
6.0,92.0,105.0,0.0
7.0,106.0,117.0,0.0
6.0,107.0,116.0,0.0
5.0,110.0,117.0,0.0
6.0,109.0,114.0,0.0
5.0,119.0,122.0,0.0
5.0,115.0,116.0,0.0
5.0,121.0,118.0,0.0
5.0,122.0,117.0,0.0
4.0,-276.0,86.0,0.0
4.0,-268.0,86.0,0.0
5.0,-271.0,91.0,0.0
6.0,-268.0,92.0,0.0
6.0,-272.0,98.0,0.0
7.0,-271.0,100.0,0.0
7.0,-271.0,104.0,0.0
8.0,-274.0,108.0,0.0
8.0,-270.0,110.0,0.0
9.0,-275.0,115.0,0.0
10.0,-273.0,118.0,0.0
10.0,-270.0,120.0,0.0
10.0,-266.0,122.0,0.0
12.0,-263.0,124.0,0.0
12.0,-263.0,128.0,0.0
12.0,-263.0,131.0,0.0
12.0,-264.0,135.0,0.0
13.0,-257.0,135.0,0.0
14.0,-262.0,141.0,0.0
15.0,-270.0,150.0,0.0
16.0,-274.0,155.0,0.0
17.0,-271.0,157.0,0.0
17.0,-266.0,159.0,0.0
15.0,-233.0,142.0,0.0
16.0,-235.0,147.0,0.0
16.0,-220.0,141.0,0.0
16.0,-212.0,139.0,0.0
16.0,-211.0,141.0,0.0
14.0,-190.0,131.0,0.0
15.0,-188.0,132.0,0.0
15.0,-179.0,128.0,0.0
14.0,-172.0,126.0,0.0
14.0,-154.0,116.0,0.0
14.0,-149.0,114.0,0.0
14.0,-150.0,118.0,0.0
12.0,-130.0,105.0,0.0
13.0,-129.0,106.0,0.0
12.0,-123.0,103.0,0.0
11.0,-108.0,93.0,0.0
12.0,-109.0,96.0,0.0
11.0,-106.0,95.0,0.0
11.0,-96.0,88.0,0.0
8.0,-76.0,71.0,0.0
10.0,-85.0,82.0,0.0
9.0,-78.0,77.0,0.0
10.0,-79.0,80.0,0.0
2391.0,-18641.0,19107.0,0.0
2407.0,-18302.0,19173.0,0.0
2423.0,-17970.0,19239.0,0.0
2441.0,-17668.0,19333.0,0.0
2456.0,-17347.0,19402.0,0.0
2470.0,-17023.0,19461.0,0.0
2483.0,-16708.0,19527.0,0.0
2500.0,-16419.0,19617.0,0.0
2568.0,-16464.0,20111.0,0.0
2642.0,-16537.0,20655.0,0.0
2694.0,-16457.0,21023.0,0.0
2788.0,-16633.0,21731.0,0.0
239.0,-1390.0,1857.0,0.0
3168.0,-18012.0,24627.0,1.0
3223.0,-17888.0,25025.0,1.0
3265.0,-17688.0,25325.0,1.0
243.0,-1288.0,1888.0,0.0
3327.0,-17174.0,25769.0,1.0
3382.0,-17037.0,26177.0,1.0
0.0,0.0,0.0,0.0
0.0,0.0,0.0,0.0
3501.0,-16381.0,27070.0,1.0
254.0,-1163.0,1970.0,0.0
0.0,0.0,0.0,0.0
3611.0,-15667.0,27915.0,1.0
257.0,-1088.0,1991.0,0.0
3669.0,-15120.0,28375.0,1.0
252.0,-1012.0,1952.0,0.0
257.0,-1006.0,1992.0,0.0
3708.0,-14115.0,28719.0,1.0
3730.0,-13815.0,28905.0,1.0
263.0,-946.0,2038.0,0.0
262.0,-918.0,2034.0,0.0
269.0,-914.0,2087.0,0.0
263.0,-869.0,2047.0,0.0
3561.0,-11433.0,27721.0,1.0
270.0,-842.0,2107.0,0.0
3606.0,-10892.0,28143.0,1.0
270.0,-791.0,2112.0,0.0
267.0,-756.0,2090.0,0.0
3685.0,-10098.0,28874.0,1.0
272.0,-720.0,2136.0,0.0
273.0,-697.0,2145.0,0.0
3676.0,-9069.0,28949.0,1.0
3696.0,-8788.0,29168.0,1.0
267.0,-611.0,2116.0,0.0
272.0,-597.0,2155.0,0.0
270.0,-570.0,2148.0,0.0
271.0,-547.0,2154.0,0.0
276.0,-533.0,2201.0,0.0
273.0,-502.0,2176.0,0.0
275.0,-485.0,2209.0,0.0
273.0,-456.0,2191.0,0.0
272.0,-430.0,2184.0,0.0
278.0,-415.0,2245.0,0.0
265.0,-372.0,2143.0,0.0
3434.0,-4538.0,27896.0,1.0
273.0,-337.0,2226.0,0.0
3395.0,-3892.0,27744.0,1.0
1.0,-2.0,14.0,0.0
4.0,-3.0,26.0,0.0
270.0,-239.0,2233.0,0.0
0.0,0.0,2.0,0.0
3.0,-2.0,24.0,0.0
1.0,-1.0,10.0,0.0
1.0,0.0,5.0,0.0
5.0,-2.0,44.0,0.0
5.0,-2.0,38.0,0.0
4.0,-1.0,35.0,0.0
4.0,0.0,27.0,0.0
6.0,0.0,50.0,0.0
3.0,0.0,28.0,0.0
3.0,0.0,27.0,0.0
4.0,0.0,35.0,0.0
6.0,1.0,56.0,0.0
6.0,2.0,58.0,0.0
7.0,3.0,54.0,0.0
7.0,3.0,54.0,0.0
8.0,5.0,72.0,0.0
5.0,4.0,50.0,0.0
7.0,6.0,64.0,0.0
7.0,6.0,61.0,0.0
9.0,9.0,81.0,0.0
8.0,10.0,79.0,0.0
9.0,12.0,86.0,0.0
7.0,10.0,71.0,0.0
10.0,14.0,90.0,0.0
9.0,16.0,92.0,0.0
10.0,16.0,90.0,0.0
10.0,19.0,96.0,0.0
11.0,22.0,105.0,0.0
10.0,22.0,98.0,0.0
11.0,25.0,109.0,0.0
10.0,24.0,101.0,0.0
10.0,25.0,101.0,0.0
10.0,25.0,96.0,0.0
10.0,29.0,104.0,0.0
10.0,30.0,105.0,0.0
11.0,32.0,108.0,0.0
10.0,32.0,102.0,0.0
10.0,37.0,112.0,0.0
11.0,38.0,113.0,0.0
9.0,34.0,96.0,0.0
9.0,35.0,97.0,0.0
9.0,35.0,94.0,0.0
9.0,38.0,98.0,0.0
7.0,33.0,83.0,0.0
9.0,43.0,104.0,0.0
9.0,40.0,94.0,0.0
7.0,38.0,88.0,0.0
7.0,40.0,89.0,0.0
7.0,38.0,83.0,0.0
8.0,47.0,97.0,0.0
6.0,41.0,82.0,0.0
7.0,42.0,84.0,0.0
6.0,42.0,80.0,0.0
6.0,41.0,77.0,0.0
7.0,50.0,90.0,0.0
6.0,49.0,87.0,0.0
6.0,48.0,84.0,0.0
6.0,52.0,88.0,0.0
6.0,50.0,82.0,0.0
7.0,56.0,91.0,0.0
6.0,54.0,84.0,0.0
5.0,52.0,80.0,0.0
6.0,63.0,94.0,0.0
5.0,60.0,87.0,0.0
6.0,66.0,95.0,0.0
6.0,68.0,94.0,0.0
5.0,70.0,96.0,0.0
5.0,68.0,91.0,0.0
5.0,79.0,102.0,0.0
5.0,80.0,102.0,0.0
5.0,77.0,96.0,0.0
5.0,82.0,101.0,0.0
5.0,87.0,103.0,0.0
5.0,91.0,106.0,0.0
5.0,90.0,103.0,0.0
4.0,98.0,109.0,0.0
4.0,97.0,106.0,0.0
4.0,98.0,105.0,0.0
3.0,98.0,102.0,0.0
3.0,106.0,108.0,0.0
3.0,114.0,114.0,0.0
3.0,108.0,106.0,0.0
3.0,117.0,113.0,0.0
-1.0,-304.0,95.0,0.0
0.0,-292.0,95.0,0.0
0.0,-288.0,97.0,0.0
0.0,-285.0,100.0,0.0
1.0,-282.0,102.0,0.0
1.0,-273.0,102.0,0.0
2.0,-272.0,104.0,0.0
2.0,-274.0,109.0,0.0
3.0,-280.0,115.0,0.0
4.0,-285.0,121.0,0.0
4.0,-273.0,118.0,0.0
5.0,-270.0,121.0,0.0
5.0,-271.0,125.0,0.0
6.0,-272.0,128.0,0.0
6.0,-267.0,130.0,0.0
7.0,-277.0,139.0,0.0
8.0,-270.0,139.0,0.0
8.0,-273.0,144.0,0.0
9.0,-281.0,152.0,0.0
10.0,-280.0,155.0,0.0
10.0,-289.0,165.0,0.0
11.0,-290.0,169.0,0.0
11.0,-271.0,162.0,0.0
11.0,-258.0,158.0,0.0
11.0,-243.0,153.0,0.0
11.0,-239.0,153.0,0.0
11.0,-231.0,152.0,0.0
11.0,-216.0,146.0,0.0
11.0,-204.0,141.0,0.0
11.0,-195.0,138.0,0.0
11.0,-181.0,131.0,0.0
11.0,-182.0,134.0,0.0
10.0,-166.0,125.0,0.0
10.0,-156.0,121.0,0.0
9.0,-140.0,111.0,0.0
10.0,-137.0,110.0,0.0
10.0,-136.0,113.0,0.0
10.0,-139.0,117.0,0.0
9.0,-120.0,104.0,0.0
9.0,-118.0,104.0,0.0
9.0,-112.0,101.0,0.0
9.0,-103.0,95.0,0.0
9.0,-106.0,100.0,0.0
8.0,-93.0,90.0,0.0
8.0,-86.0,84.0,0.0
1816.0,-18944.0,19065.0,0.0
1835.0,-18591.0,19120.0,0.0
1852.0,-18244.0,19175.0,0.0
1871.0,-17927.0,19255.0,0.0
1891.0,-17621.0,19344.0,0.0
1905.0,-17271.0,19377.0,0.0
1926.0,-16994.0,19489.0,0.0
1944.0,-16696.0,19574.0,0.0
1958.0,-16372.0,19621.0,0.0
2019.0,-16444.0,20148.0,0.0
2083.0,-16516.0,20692.0,0.0
2137.0,-16511.0,21153.0,0.0
2212.0,-16647.0,21811.0,0.0
189.0,-1380.0,1849.0,0.0
190.0,-1352.0,1855.0,0.0
193.0,-1341.0,1881.0,0.0
189.0,-1279.0,1837.0,0.0
194.0,-1287.0,1891.0,0.0
2663.0,-17155.0,25809.0,1.0
199.0,-1246.0,1921.0,0.0
202.0,-1235.0,1950.0,0.0
201.0,-1196.0,1934.0,0.0
207.0,-1203.0,1993.0,0.0
200.0,-1133.0,1925.0,0.0
203.0,-1115.0,1943.0,0.0
209.0,-1119.0,1999.0,0.0
210.0,-1096.0,2009.0,0.0
2944.0,-14963.0,28143.0,1.0
2955.0,-14618.0,28232.0,1.0
2964.0,-14268.0,28307.0,1.0
2967.0,-13892.0,28324.0,1.0
2992.0,-13621.0,28554.0,1.0
2987.0,-13220.0,28510.0,1.0
2988.0,-12844.0,28510.0,1.0
212.0,-887.0,2029.0,0.0
2886.0,-11699.0,27557.0,1.0
217.0,-853.0,2075.0,0.0
220.0,-839.0,2103.0,0.0
215.0,-794.0,2057.0,0.0
2924.0,-10466.0,27987.0,1.0
219.0,-760.0,2104.0,0.0
225.0,-753.0,2158.0,0.0
221.0,-713.0,2116.0,0.0
2971.0,-9288.0,28578.0,1.0
2977.0,-8970.0,28661.0,1.0
219.0,-635.0,2113.0,0.0
224.0,-626.0,2168.0,0.0
227.0,-609.0,2200.0,0.0
225.0,-579.0,2181.0,0.0
2883.0,-7117.0,28023.0,1.0
2844.0,-6716.0,27706.0,1.0
2851.0,-6428.0,27840.0,1.0
228.0,-489.0,2232.0,0.0
227.0,-464.0,2230.0,0.0
2834.0,-5484.0,27886.0,1.0
225.0,-411.0,2215.0,0.0
2815.0,-4850.0,27857.0,1.0
2.0,-2.0,16.0,0.0
2778.0,-4197.0,27670.0,1.0
223.0,-313.0,2225.0,0.0
221.0,-287.0,2213.0,0.0
221.0,-264.0,2231.0,0.0
0.0,-1.0,5.0,0.0
223.0,-217.0,2261.0,0.0
2.0,-2.0,30.0,0.0
4.0,-2.0,35.0,0.0
2.0,-2.0,30.0,0.0
3.0,-1.0,35.0,0.0
3.0,-1.0,33.0,0.0
4.0,-1.0,40.0,0.0
4.0,-1.0,44.0,0.0
4.0,0.0,39.0,0.0
4.0,0.0,40.0,0.0
4.0,0.0,49.0,0.0
7.0,1.0,77.0,0.0
6.0,2.0,68.0,0.0
5.0,2.0,58.0,0.0
7.0,4.0,77.0,0.0
4.0,2.0,44.0,0.0
6.0,5.0,73.0,0.0
5.0,5.0,58.0,0.0
7.0,6.0,71.0,0.0
7.0,8.0,78.0,0.0
8.0,10.0,90.0,0.0
8.0,12.0,92.0,0.0
8.0,13.0,99.0,0.0
8.0,14.0,95.0,0.0
9.0,16.0,101.0,0.0
7.0,15.0,87.0,0.0
9.0,19.0,105.0,0.0
9.0,20.0,102.0,0.0
9.0,22.0,109.0,0.0
10.0,25.0,115.0,0.0
9.0,23.0,102.0,0.0
10.0,28.0,119.0,0.0
9.0,29.0,113.0,0.0
9.0,30.0,113.0,0.0
9.0,35.0,123.0,0.0
8.0,30.0,105.0,0.0
8.0,33.0,110.0,0.0
9.0,36.0,114.0,0.0
9.0,39.0,120.0,0.0
8.0,38.0,112.0,0.0
8.0,37.0,106.0,0.0
8.0,38.0,107.0,0.0
7.0,40.0,108.0,0.0
7.0,42.0,109.0,0.0
7.0,41.0,103.0,0.0
7.0,39.0,94.0,0.0
7.0,46.0,109.0,0.0
6.0,42.0,97.0,0.0
6.0,44.0,99.0,0.0
6.0,47.0,101.0,0.0
6.0,49.0,102.0,0.0
6.0,48.0,97.0,0.0
6.0,49.0,99.0,0.0
5.0,45.0,88.0,0.0
5.0,52.0,96.0,0.0
5.0,47.0,86.0,0.0
5.0,56.0,101.0,0.0
5.0,56.0,99.0,0.0
4.0,55.0,93.0,0.0
4.0,55.0,91.0,0.0
4.0,61.0,98.0,0.0
4.0,59.0,92.0,0.0
4.0,63.0,97.0,0.0
4.0,62.0,93.0,0.0
4.0,66.0,97.0,0.0
3.0,70.0,101.0,0.0
4.0,73.0,103.0,0.0
3.0,77.0,106.0,0.0
4.0,80.0,107.0,0.0
4.0,79.0,104.0,0.0
3.0,86.0,110.0,0.0
3.0,88.0,112.0,0.0
2.0,89.0,109.0,0.0
3.0,93.0,112.0,0.0
2.0,90.0,106.0,0.0
2.0,93.0,108.0,0.0
2.0,97.0,109.0,0.0
2.0,104.0,114.0,0.0
1.0,107.0,115.0,0.0
1.0,108.0,114.0,0.0
0.0,110.0,114.0,0.0
0.0,118.0,119.0,0.0
0.0,119.0,117.0,0.0
0.0,120.0,116.0,0.0
-4.0,-307.0,96.0,0.0
-3.0,-312.0,101.0,0.0
-2.0,-298.0,101.0,0.0
-2.0,-293.0,103.0,0.0
-1.0,-285.0,103.0,0.0
0.0,-289.0,108.0,0.0
0.0,-282.0,109.0,0.0
0.0,-293.0,117.0,0.0
1.0,-279.0,115.0,0.0
0.0,-283.0,120.0,0.0
1.0,-281.0,123.0,0.0
2.0,-284.0,128.0,0.0
2.0,-279.0,129.0,0.0
3.0,-275.0,131.0,0.0
4.0,-276.0,134.0,0.0
4.0,-279.0,140.0,0.0
5.0,-277.0,142.0,0.0
5.0,-273.0,144.0,0.0
6.0,-285.0,154.0,0.0
6.0,-294.0,164.0,0.0
8.0,-296.0,168.0,0.0
7.0,-289.0,169.0,0.0
8.0,-285.0,172.0,0.0
8.0,-268.0,165.0,0.0
8.0,-251.0,158.0,0.0
8.0,-242.0,156.0,0.0
9.0,-233.0,154.0,0.0
9.0,-237.0,161.0,0.0
8.0,-201.0,139.0,0.0
9.0,-202.0,143.0,0.0
8.0,-187.0,136.0,0.0
9.0,-183.0,136.0,0.0
9.0,-171.0,129.0,0.0
9.0,-165.0,128.0,0.0
8.0,-152.0,120.0,0.0
9.0,-152.0,122.0,0.0
8.0,-146.0,122.0,0.0
9.0,-134.0,114.0,0.0
8.0,-125.0,108.0,0.0
8.0,-128.0,113.0,0.0
7.0,-112.0,102.0,0.0
7.0,-108.0,100.0,0.0
7.0,-98.0,92.0,0.0
7.0,-100.0,97.0,0.0
1514.0,-19244.0,18981.0,0.0
1535.0,-18897.0,19047.0,0.0
1558.0,-18576.0,19135.0,0.0
1578.0,-18249.0,19209.0,0.0
1598.0,-17929.0,19288.0,0.0
1617.0,-17604.0,19355.0,0.0
1635.0,-17280.0,19417.0,0.0
1652.0,-16950.0,19467.0,0.0
1671.0,-16661.0,19559.0,0.0
1690.0,-16368.0,19643.0,0.0
1744.0,-16423.0,20151.0,0.0
1803.0,-16506.0,20709.0,0.0
1857.0,-16533.0,21209.0,0.0
1925.0,-16666.0,21867.0,0.0
162.0,-1363.0,1830.0,0.0
2175.0,-17834.0,24483.0,1.0
2211.0,-17635.0,24771.0,1.0
2234.0,-17346.0,24935.0,1.0
2289.0,-17294.0,25445.0,1.0
171.0,-1253.0,1888.0,0.0
2345.0,-16783.0,25885.0,1.0
179.0,-1245.0,1967.0,0.0
179.0,-1217.0,1971.0,0.0
180.0,-1187.0,1969.0,0.0
185.0,-1188.0,2020.0,0.0
2503.0,-15647.0,27273.0,1.0
182.0,-1110.0,1984.0,0.0
184.0,-1087.0,1995.0,0.0
186.0,-1065.0,2006.0,0.0
2583.0,-14461.0,27956.0,1.0
2603.0,-14167.0,28134.0,1.0
191.0,-1014.0,2071.0,0.0
0.0,0.0,0.0,0.0
195.0,-973.0,2102.0,0.0
193.0,-936.0,2081.0,0.0
0.0,0.0,0.0,0.0
2558.0,-11687.0,27551.0,1.0
0.0,0.0,0.0,0.0
193.0,-826.0,2075.0,0.0
192.0,-801.0,2074.0,0.0
2594.0,-10453.0,27971.0,1.0
198.0,-770.0,2134.0,0.0
201.0,-755.0,2165.0,0.0
194.0,-705.0,2096.0,0.0
199.0,-698.0,2151.0,0.0
200.0,-676.0,2163.0,0.0
2648.0,-8644.0,28727.0,1.0
201.0,-629.0,2177.0,0.0
199.0,-599.0,2164.0,0.0
201.0,-583.0,2196.0,0.0
197.0,-546.0,2154.0,0.0
201.0,-531.0,2195.0,0.0
2517.0,-6378.0,27626.0,1.0
4.0,-11.0,51.0,0.0
2510.0,-5760.0,27683.0,1.0
191.0,-416.0,2113.0,0.0
199.0,-409.0,2206.0,0.0
201.0,-390.0,2234.0,0.0
199.0,-362.0,2221.0,0.0
193.0,-329.0,2164.0,0.0
196.0,-309.0,2195.0,0.0
200.0,-292.0,2250.0,0.0
2377.0,-3192.0,26926.0,1.0
1.0,0.0,3.0,0.0
198.0,-218.0,2259.0,0.0
2.0,-2.0,20.0,0.0
4.0,-3.0,42.0,0.0
2.0,-2.0,25.0,0.0
4.0,-3.0,52.0,0.0
5.0,-3.0,56.0,0.0
4.0,-1.0,44.0,0.0
4.0,-1.0,43.0,0.0
4.0,-1.0,47.0,0.0
5.0,0.0,64.0,0.0
5.0,0.0,54.0,0.0
4.0,0.0,52.0,0.0
6.0,2.0,81.0,0.0
6.0,2.0,71.0,0.0
5.0,3.0,59.0,0.0
5.0,3.0,70.0,0.0
5.0,4.0,63.0,0.0
6.0,6.0,72.0,0.0
7.0,9.0,92.0,0.0
8.0,10.0,97.0,0.0
8.0,13.0,107.0,0.0
7.0,11.0,90.0,0.0
8.0,15.0,110.0,0.0
8.0,17.0,115.0,0.0
9.0,19.0,120.0,0.0
9.0,21.0,119.0,0.0
8.0,23.0,121.0,0.0
8.0,21.0,106.0,0.0
9.0,26.0,123.0,0.0
8.0,26.0,121.0,0.0
7.0,24.0,109.0,0.0
8.0,30.0,122.0,0.0
8.0,30.0,120.0,0.0
8.0,31.0,118.0,0.0
8.0,34.0,122.0,0.0
8.0,34.0,121.0,0.0
8.0,37.0,122.0,0.0
8.0,40.0,127.0,0.0
9.0,43.0,134.0,0.0
8.0,44.0,129.0,0.0
8.0,45.0,129.0,0.0
7.0,47.0,130.0,0.0
7.0,45.0,120.0,0.0
7.0,47.0,120.0,0.0
7.0,46.0,116.0,0.0
7.0,45.0,112.0,0.0
6.0,47.0,110.0,0.0
6.0,48.0,110.0,0.0
6.0,50.0,113.0,0.0
6.0,51.0,109.0,0.0
5.0,50.0,105.0,0.0
5.0,50.0,103.0,0.0
5.0,51.0,102.0,0.0
4.0,50.0,96.0,0.0
5.0,57.0,106.0,0.0
4.0,59.0,109.0,0.0
4.0,58.0,102.0,0.0
4.0,57.0,100.0,0.0
4.0,64.0,109.0,0.0
4.0,63.0,104.0,0.0
3.0,66.0,107.0,0.0
4.0,66.0,105.0,0.0
2.0,61.0,95.0,0.0
3.0,67.0,102.0,0.0
3.0,71.0,105.0,0.0
3.0,75.0,108.0,0.0
2.0,78.0,111.0,0.0
3.0,81.0,112.0,0.0
2.0,82.0,110.0,0.0
2.0,84.0,110.0,0.0
2.0,87.0,110.0,0.0
1.0,90.0,113.0,0.0
1.0,91.0,112.0,0.0
1.0,102.0,121.0,0.0
1.0,99.0,117.0,0.0
1.0,99.0,113.0,0.0
0.0,106.0,119.0,0.0
0.0,106.0,116.0,0.0
0.0,106.0,114.0,0.0
0.0,110.0,116.0,0.0
0.0,120.0,125.0,0.0
0.0,124.0,126.0,0.0
-1.0,128.0,126.0,0.0
-1.0,130.0,126.0,0.0
-9.0,-315.0,100.0,0.0
-9.0,-308.0,100.0,0.0
-8.0,-302.0,103.0,0.0
-7.0,-296.0,104.0,0.0
-7.0,-285.0,104.0,0.0
-6.0,-290.0,109.0,0.0
-6.0,-294.0,114.0,0.0
-5.0,-287.0,116.0,0.0
-4.0,-271.0,113.0,0.0
-4.0,-272.0,115.0,0.0
-4.0,-272.0,119.0,0.0
-2.0,-279.0,126.0,0.0
-2.0,-269.0,125.0,0.0
-2.0,-276.0,131.0,0.0
-1.0,-267.0,131.0,0.0
-1.0,-269.0,135.0,0.0
0.0,-268.0,139.0,0.0
0.0,-270.0,143.0,0.0
0.0,-280.0,153.0,0.0
0.0,-294.0,164.0,0.0
0.0,-288.0,166.0,0.0
1.0,-292.0,172.0,0.0
1.0,-278.0,168.0,0.0
2.0,-261.0,161.0,0.0
3.0,-252.0,159.0,0.0
3.0,-227.0,147.0,0.0
3.0,-218.0,144.0,0.0
3.0,-225.0,152.0,0.0
3.0,-203.0,140.0,0.0
4.0,-188.0,134.0,0.0
4.0,-186.0,135.0,0.0
4.0,-179.0,133.0,0.0
5.0,-171.0,130.0,0.0
4.0,-160.0,124.0,0.0
5.0,-154.0,122.0,0.0
4.0,-137.0,111.0,0.0
4.0,-125.0,104.0,0.0
4.0,-128.0,109.0,0.0
5.0,-119.0,102.0,0.0
4.0,-114.0,101.0,0.0
4.0,-108.0,98.0,0.0
5.0,-109.0,101.0,0.0
5.0,-93.0,89.0,0.0
4.0,-86.0,83.0,0.0
4.0,-89.0,88.0,0.0
979.0,-18847.0,19053.0,0.0
1003.0,-18525.0,19137.0,0.0
1026.0,-18194.0,19207.0,0.0
1046.0,-17831.0,19237.0,0.0
1069.0,-17540.0,19338.0,0.0
1090.0,-17222.0,19405.0,0.0
1110.0,-16917.0,19481.0,0.0
1126.0,-16552.0,19483.0,0.0
1152.0,-16344.0,19667.0,0.0
1199.0,-16432.0,20214.0,0.0
1243.0,-16463.0,20707.0,0.0
1288.0,-16510.0,21233.0,0.0
1342.0,-16647.0,21895.0,0.0
1486.0,-17849.0,24012.0,1.0
1525.0,-17735.0,24405.0,1.0
122.0,-1370.0,1929.0,0.0
118.0,-1285.0,1853.0,0.0
1606.0,-16996.0,25063.0,1.0
124.0,-1269.0,1915.0,0.0
127.0,-1265.0,1957.0,0.0
125.0,-1212.0,1920.0,0.0
1735.0,-16254.0,26361.0,1.0
130.0,-1189.0,1977.0,0.0
1783.0,-15730.0,26794.0,1.0
130.0,-1110.0,1938.0,0.0
1834.0,-15241.0,27302.0,1.0
1846.0,-14888.0,27360.0,1.0
138.0,-1081.0,2041.0,0.0
1879.0,-14272.0,27642.0,1.0
1893.0,-13952.0,27756.0,1.0
0.0,0.0,0.0,0.0
1895.0,-13150.0,27638.0,1.0
1896.0,-12757.0,27580.0,1.0
140.0,-912.0,2029.0,0.0
146.0,-925.0,2121.0,0.0
1850.0,-11331.0,26750.0,1.0
0.0,0.0,0.0,0.0
1872.0,-10756.0,27012.0,1.0
1883.0,-10473.0,27156.0,1.0
1893.0,-10185.0,27287.0,1.0
1913.0,-9947.0,27560.0,1.0
1924.0,-9664.0,27715.0,1.0
144.0,-697.0,2071.0,0.0
1951.0,-9125.0,28119.0,1.0
1962.0,-8847.0,28303.0,1.0
150.0,-651.0,2167.0,0.0
152.0,-636.0,2203.0,0.0
1899.0,-7613.0,27472.0,1.0
1893.0,-7284.0,27438.0,1.0
1878.0,-6919.0,27252.0,1.0
1865.0,-6572.0,27121.0,1.0
1856.0,-6247.0,27056.0,1.0
1857.0,-5955.0,27133.0,1.0
1.0,-4.0,20.0,0.0
3.0,-10.0,50.0,0.0
1833.0,-5015.0,27028.0,1.0
1831.0,-4721.0,27076.0,1.0
1817.0,-4401.0,26974.0,1.0
150.0,-340.0,2238.0,0.0
150.0,-315.0,2235.0,0.0
1778.0,-3470.0,26718.0,1.0
1759.0,-3156.0,26546.0,1.0
1749.0,-2862.0,26536.0,1.0
2.0,-2.0,19.0,0.0
1.0,-1.0,22.0,0.0
2.0,-2.0,34.0,0.0
2.0,-2.0,27.0,0.0
3.0,-2.0,39.0,0.0
2.0,-1.0,19.0,0.0
3.0,-1.0,49.0,0.0
4.0,-1.0,54.0,0.0
3.0,-1.0,56.0,0.0
3.0,0.0,51.0,0.0
3.0,0.0,43.0,0.0
2.0,1.0,46.0,0.0
4.0,1.0,74.0,0.0
3.0,1.0,55.0,0.0
4.0,3.0,70.0,0.0
5.0,4.0,75.0,0.0
4.0,5.0,78.0,0.0
5.0,7.0,94.0,0.0
5.0,7.0,81.0,0.0
5.0,10.0,95.0,0.0
5.0,10.0,89.0,0.0
5.0,12.0,93.0,0.0
5.0,13.0,92.0,0.0
5.0,14.0,100.0,0.0
5.0,15.0,93.0,0.0
5.0,18.0,102.0,0.0
5.0,20.0,107.0,0.0
5.0,21.0,109.0,0.0
5.0,21.0,101.0,0.0
6.0,25.0,119.0,0.0
5.0,24.0,105.0,0.0
6.0,29.0,120.0,0.0
5.0,29.0,115.0,0.0
6.0,32.0,121.0,0.0
6.0,32.0,116.0,0.0
5.0,32.0,109.0,0.0
6.0,37.0,125.0,0.0
5.0,38.0,123.0,0.0
5.0,42.0,128.0,0.0
4.0,39.0,116.0,0.0
5.0,40.0,114.0,0.0
4.0,40.0,111.0,0.0
4.0,41.0,112.0,0.0
4.0,43.0,113.0,0.0
4.0,45.0,113.0,0.0
4.0,45.0,111.0,0.0
3.0,49.0,115.0,0.0
3.0,43.0,102.0,0.0
3.0,47.0,107.0,0.0
3.0,49.0,106.0,0.0
2.0,49.0,104.0,0.0
2.0,53.0,108.0,0.0
2.0,49.0,99.0,0.0
2.0,55.0,108.0,0.0
2.0,54.0,101.0,0.0
2.0,57.0,105.0,0.0
2.0,58.0,104.0,0.0
1.0,56.0,97.0,0.0
1.0,55.0,93.0,0.0
1.0,55.0,91.0,0.0
2.0,61.0,100.0,0.0
1.0,60.0,96.0,0.0
1.0,65.0,101.0,0.0
1.0,64.0,97.0,0.0
0.0,70.0,103.0,0.0
0.0,69.0,100.0,0.0
0.0,71.0,99.0,0.0
0.0,74.0,102.0,0.0
0.0,82.0,111.0,0.0
0.0,78.0,103.0,0.0
0.0,84.0,108.0,0.0
0.0,88.0,110.0,0.0
0.0,86.0,106.0,0.0
-1.0,96.0,115.0,0.0
-1.0,94.0,110.0,0.0
-1.0,100.0,115.0,0.0
-1.0,104.0,118.0,0.0
-2.0,101.0,112.0,0.0
-2.0,107.0,115.0,0.0
-3.0,107.0,113.0,0.0
-3.0,111.0,115.0,0.0
-3.0,121.0,123.0,0.0
-3.0,125.0,124.0,0.0
-3.0,121.0,118.0,0.0
-12.0,-306.0,96.0,0.0
-11.0,-291.0,96.0,0.0
-10.0,-282.0,96.0,0.0
-9.0,-281.0,99.0,0.0
-9.0,-285.0,104.0,0.0
-8.0,-278.0,105.0,0.0
-8.0,-280.0,109.0,0.0
-8.0,-280.0,113.0,0.0
-7.0,-262.0,108.0,0.0
-7.0,-266.0,113.0,0.0
-6.0,-270.0,119.0,0.0
-5.0,-259.0,118.0,0.0
-5.0,-268.0,124.0,0.0
-4.0,-259.0,124.0,0.0
-4.0,-264.0,130.0,0.0
-3.0,-259.0,131.0,0.0
-3.0,-252.0,130.0,0.0
-3.0,-253.0,134.0,0.0
-2.0,-272.0,149.0,0.0
-1.0,-285.0,160.0,0.0
-1.0,-271.0,155.0,0.0
-1.0,-281.0,165.0,0.0
0.0,-247.0,149.0,0.0
0.0,-239.0,148.0,0.0
0.0,-241.0,153.0,0.0
0.0,-223.0,145.0,0.0
1.0,-216.0,143.0,0.0
0.0,-203.0,138.0,0.0
1.0,-183.0,127.0,0.0
1.0,-183.0,130.0,0.0
1.0,-175.0,128.0,0.0
2.0,-158.0,118.0,0.0
2.0,-151.0,115.0,0.0
2.0,-139.0,108.0,0.0
2.0,-139.0,110.0,0.0
2.0,-135.0,110.0,0.0
2.0,-125.0,104.0,0.0
3.0,-117.0,99.0,0.0
3.0,-119.0,104.0,0.0
2.0,-104.0,92.0,0.0
3.0,-112.0,102.0,0.0
2.0,-76.0,70.0,0.0
3.0,-91.0,86.0,0.0
2.0,-84.0,82.0,0.0
3.0,-67.0,67.0,0.0
770.0,-20663.0,20917.0,0.0
798.0,-20295.0,20994.0,0.0
753.0,-18221.0,19260.0,0.0
776.0,-17893.0,19328.0,0.0
796.0,-17504.0,19322.0,0.0
819.0,-17208.0,19413.0,0.0
839.0,-16889.0,19475.0,0.0
861.0,-16590.0,19552.0,0.0
883.0,-16338.0,19683.0,0.0
925.0,-16420.0,20222.0,0.0
962.0,-16430.0,20689.0,0.0
999.0,-16409.0,21127.0,0.0
1034.0,-16364.0,21546.0,0.0
89.0,-1363.0,1836.0,0.0
1200.0,-17646.0,24309.0,1.0
93.0,-1317.0,1857.0,0.0
96.0,-1320.0,1904.0,0.0
1272.0,-16847.0,24870.0,1.0
1305.0,-16697.0,25232.0,1.0
100.0,-1249.0,1933.0,0.0
1360.0,-16271.0,25784.0,1.0
0.0,0.0,0.0,0.0
1410.0,-15808.0,26296.0,1.0
0.0,0.0,0.0,0.0
107.0,-1124.0,1966.0,0.0
108.0,-1108.0,1987.0,0.0
110.0,-1087.0,2001.0,0.0
1512.0,-14435.0,27251.0,1.0
1525.0,-14102.0,27336.0,1.0
1534.0,-13740.0,27358.0,1.0
114.0,-992.0,2029.0,0.0
1542.0,-12958.0,27256.0,1.0
1558.0,-12682.0,27439.0,1.0
1567.0,-12350.0,27500.0,1.0
1517.0,-11578.0,26549.0,1.0
120.0,-884.0,2089.0,0.0
1536.0,-10977.0,26736.0,1.0
1550.0,-10716.0,26931.0,1.0
122.0,-815.0,2115.0,0.0
122.0,-789.0,2119.0,0.0
1577.0,-9843.0,27286.0,1.0
1586.0,-9555.0,27417.0,1.0
122.0,-713.0,2121.0,0.0
1604.0,-8986.0,27703.0,1.0
125.0,-671.0,2150.0,0.0
1586.0,-8240.0,27417.0,1.0
126.0,-628.0,2176.0,0.0
1563.0,-7497.0,27061.0,1.0
126.0,-582.0,2195.0,0.0
1555.0,-6850.0,26985.0,1.0
1538.0,-6484.0,26755.0,1.0
1548.0,-6229.0,26982.0,1.0
127.0,-489.0,2223.0,0.0
127.0,-464.0,2228.0,0.0
1542.0,-5339.0,27117.0,1.0
1526.0,-4994.0,26908.0,1.0
1524.0,-4706.0,26981.0,1.0
1509.0,-4379.0,26820.0,1.0
1503.0,-4080.0,26816.0,1.0
0.0,-2.0,14.0,0.0
1480.0,-3465.0,26648.0,1.0
1474.0,-3176.0,26683.0,1.0
1.0,-1.0,7.0,0.0
0.0,-1.0,10.0,0.0
1389.0,-2204.0,25588.0,0.0
2.0,-2.0,28.0,0.0
1.0,-2.0,25.0,0.0
1.0,0.0,12.0,0.0
2.0,-1.0,41.0,0.0
2.0,-1.0,45.0,0.0
2.0,-1.0,49.0,0.0
2.0,0.0,45.0,0.0
3.0,0.0,61.0,0.0
2.0,0.0,38.0,0.0
2.0,0.0,31.0,0.0
2.0,1.0,45.0,0.0
3.0,2.0,59.0,0.0
2.0,2.0,52.0,0.0
2.0,3.0,50.0,0.0
3.0,3.0,57.0,0.0
3.0,6.0,73.0,0.0
4.0,7.0,81.0,0.0
4.0,9.0,86.0,0.0
3.0,8.0,71.0,0.0
4.0,9.0,77.0,0.0
4.0,13.0,97.0,0.0
3.0,13.0,87.0,0.0
4.0,15.0,94.0,0.0
4.0,15.0,91.0,0.0
4.0,16.0,91.0,0.0
3.0,18.0,93.0,0.0
3.0,19.0,93.0,0.0
4.0,21.0,94.0,0.0
3.0,21.0,93.0,0.0
4.0,24.0,99.0,0.0
3.0,23.0,93.0,0.0
4.0,27.0,105.0,0.0
4.0,30.0,109.0,0.0
4.0,30.0,105.0,0.0
4.0,31.0,105.0,0.0
3.0,33.0,108.0,0.0
2.0,34.0,105.0,0.0
3.0,37.0,112.0,0.0
3.0,39.0,112.0,0.0
3.0,39.0,110.0,0.0
2.0,39.0,106.0,0.0
3.0,42.0,111.0,0.0
3.0,42.0,108.0,0.0
2.0,39.0,95.0,0.0
2.0,43.0,101.0,0.0
2.0,44.0,102.0,0.0
2.0,46.0,101.0,0.0
1.0,46.0,99.0,0.0
2.0,48.0,101.0,0.0
1.0,44.0,91.0,0.0
1.0,51.0,103.0,0.0
0.0,48.0,93.0,0.0
1.0,52.0,100.0,0.0
1.0,51.0,94.0,0.0
1.0,47.0,85.0,0.0
0.0,53.0,94.0,0.0
0.0,52.0,87.0,0.0
0.0,54.0,91.0,0.0
0.0,58.0,93.0,0.0
0.0,59.0,93.0,0.0
0.0,59.0,91.0,0.0
0.0,62.0,94.0,0.0
0.0,64.0,96.0,0.0
0.0,64.0,92.0,0.0
0.0,71.0,99.0,0.0
0.0,71.0,98.0,0.0
-1.0,77.0,103.0,0.0
-1.0,72.0,94.0,0.0
-1.0,78.0,101.0,0.0
-1.0,80.0,100.0,0.0
-2.0,85.0,105.0,0.0
-2.0,79.0,96.0,0.0
-2.0,82.0,97.0,0.0
-2.0,90.0,104.0,0.0
-3.0,94.0,106.0,0.0
-3.0,97.0,107.0,0.0
-3.0,97.0,105.0,0.0
-4.0,103.0,109.0,0.0
-5.0,110.0,115.0,0.0
-5.0,113.0,115.0,0.0
-5.0,113.0,112.0,0.0
-6.0,117.0,113.0,0.0
-15.0,-317.0,100.0,0.0
-14.0,-298.0,98.0,0.0
-14.0,-303.0,104.0,0.0
-13.0,-294.0,104.0,0.0
-12.0,-287.0,105.0,0.0
-12.0,-291.0,110.0,0.0
-11.0,-274.0,107.0,0.0
-11.0,-277.0,111.0,0.0
-10.0,-274.0,114.0,0.0
-9.0,-262.0,113.0,0.0
-9.0,-270.0,119.0,0.0
-8.0,-266.0,120.0,0.0
-8.0,-261.0,121.0,0.0
-8.0,-268.0,128.0,0.0
-7.0,-264.0,130.0,0.0
-7.0,-259.0,131.0,0.0
-5.0,-260.0,135.0,0.0
-6.0,-259.0,138.0,0.0
-6.0,-293.0,160.0,0.0
-5.0,-293.0,164.0,0.0
-5.0,-297.0,171.0,0.0
-4.0,-265.0,156.0,0.0
-3.0,-262.0,159.0,0.0
-2.0,-252.0,156.0,0.0
-2.0,-249.0,157.0,0.0
-1.0,-226.0,146.0,0.0
-1.0,-218.0,146.0,0.0
-1.0,-209.0,142.0,0.0
-1.0,-187.0,130.0,0.0
0.0,-190.0,136.0,0.0
0.0,-183.0,133.0,0.0
0.0,-170.0,127.0,0.0
0.0,-156.0,120.0,0.0
0.0,-152.0,118.0,0.0
0.0,-145.0,116.0,0.0
0.0,-134.0,109.0,0.0
0.0,-117.0,97.0,0.0
1.0,-122.0,104.0,0.0
1.0,-110.0,96.0,0.0
1.0,-96.0,86.0,0.0
2.0,-101.0,91.0,0.0
1.0,-78.0,73.0,0.0
2.0,-89.0,85.0,0.0
2.0,-86.0,83.0,0.0
416.0,-20026.0,19862.0,0.0
444.0,-19682.0,19948.0,0.0
471.0,-19321.0,20009.0,0.0
498.0,-18966.0,20072.0,0.0
514.0,-18319.0,19812.0,0.0
548.0,-18280.0,20202.0,0.0
567.0,-17802.0,20108.0,0.0
594.0,-17605.0,20322.0,0.0
619.0,-17354.0,20477.0,0.0
633.0,-16807.0,20270.0,0.0
662.0,-16716.0,20609.0,0.0
683.0,-16407.0,20683.0,0.0
704.0,-16127.0,20787.0,0.0
723.0,-15808.0,20837.0,0.0
742.0,-15516.0,20918.0,0.0
759.0,-15204.0,20967.0,0.0
779.0,-14948.0,21091.0,0.0
794.0,-14612.0,21097.0,0.0
810.0,-14316.0,21154.0,0.0
824.0,-14002.0,21180.0,0.0
841.0,-13760.0,21312.0,0.0
856.0,-13483.0,21388.0,0.0
869.0,-13185.0,21426.0,0.0
884.0,-12914.0,21501.0,0.0
895.0,-12616.0,21530.0,0.0
909.0,-12362.0,21629.0,0.0
921.0,-12088.0,21691.0,0.0
932.0,-11805.0,21734.0,0.0
943.0,-11530.0,21784.0,0.0
953.0,-11259.0,21840.0,0.0
964.0,-11008.0,21935.0,0.0
973.0,-10738.0,21987.0,0.0
982.0,-10470.0,22040.0,0.0
990.0,-10197.0,22078.0,0.0
997.0,-9933.0,22134.0,0.0
1005.0,-9678.0,22205.0,0.0
1012.0,-9415.0,22255.0,0.0
1020.0,-9159.0,22324.0,0.0
1026.0,-8905.0,22392.0,0.0
96.0,-806.0,2093.0,0.0
96.0,-779.0,2092.0,0.0
1255.0,-9795.0,27168.0,1.0
1258.0,-9461.0,27159.0,1.0
1266.0,-9184.0,27313.0,1.0
101.0,-701.0,2163.0,0.0
1252.0,-8425.0,26975.0,1.0
99.0,-640.0,2134.0,0.0
102.0,-634.0,2198.0,0.0
100.0,-594.0,2151.0,0.0
101.0,-578.0,2182.0,0.0
1230.0,-6741.0,26563.0,1.0
102.0,-533.0,2201.0,0.0
1225.0,-6129.0,26551.0,1.0
1225.0,-5843.0,26619.0,1.0
1068.0,-4846.0,23276.0,0.0
1066.0,-4590.0,23310.0,0.0
1067.0,-4346.0,23410.0,0.0
97.0,-374.0,2145.0,0.0
1061.0,-3834.0,23471.0,0.0
1056.0,-3572.0,23460.0,0.0
1055.0,-3326.0,23558.0,0.0
1051.0,-3075.0,23625.0,0.0
1048.0,-2823.0,23690.0,0.0
1044.0,-2568.0,23742.0,0.0
1.0,-3.0,31.0,0.0
1.0,-2.0,19.0,0.0
1.0,-2.0,25.0,0.0
1.0,-2.0,33.0,0.0
1.0,-2.0,33.0,0.0
2.0,-1.0,40.0,0.0
1.0,0.0,16.0,0.0
1.0,-1.0,34.0,0.0
2.0,0.0,35.0,0.0
2.0,0.0,49.0,0.0
2.0,0.0,53.0,0.0
3.0,1.0,67.0,0.0
1.0,0.0,34.0,0.0
2.0,2.0,66.0,0.0
2.0,3.0,65.0,0.0
2.0,3.0,60.0,0.0
2.0,4.0,62.0,0.0
2.0,6.0,73.0,0.0
3.0,7.0,78.0,0.0
3.0,7.0,72.0,0.0
3.0,10.0,90.0,0.0
3.0,11.0,87.0,0.0
3.0,13.0,93.0,0.0
3.0,14.0,95.0,0.0
3.0,15.0,99.0,0.0
2.0,16.0,92.0,0.0
3.0,19.0,109.0,0.0
3.0,19.0,100.0,0.0
3.0,20.0,99.0,0.0
3.0,22.0,105.0,0.0
2.0,22.0,96.0,0.0
3.0,28.0,120.0,0.0
3.0,28.0,114.0,0.0
3.0,29.0,109.0,0.0
3.0,31.0,113.0,0.0
2.0,34.0,119.0,0.0
3.0,34.0,113.0,0.0
2.0,35.0,115.0,0.0
3.0,40.0,126.0,0.0
3.0,41.0,122.0,0.0
2.0,40.0,117.0,0.0
2.0,42.0,117.0,0.0
1.0,40.0,105.0,0.0
2.0,41.0,108.0,0.0
1.0,46.0,115.0,0.0
1.0,44.0,108.0,0.0
1.0,46.0,109.0,0.0
1.0,47.0,108.0,0.0
1.0,45.0,100.0,0.0
0.0,49.0,108.0,0.0
0.0,54.0,113.0,0.0
0.0,50.0,103.0,0.0
0.0,50.0,101.0,0.0
0.0,54.0,105.0,0.0
0.0,50.0,95.0,0.0
0.0,54.0,100.0,0.0
0.0,52.0,93.0,0.0
0.0,49.0,87.0,0.0
0.0,58.0,100.0,0.0
0.0,56.0,94.0,0.0
0.0,62.0,101.0,0.0
-1.0,62.0,100.0,0.0
-1.0,64.0,99.0,0.0
-1.0,66.0,101.0,0.0
-1.0,70.0,104.0,0.0
-1.0,69.0,99.0,0.0
-2.0,69.0,97.0,0.0
-1.0,73.0,100.0,0.0
-2.0,73.0,98.0,0.0
-2.0,71.0,93.0,0.0
-2.0,74.0,95.0,0.0
-2.0,81.0,102.0,0.0
-3.0,84.0,104.0,0.0
-3.0,84.0,102.0,0.0
-3.0,88.0,104.0,0.0
-3.0,89.0,103.0,0.0
-4.0,95.0,108.0,0.0
-4.0,100.0,110.0,0.0
-5.0,103.0,112.0,0.0
-5.0,109.0,116.0,0.0
-6.0,109.0,114.0,0.0
-6.0,112.0,114.0,0.0
-6.0,116.0,115.0,0.0
-6.0,122.0,119.0,0.0
-23.0,-344.0,110.0,0.0
-22.0,-327.0,108.0,0.0
-21.0,-328.0,112.0,0.0
-20.0,-306.0,109.0,0.0
-19.0,-305.0,112.0,0.0
-18.0,-296.0,112.0,0.0
-17.0,-294.0,115.0,0.0
-17.0,-288.0,117.0,0.0
-16.0,-286.0,119.0,0.0
-16.0,-279.0,119.0,0.0
-15.0,-286.0,126.0,0.0
-14.0,-278.0,127.0,0.0
-14.0,-274.0,128.0,0.0
-14.0,-280.0,134.0,0.0
-14.0,-281.0,138.0,0.0
-13.0,-281.0,142.0,0.0
-12.0,-272.0,141.0,0.0
-12.0,-287.0,154.0,0.0
-13.0,-304.0,167.0,0.0
-12.0,-299.0,168.0,0.0
-12.0,-299.0,172.0,0.0
-10.0,-277.0,164.0,0.0
-9.0,-261.0,159.0,0.0
-8.0,-253.0,157.0,0.0
-8.0,-232.0,148.0,0.0
-7.0,-230.0,150.0,0.0
-7.0,-212.0,141.0,0.0
-6.0,-218.0,148.0,0.0
-5.0,-197.0,138.0,0.0
-5.0,-183.0,131.0,0.0
-4.0,-173.0,127.0,0.0
-3.0,-155.0,117.0,0.0
-3.0,-152.0,116.0,0.0
-3.0,-151.0,118.0,0.0
-2.0,-140.0,112.0,0.0
-2.0,-128.0,105.0,0.0
-1.0,-123.0,103.0,0.0
-1.0,-125.0,107.0,0.0
-2.0,-121.0,106.0,0.0
-1.0,-112.0,99.0,0.0
0.0,-89.0,82.0,0.0
0.0,-102.0,95.0,0.0
-241.0,-21816.0,20773.0,0.0
-206.0,-21368.0,20790.0,0.0
-173.0,-21053.0,20929.0,0.0
-140.0,-20602.0,20927.0,0.0
-108.0,-20100.0,20862.0,0.0
-76.0,-19237.0,20403.0,0.0
-46.0,-18309.0,19844.0,0.0
-20.0,-18532.0,20524.0,0.0
6.0,-18303.0,20716.0,0.0
33.0,-18416.0,21303.0,0.0
60.0,-18120.0,21424.0,0.0
84.0,-17769.0,21473.0,0.0
109.0,-17450.0,21558.0,0.0
131.0,-16962.0,21423.0,0.0
152.0,-16398.0,21177.0,0.0
177.0,-16406.0,21667.0,0.0
198.0,-16098.0,21743.0,0.0
219.0,-15778.0,21798.0,0.0
238.0,-15473.0,21870.0,0.0
257.0,-15145.0,21904.0,0.0
273.0,-14694.0,21751.0,0.0
293.0,-14523.0,22005.0,0.0
306.0,-14039.0,21781.0,0.0
327.0,-13939.0,22146.0,0.0
342.0,-13633.0,22189.0,0.0
358.0,-13345.0,22254.0,0.0
372.0,-13051.0,22308.0,0.0
385.0,-12751.0,22343.0,0.0
398.0,-12427.0,22335.0,0.0
412.0,-12181.0,22459.0,0.0
424.0,-11899.0,22517.0,0.0
436.0,-11621.0,22577.0,0.0
447.0,-11335.0,22617.0,0.0
447.0,-10792.0,22128.0,0.0
463.0,-10671.0,22491.0,0.0
465.0,-10255.0,22232.0,0.0
486.0,-10232.0,22829.0,0.0
496.0,-9976.0,22917.0,0.0
504.0,-9712.0,22988.0,0.0
508.0,-9386.0,22903.0,0.0
506.0,-8962.0,22559.0,0.0
524.0,-8899.0,23125.0,0.0
530.0,-8635.0,23183.0,0.0
537.0,-8387.0,23284.0,0.0
527.0,-7908.0,22722.0,0.0
536.0,-7701.0,22922.0,0.0
537.0,-7411.0,22873.0,0.0
541.0,-7150.0,22911.0,0.0
556.0,-7063.0,23521.0,0.0
560.0,-6812.0,23609.0,0.0
562.0,-6550.0,23656.0,0.0
564.0,-6294.0,23725.0,0.0
566.0,-6045.0,23822.0,0.0
567.0,-5783.0,23868.0,0.0
567.0,-5520.0,23914.0,0.0
567.0,-5265.0,23980.0,0.0
568.0,-5018.0,24097.0,0.0
567.0,-4756.0,24144.0,0.0
560.0,-4450.0,23950.0,0.0
548.0,-4117.0,23576.0,0.0
548.0,-3879.0,23727.0,0.0
541.0,-3597.0,23594.0,0.0
556.0,-3456.0,24445.0,0.0
553.0,-3203.0,24563.0,0.0
548.0,-2938.0,24602.0,0.0
1.0,-3.0,23.0,0.0
539.0,-2416.0,24768.0,0.0
1.0,-3.0,35.0,0.0
0.0,-2.0,29.0,0.0
0.0,-1.0,22.0,0.0
1.0,-2.0,40.0,0.0
0.0,-2.0,50.0,0.0
1.0,-1.0,54.0,0.0
1.0,-1.0,57.0,0.0
1.0,0.0,54.0,0.0
1.0,0.0,58.0,0.0
2.0,0.0,70.0,0.0
1.0,1.0,84.0,0.0
1.0,2.0,72.0,0.0
1.0,3.0,78.0,0.0
1.0,3.0,76.0,0.0
1.0,4.0,81.0,0.0
1.0,6.0,79.0,0.0
1.0,6.0,89.0,0.0
1.0,9.0,92.0,0.0
1.0,11.0,108.0,0.0
1.0,11.0,93.0,0.0
1.0,12.0,98.0,0.0
1.0,15.0,106.0,0.0
1.0,14.0,94.0,0.0
1.0,16.0,105.0,0.0
1.0,17.0,102.0,0.0
1.0,20.0,108.0,0.0
1.0,21.0,108.0,0.0
1.0,24.0,119.0,0.0
1.0,25.0,117.0,0.0
0.0,26.0,114.0,0.0
0.0,31.0,130.0,0.0
0.0,31.0,126.0,0.0
0.0,35.0,132.0,0.0
0.0,34.0,125.0,0.0
0.0,40.0,141.0,0.0
0.0,39.0,131.0,0.0
0.0,39.0,127.0,0.0
0.0,41.0,130.0,0.0
0.0,45.0,134.0,0.0
0.0,44.0,130.0,0.0
0.0,44.0,125.0,0.0
0.0,49.0,135.0,0.0
0.0,48.0,127.0,0.0
0.0,47.0,121.0,0.0
0.0,49.0,121.0,0.0
-1.0,50.0,119.0,0.0
-1.0,56.0,130.0,0.0
-1.0,57.0,127.0,0.0
-1.0,56.0,121.0,0.0
-1.0,57.0,121.0,0.0
-1.0,58.0,120.0,0.0
-2.0,54.0,109.0,0.0
-2.0,58.0,114.0,0.0
-2.0,62.0,118.0,0.0
-2.0,61.0,112.0,0.0
-3.0,62.0,112.0,0.0
-2.0,61.0,106.0,0.0
-3.0,65.0,111.0,0.0
-3.0,65.0,108.0,0.0
-3.0,71.0,116.0,0.0
-4.0,71.0,114.0,0.0
-4.0,73.0,113.0,0.0
-4.0,69.0,105.0,0.0
-4.0,73.0,109.0,0.0
-5.0,80.0,116.0,0.0
-5.0,81.0,116.0,0.0
-4.0,78.0,108.0,0.0
-5.0,85.0,116.0,0.0
-5.0,83.0,111.0,0.0
-6.0,90.0,117.0,0.0
-6.0,90.0,115.0,0.0
-6.0,93.0,117.0,0.0
-7.0,95.0,115.0,0.0
-6.0,95.0,113.0,0.0
-7.0,100.0,115.0,0.0
-8.0,109.0,124.0,0.0
-8.0,113.0,126.0,0.0
-9.0,113.0,123.0,0.0
-9.0,112.0,119.0,0.0
-10.0,120.0,126.0,0.0
-10.0,119.0,121.0,0.0
-10.0,126.0,126.0,0.0
-11.0,122.0,119.0,0.0
-25.0,-325.0,104.0,0.0
-24.0,-324.0,108.0,0.0
-22.0,-304.0,105.0,0.0
-22.0,-301.0,107.0,0.0
-22.0,-301.0,111.0,0.0
-20.0,-296.0,113.0,0.0
-20.0,-289.0,113.0,0.0
-19.0,-291.0,118.0,0.0
-19.0,-288.0,120.0,0.0
-18.0,-277.0,119.0,0.0
-17.0,-274.0,122.0,0.0
-17.0,-280.0,128.0,0.0
-16.0,-276.0,130.0,0.0
-17.0,-274.0,132.0,0.0
-16.0,-276.0,137.0,0.0
-16.0,-274.0,139.0,0.0
-15.0,-269.0,140.0,0.0
-15.0,-288.0,154.0,0.0
-16.0,-310.0,170.0,0.0
-16.0,-310.0,174.0,0.0
-15.0,-285.0,164.0,0.0
-13.0,-270.0,160.0,0.0
-12.0,-263.0,160.0,0.0
-11.0,-231.0,143.0,0.0
-11.0,-229.0,146.0,0.0
-9.0,-217.0,142.0,0.0
-9.0,-210.0,140.0,0.0
-8.0,-198.0,135.0,0.0
-7.0,-175.0,122.0,0.0
-6.0,-181.0,129.0,0.0
-5.0,-162.0,118.0,0.0
-6.0,-153.0,115.0,0.0
-5.0,-157.0,120.0,0.0
-4.0,-131.0,102.0,0.0
-4.0,-140.0,112.0,0.0
-3.0,-125.0,102.0,0.0
-3.0,-119.0,99.0,0.0
-2.0,-109.0,94.0,0.0
-2.0,-108.0,94.0,0.0
-2.0,-112.0,101.0,0.0
-626.0,-22576.0,20609.0,0.0
-2.0,-90.0,84.0,0.0
-548.0,-21728.0,20709.0,0.0
-513.0,-21354.0,20797.0,0.0
-478.0,-20969.0,20867.0,0.0
-444.0,-20606.0,20953.0,0.0
-412.0,-20255.0,21046.0,0.0
-379.0,-19873.0,21098.0,0.0
-348.0,-19488.0,21142.0,0.0
-318.0,-19158.0,21238.0,0.0
-289.0,-18790.0,21287.0,0.0
-261.0,-18456.0,21369.0,0.0
-234.0,-18100.0,21418.0,0.0
-207.0,-17732.0,21448.0,0.0
-181.0,-17393.0,21506.0,0.0
-157.0,-17066.0,21573.0,0.0
-133.0,-16726.0,21620.0,0.0
-110.0,-16401.0,21678.0,0.0
-88.0,-16064.0,21714.0,0.0
-66.0,-15757.0,21789.0,0.0
-45.0,-15436.0,21836.0,0.0
-25.0,-15072.0,21817.0,0.0
-6.0,-14780.0,21896.0,0.0
12.0,-14473.0,21947.0,0.0
29.0,-14169.0,21999.0,0.0
47.0,-13895.0,22095.0,0.0
63.0,-13599.0,22149.0,0.0
79.0,-13312.0,22215.0,0.0
95.0,-13033.0,22292.0,0.0
109.0,-12737.0,22336.0,0.0
123.0,-12409.0,22317.0,0.0
137.0,-12157.0,22429.0,0.0
150.0,-11882.0,22498.0,0.0
163.0,-11622.0,22593.0,0.0
174.0,-11324.0,22610.0,0.0
185.0,-11031.0,22632.0,0.0
196.0,-10771.0,22717.0,0.0
206.0,-10513.0,22804.0,0.0
215.0,-10248.0,22875.0,0.0
224.0,-9962.0,22898.0,0.0
232.0,-9681.0,22925.0,0.0
241.0,-9441.0,23047.0,0.0
248.0,-9171.0,23097.0,0.0
255.0,-8902.0,23141.0,0.0
261.0,-8630.0,23179.0,0.0
268.0,-8390.0,23303.0,0.0
272.0,-8116.0,23326.0,0.0
278.0,-7861.0,23406.0,0.0
282.0,-7595.0,23449.0,0.0
285.0,-7320.0,23461.0,0.0
289.0,-7079.0,23581.0,0.0
293.0,-6818.0,23636.0,0.0
295.0,-6564.0,23714.0,0.0
296.0,-6303.0,23766.0,0.0
298.0,-6052.0,23853.0,0.0
300.0,-5789.0,23897.0,0.0
300.0,-5525.0,23933.0,0.0
300.0,-5276.0,24033.0,0.0
299.0,-5020.0,24103.0,0.0
299.0,-4760.0,24160.0,0.0
297.0,-4503.0,24231.0,0.0
295.0,-4246.0,24306.0,0.0
293.0,-3988.0,24380.0,0.0
287.0,-3696.0,24238.0,0.0
287.0,-3466.0,24499.0,0.0
283.0,-3206.0,24572.0,0.0
1.0,-5.0,42.0,0.0
274.0,-2684.0,24712.0,0.0
0.0,-4.0,44.0,0.0
0.0,-2.0,24.0,0.0
0.0,-2.0,29.0,0.0
0.0,-3.0,44.0,0.0
1.0,-2.0,39.0,0.0
1.0,-2.0,39.0,0.0
0.0,0.0,22.0,0.0
1.0,0.0,35.0,0.0
0.0,-1.0,41.0,0.0
0.0,0.0,60.0,0.0
0.0,0.0,58.0,0.0
1.0,0.0,79.0,0.0
0.0,2.0,64.0,0.0
1.0,2.0,72.0,0.0
0.0,3.0,81.0,0.0
0.0,3.0,63.0,0.0
0.0,5.0,84.0,0.0
1.0,5.0,72.0,0.0
0.0,8.0,94.0,0.0
0.0,8.0,84.0,0.0
0.0,11.0,92.0,0.0
0.0,12.0,97.0,0.0
0.0,14.0,105.0,0.0
0.0,13.0,88.0,0.0
0.0,14.0,94.0,0.0
0.0,16.0,92.0,0.0
0.0,18.0,104.0,0.0
0.0,22.0,113.0,0.0
0.0,26.0,127.0,0.0
0.0,25.0,117.0,0.0
0.0,29.0,129.0,0.0
0.0,30.0,129.0,0.0
0.0,31.0,122.0,0.0
-1.0,31.0,120.0,0.0
-1.0,35.0,128.0,0.0
-1.0,34.0,121.0,0.0
-1.0,38.0,128.0,0.0
0.0,36.0,119.0,0.0
-1.0,41.0,129.0,0.0
-1.0,41.0,124.0,0.0
-1.0,44.0,129.0,0.0
-1.0,45.0,126.0,0.0
-1.0,42.0,114.0,0.0
-2.0,52.0,136.0,0.0
-1.0,49.0,126.0,0.0
-1.0,49.0,121.0,0.0
-2.0,54.0,129.0,0.0
-2.0,51.0,118.0,0.0
-3.0,56.0,125.0,0.0
-3.0,59.0,129.0,0.0
-2.0,56.0,119.0,0.0
-3.0,56.0,115.0,0.0
-3.0,53.0,108.0,0.0
-3.0,60.0,118.0,0.0
-3.0,56.0,106.0,0.0
-4.0,60.0,112.0,0.0
-3.0,59.0,106.0,0.0
-3.0,59.0,105.0,0.0
-4.0,66.0,114.0,0.0
-4.0,58.0,99.0,0.0
-4.0,65.0,106.0,0.0
-5.0,71.0,113.0,0.0
-4.0,63.0,98.0,0.0
-5.0,69.0,105.0,0.0
-5.0,72.0,107.0,0.0
-6.0,79.0,115.0,0.0
-5.0,77.0,109.0,0.0
-5.0,75.0,104.0,0.0
-7.0,84.0,113.0,0.0
-7.0,85.0,113.0,0.0
-8.0,89.0,115.0,0.0
-7.0,89.0,114.0,0.0
-8.0,93.0,115.0,0.0
-8.0,94.0,114.0,0.0
-9.0,99.0,116.0,0.0
-8.0,98.0,114.0,0.0
-9.0,102.0,116.0,0.0
-9.0,105.0,117.0,0.0
-9.0,106.0,116.0,0.0
-10.0,109.0,116.0,0.0
-10.0,113.0,118.0,0.0
-11.0,118.0,121.0,0.0
-11.0,118.0,119.0,0.0
-12.0,121.0,118.0,0.0
-32.0,-334.0,108.0,0.0
-31.0,-325.0,108.0,0.0
-29.0,-306.0,105.0,0.0
-28.0,-306.0,109.0,0.0
-28.0,-304.0,112.0,0.0
-28.0,-308.0,117.0,0.0
-26.0,-295.0,116.0,0.0
-25.0,-282.0,115.0,0.0
-25.0,-285.0,119.0,0.0
-24.0,-288.0,124.0,0.0
-24.0,-279.0,124.0,0.0
-23.0,-276.0,126.0,0.0
-22.0,-273.0,128.0,0.0
-23.0,-279.0,135.0,0.0
-22.0,-275.0,137.0,0.0
-20.0,-265.0,135.0,0.0
-21.0,-282.0,148.0,0.0
-23.0,-304.0,163.0,0.0
-24.0,-307.0,169.0,0.0
-22.0,-291.0,164.0,0.0
-21.0,-284.0,164.0,0.0
-19.0,-260.0,155.0,0.0
-17.0,-248.0,151.0,0.0
-16.0,-228.0,141.0,0.0
-14.0,-217.0,138.0,0.0
-14.0,-217.0,142.0,0.0
-13.0,-194.0,130.0,0.0
-12.0,-187.0,128.0,0.0
-10.0,-168.0,118.0,0.0
-10.0,-161.0,115.0,0.0
-8.0,-149.0,109.0,0.0
-9.0,-149.0,112.0,0.0
-8.0,-140.0,108.0,0.0
-7.0,-124.0,97.0,0.0
-7.0,-129.0,103.0,0.0
-7.0,-122.0,101.0,0.0
-6.0,-106.0,89.0,0.0
-1384.0,-23751.0,20355.0,0.0
-1338.0,-23347.0,20446.0,0.0
-5.0,-103.0,93.0,0.0
-1251.0,-22526.0,20601.0,0.0
-1209.0,-22142.0,20692.0,0.0
-1167.0,-21731.0,20750.0,0.0
-1127.0,-21331.0,20812.0,0.0
-1090.0,-20960.0,20894.0,0.0
-1051.0,-20569.0,20951.0,0.0
-1015.0,-20186.0,21009.0,0.0
-982.0,-19853.0,21112.0,0.0
-947.0,-19467.0,21154.0,0.0
-913.0,-19092.0,21200.0,0.0
-881.0,-18747.0,21274.0,0.0
-851.0,-18395.0,21331.0,0.0
-821.0,-18059.0,21405.0,0.0
-793.0,-17730.0,21479.0,0.0
-762.0,-17353.0,21492.0,0.0
-736.0,-17041.0,21575.0,0.0
-711.0,-16726.0,21652.0,0.0
-686.0,-16400.0,21709.0,0.0
-660.0,-16072.0,21757.0,0.0
-637.0,-15747.0,21806.0,0.0
-614.0,-15427.0,21855.0,0.0
-592.0,-15137.0,21942.0,0.0
-570.0,-14808.0,21966.0,0.0
-550.0,-14503.0,22023.0,0.0
-529.0,-14179.0,22044.0,0.0
-512.0,-13907.0,22142.0,0.0
-493.0,-13610.0,22196.0,0.0
-475.0,-13303.0,22227.0,0.0
-458.0,-13002.0,22268.0,0.0
-442.0,-12726.0,22343.0,0.0
-427.0,-12427.0,22377.0,0.0
-413.0,-12164.0,22469.0,0.0
-397.0,-11852.0,22469.0,0.0
-384.0,-11585.0,22547.0,0.0
-372.0,-11348.0,22683.0,0.0
-359.0,-11030.0,22653.0,0.0
-347.0,-10766.0,22732.0,0.0
-337.0,-10496.0,22794.0,0.0
-326.0,-10233.0,22865.0,0.0
-317.0,-9953.0,22898.0,0.0
-308.0,-9697.0,22984.0,0.0
-299.0,-9437.0,23058.0,0.0
-291.0,-9168.0,23108.0,0.0
-284.0,-8901.0,23160.0,0.0
-277.0,-8644.0,23236.0,0.0
-270.0,-8365.0,23249.0,0.0
-264.0,-8111.0,23330.0,0.0
-259.0,-7857.0,23409.0,0.0
-254.0,-7588.0,23441.0,0.0
-250.0,-7338.0,23532.0,0.0
-247.0,-7078.0,23587.0,0.0
-244.0,-6819.0,23649.0,0.0
-240.0,-6561.0,23707.0,0.0
-239.0,-6304.0,23771.0,0.0
-237.0,-6051.0,23857.0,0.0
-236.0,-5793.0,23919.0,0.0
-235.0,-5531.0,23957.0,0.0
-236.0,-5281.0,24052.0,0.0
-236.0,-5015.0,24078.0,0.0
-238.0,-4767.0,24188.0,0.0
-240.0,-4502.0,24216.0,0.0
-242.0,-4247.0,24299.0,0.0
-245.0,-3988.0,24359.0,0.0
-247.0,-3731.0,24437.0,0.0
-252.0,-3472.0,24509.0,0.0
-256.0,-3213.0,24594.0,0.0
-261.0,-2951.0,24646.0,0.0
-266.0,-2685.0,24672.0,0.0
-273.0,-2433.0,24850.0,0.0
-279.0,-2165.0,24870.0,0.0
0.0,-3.0,43.0,0.0
0.0,-3.0,50.0,0.0
0.0,-3.0,41.0,0.0
0.0,-2.0,49.0,0.0
0.0,-1.0,48.0,0.0
0.0,-1.0,34.0,0.0
0.0,0.0,40.0,0.0
0.0,0.0,44.0,0.0
0.0,0.0,42.0,0.0
0.0,0.0,52.0,0.0
0.0,2.0,60.0,0.0
0.0,2.0,66.0,0.0
0.0,4.0,85.0,0.0
0.0,3.0,69.0,0.0
0.0,4.0,70.0,0.0
0.0,6.0,72.0,0.0
0.0,7.0,73.0,0.0
-1.0,9.0,92.0,0.0
-1.0,8.0,79.0,0.0
-1.0,10.0,82.0,0.0
-1.0,12.0,90.0,0.0
-1.0,12.0,83.0,0.0
-2.0,17.0,109.0,0.0
-1.0,16.0,95.0,0.0
-2.0,20.0,110.0,0.0
-2.0,22.0,117.0,0.0
-2.0,23.0,115.0,0.0
-2.0,26.0,121.0,0.0
-3.0,30.0,131.0,0.0
-3.0,29.0,124.0,0.0
-3.0,29.0,119.0,0.0
-3.0,32.0,124.0,0.0
-3.0,33.0,122.0,0.0
-3.0,33.0,116.0,0.0
-4.0,39.0,134.0,0.0
-4.0,42.0,136.0,0.0
-4.0,40.0,125.0,0.0
-4.0,43.0,130.0,0.0
-4.0,44.0,128.0,0.0
-4.0,46.0,129.0,0.0
-4.0,46.0,126.0,0.0
-4.0,47.0,126.0,0.0
-5.0,48.0,123.0,0.0
-5.0,51.0,125.0,0.0
-5.0,54.0,131.0,0.0
-5.0,54.0,127.0,0.0
-5.0,52.0,116.0,0.0
-5.0,53.0,116.0,0.0
-5.0,54.0,115.0,0.0
-6.0,59.0,122.0,0.0
-5.0,60.0,121.0,0.0
-6.0,61.0,120.0,0.0
-6.0,59.0,114.0,0.0
-6.0,63.0,118.0,0.0
-6.0,60.0,108.0,0.0
-6.0,61.0,107.0,0.0
-7.0,68.0,116.0,0.0
-6.0,62.0,105.0,0.0
-6.0,62.0,102.0,0.0
-6.0,66.0,106.0,0.0
-7.0,67.0,106.0,0.0
-7.0,74.0,113.0,0.0
-7.0,68.0,102.0,0.0
-8.0,75.0,109.0,0.0
-9.0,79.0,112.0,0.0
-8.0,76.0,107.0,0.0
-10.0,87.0,118.0,0.0
-9.0,87.0,116.0,0.0
-10.0,91.0,118.0,0.0
-9.0,85.0,108.0,0.0
-10.0,92.0,114.0,0.0
-11.0,96.0,116.0,0.0
-11.0,94.0,112.0,0.0
-11.0,96.0,112.0,0.0
-11.0,100.0,114.0,0.0
-12.0,104.0,115.0,0.0
-12.0,107.0,117.0,0.0
-13.0,107.0,115.0,0.0
-14.0,114.0,119.0,0.0
-14.0,116.0,120.0,0.0
-14.0,120.0,120.0,0.0
-15.0,120.0,117.0,0.0
-37.0,-349.0,113.0,0.0
-36.0,-341.0,114.0,0.0
-34.0,-329.0,113.0,0.0
-33.0,-322.0,115.0,0.0
-32.0,-324.0,120.0,0.0
-31.0,-312.0,120.0,0.0
-31.0,-309.0,122.0,0.0
-30.0,-312.0,127.0,0.0
-29.0,-297.0,124.0,0.0
-28.0,-289.0,125.0,0.0
-27.0,-286.0,126.0,0.0
-27.0,-285.0,131.0,0.0
-27.0,-291.0,137.0,0.0
-26.0,-276.0,133.0,0.0
-26.0,-281.0,140.0,0.0
-25.0,-285.0,145.0,0.0
-26.0,-298.0,156.0,0.0
-27.0,-312.0,168.0,0.0
-27.0,-314.0,173.0,0.0
-26.0,-301.0,170.0,0.0
-23.0,-283.0,164.0,0.0
-21.0,-258.0,153.0,0.0
-20.0,-253.0,154.0,0.0
-19.0,-237.0,148.0,0.0
-18.0,-217.0,138.0,0.0
-18.0,-223.0,146.0,0.0
-16.0,-213.0,143.0,0.0
-15.0,-199.0,136.0,0.0
-13.0,-181.0,126.0,0.0
-12.0,-166.0,119.0,0.0
-11.0,-157.0,115.0,0.0
-12.0,-164.0,124.0,0.0
-11.0,-150.0,116.0,0.0
-10.0,-147.0,115.0,0.0
-9.0,-135.0,109.0,0.0
-1803.0,-24602.0,20199.0,0.0
-1751.0,-24166.0,20280.0,0.0
-1701.0,-23730.0,20352.0,0.0
-1654.0,-23315.0,20435.0,0.0
-1608.0,-22916.0,20525.0,0.0
-1562.0,-22503.0,20596.0,0.0
-1520.0,-22126.0,20694.0,0.0
-1477.0,-21715.0,20751.0,0.0
-1435.0,-21308.0,20805.0,0.0
-1397.0,-20959.0,20910.0,0.0
-1354.0,-20529.0,20925.0,0.0
-1317.0,-20164.0,21001.0,0.0
-1281.0,-19806.0,21078.0,0.0
-1247.0,-19468.0,21171.0,0.0
-1212.0,-19103.0,21227.0,0.0
-1178.0,-18730.0,21269.0,0.0
-1147.0,-18395.0,21347.0,0.0
-1115.0,-18039.0,21396.0,0.0
-1084.0,-17691.0,21446.0,0.0
-1056.0,-17378.0,21536.0,0.0
-1027.0,-17038.0,21586.0,0.0
-1000.0,-16717.0,21654.0,0.0
-973.0,-16382.0,21699.0,0.0
-947.0,-16061.0,21756.0,0.0
-922.0,-15733.0,21801.0,0.0
-899.0,-15429.0,21872.0,0.0
-877.0,-15142.0,21964.0,0.0
-851.0,-14780.0,21939.0,0.0
-831.0,-14500.0,22031.0,0.0
-811.0,-14194.0,22082.0,0.0
-790.0,-13888.0,22124.0,0.0
-773.0,-13621.0,22228.0,0.0
-754.0,-13318.0,22266.0,0.0
-736.0,-13012.0,22297.0,0.0
-719.0,-12726.0,22356.0,0.0
-702.0,-12435.0,22402.0,0.0
-688.0,-12161.0,22476.0,0.0
-674.0,-11883.0,22537.0,0.0
-659.0,-11603.0,22592.0,0.0
-645.0,-11320.0,22637.0,0.0
-632.0,-11047.0,22700.0,0.0
-620.0,-10765.0,22738.0,0.0
-609.0,-10501.0,22812.0,0.0
-598.0,-10227.0,22861.0,0.0
-587.0,-9944.0,22889.0,0.0
-578.0,-9687.0,22968.0,0.0
-569.0,-9427.0,23044.0,0.0
-562.0,-9170.0,23122.0,0.0
-553.0,-8900.0,23164.0,0.0
-547.0,-8649.0,23254.0,0.0
-539.0,-8379.0,23294.0,0.0
-534.0,-8115.0,23347.0,0.0
-529.0,-7858.0,23416.0,0.0
-524.0,-7605.0,23501.0,0.0
-519.0,-7337.0,23533.0,0.0
-515.0,-7077.0,23589.0,0.0
-512.0,-6820.0,23656.0,0.0
-508.0,-6548.0,23666.0,0.0
-507.0,-6299.0,23758.0,0.0
-504.0,-6037.0,23802.0,0.0
-504.0,-5786.0,23891.0,0.0
-504.0,-5523.0,23928.0,0.0
-504.0,-5272.0,24009.0,0.0
-506.0,-5021.0,24103.0,0.0
-506.0,-4765.0,24170.0,0.0
-508.0,-4504.0,24217.0,0.0
-511.0,-4242.0,24263.0,0.0
-514.0,-3989.0,24358.0,0.0
-518.0,-3730.0,24423.0,0.0
-522.0,-3472.0,24500.0,0.0
-526.0,-3212.0,24557.0,0.0
-531.0,-2952.0,24637.0,0.0
-537.0,-2690.0,24695.0,0.0
-543.0,-2426.0,24746.0,0.0
-550.0,-2164.0,24820.0,0.0
0.0,-3.0,37.0,0.0
0.0,-3.0,49.0,0.0
0.0,-3.0,55.0,0.0
-1.0,-3.0,72.0,0.0
-1.0,-2.0,71.0,0.0
-1.0,-1.0,61.0,0.0
-1.0,-1.0,65.0,0.0
0.0,0.0,59.0,0.0
-1.0,0.0,62.0,0.0
-2.0,1.0,86.0,0.0
-1.0,1.0,76.0,0.0
-1.0,3.0,80.0,0.0
-2.0,4.0,87.0,0.0
-1.0,4.0,77.0,0.0
-1.0,7.0,93.0,0.0
-2.0,7.0,88.0,0.0
-2.0,8.0,94.0,0.0
-2.0,9.0,95.0,0.0
-2.0,11.0,101.0,0.0
-2.0,12.0,103.0,0.0
-3.0,16.0,119.0,0.0
-3.0,17.0,115.0,0.0
-3.0,19.0,119.0,0.0
-3.0,20.0,123.0,0.0
-3.0,21.0,117.0,0.0
-3.0,23.0,117.0,0.0
-4.0,24.0,123.0,0.0
-4.0,28.0,130.0,0.0
-4.0,29.0,126.0,0.0
-5.0,32.0,135.0,0.0
-4.0,31.0,126.0,0.0
-5.0,33.0,129.0,0.0
-4.0,35.0,127.0,0.0
-5.0,40.0,144.0,0.0
-6.0,44.0,149.0,0.0
-5.0,39.0,126.0,0.0
-6.0,48.0,148.0,0.0
-7.0,48.0,145.0,0.0
-6.0,48.0,140.0,0.0
-7.0,51.0,145.0,0.0
-6.0,51.0,138.0,0.0
-7.0,52.0,137.0,0.0
-7.0,53.0,133.0,0.0
-7.0,59.0,146.0,0.0
-7.0,58.0,138.0,0.0
-7.0,61.0,142.0,0.0
-7.0,62.0,141.0,0.0
-8.0,64.0,139.0,0.0
-8.0,64.0,135.0,0.0
-8.0,64.0,133.0,0.0
-8.0,65.0,131.0,0.0
-9.0,68.0,134.0,0.0
-9.0,70.0,134.0,0.0
-8.0,66.0,121.0,0.0
-8.0,65.0,118.0,0.0
-9.0,69.0,121.0,0.0
-8.0,68.0,117.0,0.0
-8.0,71.0,120.0,0.0
-9.0,72.0,118.0,0.0
-9.0,73.0,117.0,0.0
-10.0,77.0,120.0,0.0
-10.0,80.0,122.0,0.0
-9.0,79.0,117.0,0.0
-10.0,80.0,117.0,0.0
-10.0,84.0,119.0,0.0
-11.0,87.0,121.0,0.0
-11.0,91.0,124.0,0.0
-11.0,89.0,118.0,0.0
-12.0,95.0,124.0,0.0
-12.0,95.0,120.0,0.0
-13.0,101.0,125.0,0.0
-13.0,100.0,122.0,0.0
-13.0,100.0,120.0,0.0
-14.0,105.0,123.0,0.0
-14.0,108.0,123.0,0.0
-16.0,116.0,129.0,0.0
-15.0,116.0,127.0,0.0
-15.0,112.0,120.0,0.0
-16.0,122.0,128.0,0.0
-16.0,122.0,125.0,0.0
-17.0,128.0,130.0,0.0
-17.0,127.0,125.0,0.0
-41.0,-328.0,106.0,0.0
-39.0,-318.0,107.0,0.0
-39.0,-319.0,111.0,0.0
-38.0,-308.0,111.0,0.0
-37.0,-303.0,112.0,0.0
-35.0,-295.0,113.0,0.0
-35.0,-295.0,116.0,0.0
-33.0,-282.0,115.0,0.0
-33.0,-280.0,118.0,0.0
-32.0,-274.0,119.0,0.0
-31.0,-268.0,119.0,0.0
-31.0,-269.0,124.0,0.0
-30.0,-264.0,124.0,0.0
-30.0,-267.0,129.0,0.0
-31.0,-276.0,137.0,0.0
-31.0,-276.0,141.0,0.0
-32.0,-295.0,154.0,0.0
-33.0,-296.0,160.0,0.0
-31.0,-289.0,160.0,0.0
-31.0,-282.0,160.0,0.0
-27.0,-255.0,148.0,0.0
-26.0,-245.0,146.0,0.0
-24.0,-230.0,140.0,0.0
-23.0,-220.0,138.0,0.0
-21.0,-201.0,128.0,0.0
-19.0,-191.0,125.0,0.0
-18.0,-173.0,116.0,0.0
-16.0,-160.0,111.0,0.0
-15.0,-156.0,109.0,0.0
-16.0,-155.0,112.0,0.0
-13.0,-132.0,97.0,0.0
-14.0,-146.0,109.0,0.0
-13.0,-137.0,106.0,0.0
-190.0,-1890.0,1486.0,0.0
-2498.0,-24954.0,20070.0,0.0
-2449.0,-24580.0,20208.0,0.0
-2397.0,-24181.0,20319.0,0.0
-2336.0,-23688.0,20344.0,0.0
-2287.0,-23287.0,20438.0,0.0
-2235.0,-22861.0,20503.0,0.0
-2187.0,-22464.0,20587.0,0.0
-2140.0,-22070.0,20666.0,0.0
-2096.0,-21698.0,20762.0,0.0
-2046.0,-21256.0,20780.0,0.0
-2003.0,-20875.0,20851.0,0.0
-1962.0,-20499.0,20921.0,0.0
-1924.0,-20160.0,21023.0,0.0
-1884.0,-19789.0,21085.0,0.0
-1844.0,-19417.0,21141.0,0.0
-1804.0,-19031.0,21171.0,0.0
-1769.0,-18689.0,21247.0,0.0
-1737.0,-18365.0,21337.0,0.0
-1702.0,-18010.0,21385.0,0.0
-1669.0,-17671.0,21446.0,0.0
-1638.0,-17346.0,21519.0,0.0
-1608.0,-17014.0,21580.0,0.0
-1576.0,-16674.0,21622.0,0.0
-1547.0,-16340.0,21666.0,0.0
-1519.0,-16018.0,21723.0,0.0
-1494.0,-15720.0,21806.0,0.0
-1468.0,-15410.0,21867.0,0.0
-1444.0,-15108.0,21935.0,0.0
-1416.0,-14767.0,21941.0,0.0
-1393.0,-14464.0,21999.0,0.0
-1372.0,-14180.0,22080.0,0.0
-1348.0,-13851.0,22086.0,0.0
-1331.0,-13597.0,22208.0,0.0
-1311.0,-13298.0,22253.0,0.0
-1292.0,-13003.0,22302.0,0.0
-1273.0,-12711.0,22350.0,0.0
-1254.0,-12424.0,22401.0,0.0
-1238.0,-12137.0,22450.0,0.0
-1222.0,-11856.0,22504.0,0.0
-1208.0,-11595.0,22595.0,0.0
-1191.0,-11296.0,22608.0,0.0
-1177.0,-11022.0,22665.0,0.0
-1164.0,-10749.0,22723.0,0.0
-1153.0,-10485.0,22795.0,0.0
-1143.0,-10229.0,22884.0,0.0
-1129.0,-9939.0,22890.0,0.0
-1119.0,-9681.0,22971.0,0.0
-1107.0,-9395.0,22978.0,0.0
-1100.0,-9143.0,23067.0,0.0
-1092.0,-8882.0,23131.0,0.0
-1085.0,-8626.0,23208.0,0.0
-1077.0,-8363.0,23261.0,0.0
-1072.0,-8108.0,23338.0,0.0
-1066.0,-7845.0,23389.0,0.0
-1059.0,-7580.0,23433.0,0.0
-1057.0,-7333.0,23526.0,0.0
-1051.0,-7064.0,23551.0,0.0
-1047.0,-6804.0,23604.0,0.0
-1045.0,-6552.0,23686.0,0.0
-1043.0,-6294.0,23745.0,0.0
-1043.0,-6045.0,23834.0,0.0
-1040.0,-5778.0,23855.0,0.0
-1039.0,-5520.0,23914.0,0.0
-1041.0,-5270.0,23999.0,0.0
-1042.0,-5014.0,24064.0,0.0
-1043.0,-4757.0,24127.0,0.0
-1045.0,-4499.0,24187.0,0.0
-1048.0,-4244.0,24265.0,0.0
-1052.0,-3987.0,24336.0,0.0
-1056.0,-3733.0,24425.0,0.0
-1062.0,-3477.0,24509.0,0.0
-1065.0,-3214.0,24547.0,0.0
-1071.0,-2954.0,24618.0,0.0
-1078.0,-2694.0,24686.0,0.0
-1086.0,-2433.0,24768.0,0.0
-1092.0,-2169.0,24813.0,0.0
-1102.0,-1907.0,24905.0,0.0
-1110.0,-1642.0,24959.0,0.0
-1120.0,-1377.0,25045.0,0.0
-1.0,-2.0,32.0,0.0
-2.0,-1.0,54.0,0.0
-1.0,-1.0,38.0,0.0
-1.0,-1.0,38.0,0.0
-2.0,0.0,63.0,0.0
-2.0,0.0,46.0,0.0
-1.0,0.0,39.0,0.0
-1.0,0.0,41.0,0.0
-1.0,1.0,48.0,0.0
-2.0,2.0,58.0,0.0
-2.0,4.0,76.0,0.0
-2.0,3.0,61.0,0.0
-3.0,5.0,70.0,0.0
-3.0,7.0,85.0,0.0
-3.0,8.0,79.0,0.0
-3.0,7.0,70.0,0.0
-4.0,11.0,91.0,0.0
-4.0,11.0,84.0,0.0
-4.0,13.0,91.0,0.0
-4.0,14.0,91.0,0.0
-5.0,18.0,109.0,0.0
-5.0,18.0,105.0,0.0
-4.0,17.0,88.0,0.0
-6.0,21.0,107.0,0.0
-6.0,24.0,114.0,0.0
-5.0,20.0,90.0,0.0
-6.0,27.0,115.0,0.0
-7.0,29.0,116.0,0.0
-5.0,25.0,98.0,0.0
-8.0,34.0,128.0,0.0
-7.0,33.0,117.0,0.0
-7.0,36.0,124.0,0.0
-7.0,36.0,118.0,0.0
-9.0,42.0,135.0,0.0
-8.0,44.0,133.0,0.0
-9.0,44.0,128.0,0.0
-9.0,45.0,128.0,0.0
-9.0,46.0,125.0,0.0
-9.0,45.0,120.0,0.0
-10.0,52.0,134.0,0.0
-9.0,48.0,121.0,0.0
-9.0,51.0,123.0,0.0
