//X,Y,Z,Classification
57,113,113,0.0
60,121,118,0.0
60,125,119,0.0
61,128,119,0.0
58,125,114,0.0
60,132,118,0.0
58,133,116,0.0
61,140,120,0.0
59,139,116,0.0
61,147,120,0.0
91,-291,67,0.0
92,-287,68,0.0
91,-282,71,0.0
89,-270,71,0.0
87,-260,72,0.0
89,-265,75,0.0
90,-261,78,0.0
90,-260,80,0.0
89,-252,81,0.0
91,-256,85,0.0
92,-255,88,0.0
94,-256,92,0.0
94,-254,94,0.0
94,-250,95,0.0
95,-247,98,0.0
97,-252,102,0.0
98,-248,104,0.0
102,-253,110,0.0
99,-245,110,0.0
105,-253,117,0.0
102,-243,116,0.0
107,-253,124,0.0
106,-248,125,0.0
105,-243,125,0.0
111,-250,133,0.0
115,-258,141,0.0
123,-271,151,0.0
127,-275,158,0.0
126,-269,159,0.0
127,-267,162,0.0
120,-249,155,0.0
108,-222,142,0.0
105,-213,140,0.0
97,-195,131,0.0
99,-195,134,0.0
90,-175,123,0.0
10720,-20303,14668,0.0
10680,-19925,14746,0.0
10626,-19527,14805,0.0
10623,-19226,14928,0.0
10559,-18819,14965,0.0
10554,-18521,15082,0.0
10493,-18130,15117,0.0
10437,-17752,15156,0.0
10441,-17479,15278,0.0
10410,-17149,15347,0.0
10382,-16832,15420,0.0
10376,-16549,15523,0.0
10291,-16145,15503,0.0
9975,-15391,15130,0.0
10276,-15592,15693,0.0
10423,-15547,16022,0.0
10630,-15587,16446,0.0
10802,-15565,16817,0.0
11049,-15645,17309,0.0
11342,-15775,17875,0.0
11557,-15786,18320,0.0
11854,-15900,18901,0.0
11866,-15624,19028,0.0
11860,-15324,19122,0.0
11893,-15077,19281,0.0
11899,-14796,19395,0.0
11878,-14482,19461,0.0
11890,-14211,19581,0.0
11875,-13909,19655,0.0
11870,-13619,19743,0.0
0,0,0,0.0
0,0,0,0.0
0,0,0,0.0
0,0,0,0.0
0,0,0,0.0
0,0,0,0.0
0,0,0,0.0
3740,-3587,6451,0.0
3750,-3508,6494,0.0
5041,-4600,8765,0.0
5033,-4477,8786,0.0
5021,-4350,8802,0.0
5020,-4233,8832,0.0
5015,-4113,8857,0.0
5013,-3997,8886,0.0
3775,-2922,6716,0.0
3816,-2867,6812,0.0
3869,-2819,6933,0.0
5016,-3540,9019,0.0
5046,-3446,9103,0.0
5042,-3328,9126,0.0
5064,-3227,9197,0.0
5068,-3114,9234,0.0
5053,-2989,9233,0.0
3943,-2243,7229,0.0
3932,-2147,7230,0.0
3935,-2059,7258,0.0
3858,-1931,7136,0.0
3855,-1842,7151,0.0
5218,-2374,9707,0.0
5251,-2270,9797,0.0
5291,-2167,9898,0.0
5340,-2065,10016,0.0
5374,-1955,10107,0.0
5389,-1837,10162,0.0
0,0,0,0.0
5235,-1545,9921,0.0
3916,-1066,7439,0.0
3923,-978,7472,0.0
0,0,0,0.0
0,0,0,0.0
0,0,0,0.0
0,0,0,0.0
11936,-1592,22989,0.0
0,0,0,0.0
10870,-942,21027,0.0
10478,-663,20310,0.0
10080,-401,19578,0.0
9970,-162,19403,0.0
9956,73,19413,0.0
9968,309,19474,0.0
9974,547,19522,0.0
9994,787,19596,0.0
10017,1028,19677,0.0
10004,1268,19686,0.0
10037,1514,19786,0.0
10048,1759,19840,0.0
10047,2004,19872,0.0
10051,2251,19910,0.0
10103,2511,20044,0.0
10134,2768,20136,0.0
10103,3011,20106,0.0
10130,3271,20187,0.0
10147,3532,20250,0.0
10165,3793,20314,0.0
10158,4049,20326,0.0
10190,4321,20416,0.0
10198,4586,20459,0.0
14,6,30,0.0
15,7,31,0.0
28,14,57,0.0
20,11,42,0.0
17,10,35,0.0
31,19,65,0.0
31,19,64,0.0
30,19,62,0.0
35,24,73,0.0
41,29,84,0.0
33,24,68,0.0
42,33,86,0.0
36,29,75,0.0
44,36,92,0.0
43,37,89,0.0
46,42,97,0.0
44,41,92,0.0
46,44,95,0.0
44,43,91,0.0
48,48,99,0.0
50,52,104,0.0
48,51,99,0.0
52,57,108,0.0
51,59,107,0.0
54,63,112,0.0
49,59,102,0.0
47,58,97,0.0
52,65,107,0.0
50,64,103,0.0
51,67,105,0.0
50,68,105,0.0
52,72,107,0.0
49,70,102,0.0
49,72,103,0.0
53,78,108,0.0
54,82,111,0.0
49,77,102,0.0
50,79,102,0.0
52,86,109,0.0
52,87,107,0.0
53,93,111,0.0
53,94,111,0.0
53,97,111,0.0
53,98,109,0.0
56,106,116,0.0
57,109,117,0.0
57,110,115,0.0
57,114,117,0.0
55,112,112,0.0
56,118,116,0.0
56,119,115,0.0
61,131,123,0.0
55,123,113,0.0
58,131,117,0.0
58,135,119,0.0
61,142,122,0.0
59,143,121,0.0
59,145,119,0.0
86,-281,65,0.0
87,-279,67,0.0
83,-263,68,0.0
82,-257,68,0.0
82,-254,70,0.0
83,-253,73,0.0
83,-250,75,0.0
84,-249,78,0.0
85,-248,81,0.0
84,-244,82,0.0
87,-247,86,0.0
87,-244,89,0.0
86,-238,89,0.0
90,-247,96,0.0
91,-244,97,0.0
94,-249,103,0.0
95,-246,104,0.0
94,-242,106,0.0
94,-241,109,0.0
100,-250,117,0.0
102,-250,119,0.0
101,-245,121,0.0
102,-244,124,0.0
102,-242,127,0.0
102,-239,128,0.0
113,-258,142,0.0
119,-270,153,0.0
119,-264,153,0.0
112,-245,146,0.0
112,-242,148,0.0
105,-224,140,0.0
103,-218,140,0.0
90,-187,123,0.0
78,-161,109,0.0
76,-154,106,0.0
10435,-20573,14597,0.0
10387,-20174,14665,0.0
10353,-19806,14748,0.0
10335,-19474,14853,0.0
10308,-19128,14940,0.0
10259,-18746,14993,0.0
10232,-18409,15076,0.0
10182,-18033,15121,0.0
10148,-17692,15188,0.0
10138,-17397,15289,0.0
10087,-17033,15325,0.0
10089,-16763,15438,0.0
10039,-16410,15472,0.0
10037,-16138,15575,0.0
10014,-15835,15645,0.0
9975,-15509,15688,0.0
10165,-15539,16090,0.0
10357,-15561,16497,0.0
10503,-15507,16833,0.0
10768,-15621,17362,0.0
11061,-15764,17943,0.0
11343,-15876,18506,0.0
11874,-16317,19483,0.0
11835,-15966,19528,0.0
0,0,0,0.0
11851,-15393,19768,0.0
0,0,0,0.0
0,0,0,0.0
0,0,0,0.0
0,0,0,0.0
0,0,0,0.0
0,0,0,0.0
0,0,0,0.0
0,0,0,0.0
0,0,0,0.0
0,0,0,0.0
0,0,0,0.0
0,0,0,0.0
3668,-3605,6503,0.0
3689,-3537,6566,0.0
5119,-4788,9150,0.0
5030,-4585,9026,0.0
5023,-4459,9047,0.0
5024,-4342,9085,0.0
5023,-4223,9117,0.0
5008,-4092,9122,0.0
5007,-3975,9155,0.0
3713,-2860,6813,0.0
3740,-2793,6886,0.0
3815,-2760,7047,0.0
3849,-2694,7134,0.0
3846,-2602,7151,0.0
3844,-2513,7173,0.0
3838,-2418,7183,0.0
3796,-2303,7126,0.0
3779,-2205,7118,0.0
3784,-2120,7148,0.0
3816,-2049,7231,0.0
3793,-1949,7209,0.0
5164,-2532,9840,0.0
5221,-2439,9977,0.0
5251,-2331,10064,0.0
5289,-2225,10163,0.0
5321,-2114,10251,0.0
5372,-2009,10379,0.0
0,0,0,0.0
0,0,0,0.0
5122,-1555,9970,0.0
3879,-1087,7569,0.0
3895,-1000,7618,0.0
3920,-914,7684,0.0
0,0,0,0.0
15037,-2795,29616,1.0
0,0,0,0.0
14833,-2053,29344,1.0
0,0,0,0.0
10625,-964,21110,0.0
10202,-681,20312,0.0
9918,-424,19786,0.0
9691,-181,19373,0.0
9696,53,19420,0.0
9704,288,19474,0.0
9713,524,19527,0.0
9749,764,19636,0.0
9750,1003,19674,0.0
9771,1245,19752,0.0
9734,1481,19712,0.0
9765,1728,19806,0.0
9756,1969,19822,0.0
9807,2225,19959,0.0
9832,2478,20041,0.0
9810,2720,20028,0.0
9836,2977,20110,0.0
9835,3227,20140,0.0
9888,3498,20276,0.0
9881,3750,20290,0.0
9902,4015,20362,0.0
9882,4265,20348,0.0
9891,4527,20393,0.0
4,2,8,0.0
13,6,28,0.0
24,13,51,0.0
15,8,31,0.0
21,11,43,0.0
23,14,48,0.0
25,15,52,0.0
23,15,49,0.0
29,20,61,0.0
27,20,57,0.0
29,22,61,0.0
33,25,69,0.0
39,31,83,0.0
37,32,80,0.0
41,36,86,0.0
44,40,94,0.0
44,41,94,0.0
41,40,87,0.0
41,41,88,0.0
45,46,95,0.0
42,44,90,0.0
46,50,99,0.0
46,52,99,0.0
46,54,99,0.0
46,54,98,0.0
48,60,103,0.0
42,54,92,0.0
42,54,90,0.0
43,57,92,0.0
46,62,98,0.0
43,60,92,0.0
47,66,100,0.0
45,65,96,0.0
44,67,94,0.0
46,70,98,0.0
45,71,97,0.0
48,77,102,0.0
47,78,100,0.0
46,78,99,0.0
47,82,101,0.0
49,87,105,0.0
49,87,103,0.0
49,90,105,0.0
52,98,111,0.0
51,98,109,0.0
49,96,105,0.0
51,103,110,0.0
53,108,112,0.0
48,101,102,0.0
53,114,113,0.0
53,116,112,0.0
52,116,111,0.0
53,120,111,0.0
55,128,117,0.0
54,128,114,0.0
54,130,113,0.0
55,135,115,0.0
55,138,115,0.0
85,-287,67,0.0
86,-283,70,0.0
81,-266,69,0.0
82,-266,72,0.0
82,-260,73,0.0
85,-267,78,0.0
85,-265,81,0.0
84,-255,81,0.0
88,-265,87,0.0
89,-263,90,0.0
89,-262,93,0.0
88,-255,94,0.0
92,-261,99,0.0
92,-259,101,0.0
94,-259,105,0.0
95,-260,108,0.0
97,-261,112,0.0
98,-258,114,0.0
96,-251,114,0.0
99,-254,119,0.0
99,-251,121,0.0
100,-251,125,0.0
101,-249,127,0.0
101,-245,129,0.0
110,-262,142,0.0
116,-274,152,0.0
120,-281,160,0.0
117,-268,157,0.0
117,-264,159,0.0
103,-229,141,0.0
96,-211,133,0.0
88,-188,122,0.0
84,-181,119,0.0
86,-181,123,0.0
10155,-20856,14533,0.0
10115,-20464,14609,0.0
10090,-20107,14705,0.0
10046,-19720,14772,0.0
10026,-19383,14869,0.0
9984,-19005,14930,0.0
9964,-18679,15023,0.0
9933,-18331,15095,0.0
9903,-17991,15168,0.0
9873,-17655,15238,0.0
9852,-17339,15318,0.0
9836,-17033,15404,0.0
9777,-16661,15423,0.0
9776,-16388,15528,0.0
9750,-16075,15592,0.0
9741,-15795,15682,0.0
9724,-15504,15757,0.0
9945,-15588,16216,0.0
10131,-15608,16623,0.0
10261,-15534,16939,0.0
10556,-15702,17530,0.0
10825,-15817,18082,0.0
11105,-15934,18656,0.0
0,0,0,0.0
0,0,0,0.0
0,0,0,0.0
0,0,0,0.0
14753,-19268,25460,1.0
0,0,0,0.0
0,0,0,0.0
0,0,0,0.0
0,0,0,0.0
0,0,0,0.0
0,0,0,0.0
0,0,0,0.0
0,0,0,0.0
0,0,0,0.0
0,0,0,0.0
3650,-3767,6628,0.0
3625,-3651,6608,0.0
3638,-3576,6660,0.0
5022,-4815,9230,0.0
5060,-4729,9336,0.0
5025,-4575,9307,0.0
5028,-4455,9346,0.0
5018,-4326,9363,0.0
5008,-4197,9379,0.0
5005,-4074,9407,0.0
5002,-3951,9433,0.0
3668,-2810,6942,0.0
3701,-2746,7028,0.0
3709,-2664,7068,0.0
3683,-2557,7040,0.0
3708,-2487,7112,0.0
3712,-2400,7142,0.0
3711,-2311,7161,0.0
3708,-2220,7176,0.0
3727,-2143,7235,0.0
3719,-2051,7242,0.0
5118,-2700,9995,0.0
5134,-2586,10053,0.0
5158,-2475,10130,0.0
5142,-2344,10124,0.0
0,0,0,0.0
0,0,0,0.0
0,0,0,0.0
0,0,0,0.0
0,0,0,0.0
5055,-1581,10112,0.0
3815,-1102,7652,0.0
3820,-1011,7678,0.0
3809,-916,7673,0.0
14744,-3190,29771,1.0
0,0,0,0.0
14692,-2468,29800,1.0
0,0,0,0.0
0,0,0,0.0
10365,-983,21160,0.0
9925,-698,20304,0.0
9635,-442,19752,0.0
9385,-199,19278,0.0
9421,32,19391,0.0
9397,265,19380,0.0
9478,503,19585,0.0
9473,740,19610,0.0
9447,974,19593,0.0
9423,1209,19578,0.0
9473,1455,19716,0.0
9496,1699,19797,0.0
9519,1946,19879,0.0
9545,2195,19965,0.0
9522,2435,19950,0.0
9545,2687,20029,0.0
9558,2940,20087,0.0
9585,3197,20176,0.0
9605,3457,20249,0.0
9596,3706,20257,0.0
9625,3974,20348,0.0
9623,4229,20370,0.0
9675,4512,20509,0.0
13,6,30,0.0
18,9,39,0.0
9,4,20,0.0
22,13,50,0.0
22,14,50,0.0
28,17,62,0.0
30,20,65,0.0
32,22,71,0.0
32,23,70,0.0
35,26,78,0.0
37,29,81,0.0
39,32,86,0.0
40,33,87,0.0
46,40,101,0.0
49,44,108,0.0
38,36,85,0.0
45,42,97,0.0
40,40,88,0.0
42,43,93,0.0
48,51,106,0.0
50,54,109,0.0
47,52,103,0.0
49,57,108,0.0
50,59,110,0.0
52,62,114,0.0
50,63,111,0.0
51,66,112,0.0
45,59,98,0.0
51,68,111,0.0
49,67,107,0.0
49,71,109,0.0
46,67,101,0.0
44,67,98,0.0
48,73,105,0.0
46,73,102,0.0
49,79,108,0.0
48,79,107,0.0
46,77,102,0.0
47,81,103,0.0
50,89,110,0.0
47,85,103,0.0
48,89,107,0.0
50,94,109,0.0
48,91,104,0.0
50,98,109,0.0
53,105,114,0.0
53,107,115,0.0
53,111,116,0.0
52,111,113,0.0
53,116,115,0.0
51,116,113,0.0
52,120,114,0.0
53,124,116,0.0
53,126,116,0.0
54,130,116,0.0
55,138,120,0.0
55,138,118,0.0
56,146,122,0.0
79,-275,66,0.0
76,-263,65,0.0
76,-255,67,0.0
77,-258,70,0.0
81,-263,75,0.0
78,-252,75,0.0
82,-259,80,0.0
82,-258,83,0.0
78,-242,80,0.0
83,-252,87,0.0
86,-260,93,0.0
86,-257,95,0.0
85,-249,95,0.0
87,-250,98,0.0
90,-256,104,0.0
92,-256,107,0.0
91,-250,108,0.0
91,-248,111,0.0
91,-244,112,0.0
94,-247,117,0.0
91,-238,117,0.0
95,-243,122,0.0
97,-246,126,0.0
97,-242,128,0.0
107,-263,143,0.0
111,-269,151,0.0
112,-266,153,0.0
108,-255,150,0.0
110,-255,154,0.0
96,-218,135,0.0
88,-200,127,0.0
87,-192,126,0.0
78,-170,113,0.0
72,-156,107,0.0
9834,-20736,14538,0.0
9809,-20377,14635,0.0
9783,-20017,14726,0.0
9740,-19627,14788,0.0
9718,-19287,14880,0.0
9694,-18944,14964,0.0
9650,-18568,15017,0.0
9650,-18280,15135,0.0
9598,-17896,15168,0.0
9587,-17593,15264,0.0
9566,-17278,15344,0.0
9522,-16923,15382,0.0
9510,-16629,15471,0.0
9493,-16328,15547,0.0
9471,-16022,15615,0.0
9435,-15696,15658,0.0
9447,-15453,15778,0.0
9663,-15537,16239,0.0
9917,-15673,16769,0.0
10012,-15550,17031,0.0
10277,-15681,17584,0.0
10559,-15826,18170,0.0
10826,-15934,18733,0.0
0,0,0,0.0
0,0,0,0.0
14321,-19937,25188,1.0
0,0,0,0.0
0,0,0,0.0
0,0,0,0.0
0,0,0,0.0
0,0,0,0.0
0,0,0,0.0
14653,-17733,26668,1.0
0,0,0,0.0
0,0,0,0.0
0,0,0,0.0
14780,-16385,27378,1.0
0,0,0,0.0
0,0,0,0.0
3559,-3678,6676,0.0
3592,-3622,6766,0.0
4851,-4771,9172,0.0
4995,-4788,9479,0.0
4998,-4667,9521,0.0
5021,-4564,9600,0.0
5004,-4425,9604,0.0
5004,-4303,9639,0.0
5001,-4177,9666,0.0
5007,-4059,9712,0.0
4981,-3914,9693,0.0
3606,-2746,7043,0.0
3625,-2672,7102,0.0
3710,-2644,7293,0.0
4990,-3433,9838,0.0
5011,-3327,9912,0.0
5039,-3222,9998,0.0
3771,-2320,7506,0.0
3696,-2183,7378,0.0
3676,-2082,7360,0.0
5068,-2746,10176,0.0
5079,-2628,10227,0.0
0,0,0,0.0
14524,-6808,29402,1.0
0,0,0,0.0
14572,-6121,29658,1.0
0,0,0,0.0
4590,-1703,9391,0.0
4550,-1578,9334,0.0
4640,-1495,9541,0.0
3771,-1122,7773,0.0
3778,-1032,7807,0.0
3787,-940,7845,0.0
0,0,0,0.0
14435,-2870,30033,1.0
14375,-2501,29973,1.0
0,0,0,0.0
0,0,0,0.0
10150,-1007,21303,0.0
9682,-718,20364,0.0
9416,-462,19845,0.0
9201,-219,19431,0.0
9155,12,19373,0.0
9183,246,19470,0.0
9184,480,19510,0.0
9197,716,19574,0.0
9188,950,19591,0.0
9169,1185,19587,0.0
9177,1423,19637,0.0
9221,1669,19765,0.0
9233,1913,19826,0.0
9262,2161,19922,0.0
9245,2400,19918,0.0
9236,2642,19931,0.0
9287,2904,20073,0.0
9323,3164,20182,0.0
9285,3401,20131,0.0
9356,3680,20315,0.0
9350,3932,20331,0.0
9359,4191,20379,0.0
11,4,24,0.0
14,6,33,0.0
9,5,21,0.0
13,7,30,0.0
16,9,36,0.0
16,10,37,0.0
31,20,69,0.0
25,17,58,0.0
31,21,69,0.0
29,21,65,0.0
25,19,57,0.0
32,26,72,0.0
34,28,78,0.0
36,31,82,0.0
42,36,93,0.0
36,33,81,0.0
36,34,81,0.0
42,42,96,0.0
42,42,94,0.0
41,43,92,0.0
40,43,90,0.0
46,51,105,0.0
48,54,109,0.0
43,51,99,0.0
43,53,99,0.0
45,56,101,0.0
40,52,92,0.0
45,59,102,0.0
44,59,99,0.0
44,61,98,0.0
40,56,90,0.0
44,64,100,0.0
41,63,94,0.0
42,65,97,0.0
41,65,95,0.0
43,69,97,0.0
45,76,104,0.0
42,71,96,0.0
43,75,99,0.0
42,75,96,0.0
44,79,98,0.0
44,82,100,0.0
46,87,105,0.0
46,90,105,0.0
47,92,105,0.0
47,96,108,0.0
46,95,104,0.0
47,99,106,0.0
46,100,105,0.0
48,106,108,0.0
50,114,114,0.0
51,118,114,0.0
51,121,116,0.0
50,121,113,0.0
50,124,114,0.0
52,132,118,0.0
51,132,115,0.0
51,136,116,0.0
50,134,113,0.0
78,-279,68,0.0
80,-283,72,0.0
77,-266,71,0.0
77,-263,72,0.0
78,-263,76,0.0
79,-264,79,0.0
81,-265,83,0.0
83,-268,87,0.0
80,-256,87,0.0
80,-255,88,0.0
84,-261,94,0.0
85,-260,97,0.0
86,-259,100,0.0
86,-255,102,0.0
88,-257,106,0.0
91,-262,111,0.0
90,-255,111,0.0
92,-259,117,0.0
92,-254,118,0.0
93,-253,121,0.0
95,-254,125,0.0
92,-244,123,0.0
97,-253,131,0.0
97,-249,133,0.0
113,-285,156,0.0
111,-276,155,0.0
111,-272,158,0.0
109,-265,157,0.0
104,-248,151,0.0
96,-225,140,0.0
89,-206,131,0.0
87,-197,129,0.0
82,-184,124,0.0
9562,-21035,14480,0.0
9539,-20671,14578,0.0
9499,-20277,14647,0.0
9492,-19956,14765,0.0
9439,-19541,14805,0.0
9424,-19214,14906,0.0
9392,-18853,14974,0.0
9357,-18495,15038,0.0
9341,-18173,15125,0.0
9335,-17878,15230,0.0
9285,-17502,15261,0.0
9282,-17217,15366,0.0
9260,-16898,15436,0.0
9242,-16593,15512,0.0
9185,-16220,15519,0.0
9212,-16001,15668,0.0
9174,-15668,15701,0.0
9234,-15507,15905,0.0
9392,-15504,16276,0.0
9641,-15641,16808,0.0
9766,-15569,17125,0.0
10035,-15718,17701,0.0
10287,-15824,18245,0.0
10555,-15946,18825,0.0
0,0,0,0.0
0,0,0,0.0
0,0,0,0.0
14108,-19774,25695,1.0
14168,-19478,25935,1.0
14213,-19160,26146,1.0
0,0,0,0.0
0,0,0,0.0
0,0,0,0.0
0,0,0,0.0
0,0,0,0.0
0,0,0,0.0
0,0,0,0.0
0,0,0,0.0
14473,-16093,27717,1.0
0,0,0,0.0
3519,-3732,6795,0.0
4776,-4943,9257,0.0
4727,-4771,9198,0.0
0,0,0,0.0
0,0,0,0.0
14316,-13359,28169,1.0
0,0,0,0.0
0,0,0,0.0
0,0,0,0.0
4937,-4109,9853,0.0
4916,-3968,9845,0.0
4922,-3848,9888,0.0
3564,-2698,7186,0.0
3585,-2624,7249,0.0
3665,-2590,7435,0.0
3691,-2517,7511,0.0
3709,-2437,7571,0.0
3686,-2329,7547,0.0
3622,-2198,7438,0.0
4515,-2628,9298,0.0
4461,-2484,9213,0.0
4487,-2387,9294,0.0
4474,-2268,9291,0.0
4485,-2162,9340,0.0
4473,-2046,9341,0.0
4465,-1930,9347,0.0
3721,-1516,7810,0.0
3777,-1443,7946,0.0
3795,-1355,8006,0.0
3786,-1257,8006,0.0
3796,-1165,8048,0.0
3716,-1046,7897,0.0
3718,-953,7919,0.0
3725,-860,7954,0.0
0,0,0,0.0
14084,-2539,30206,1.0
0,0,0,0.0
0,0,0,0.0
9911,-1028,21397,0.0
9398,-733,20332,0.0
9155,-479,19847,0.0
8922,-236,19381,0.0
8852,-5,19266,0.0
8900,225,19410,0.0
8922,458,19497,0.0
8911,691,19510,0.0
8943,928,19616,0.0
8966,1167,19703,0.0
8967,1405,19740,0.0
8933,1637,19701,0.0
9014,1893,19915,0.0
8961,2122,19831,0.0
8953,2362,19848,0.0
9000,2619,19985,0.0
8988,2860,19988,0.0
9046,3126,20151,0.0
9045,3375,20182,0.0
9127,3658,20394,0.0
9082,3894,20324,0.0
9121,4166,20441,0.0
9123,4424,20474,0.0
24,12,55,0.0
12,6,27,0.0
15,8,35,0.0
16,9,38,0.0
17,11,41,0.0
25,17,59,0.0
22,16,52,0.0
31,22,71,0.0
35,26,80,0.0
27,21,62,0.0
37,29,84,0.0
32,27,75,0.0
35,31,83,0.0
36,32,84,0.0
37,35,87,0.0
39,37,89,0.0
37,38,87,0.0
39,40,90,0.0
43,46,100,0.0
47,53,110,0.0
45,51,105,0.0
46,54,107,0.0
47,56,108,0.0
47,57,109,0.0
42,54,99,0.0
46,61,107,0.0
46,62,108,0.0
44,62,105,0.0
49,69,115,0.0
47,68,110,0.0
46,69,109,0.0
44,68,104,0.0
47,73,110,0.0
41,67,97,0.0
43,71,102,0.0
44,75,104,0.0
42,74,100,0.0
42,74,98,0.0
44,81,105,0.0
44,83,104,0.0
45,86,106,0.0
45,87,105,0.0
45,91,107,0.0
47,94,109,0.0
47,98,111,0.0
46,100,110,0.0
46,101,108,0.0
46,104,110,0.0
47,108,111,0.0
47,108,109,0.0
49,117,116,0.0
48,117,113,0.0
48,121,114,0.0
50,128,119,0.0
49,128,115,0.0
49,130,115,0.0
51,138,120,0.0
48,133,113,0.0
69,-257,63,0.0
71,-257,66,0.0
71,-255,68,0.0
70,-253,70,0.0
71,-250,73,0.0
73,-255,77,0.0
74,-252,80,0.0
76,-256,84,0.0
76,-251,85,0.0
79,-257,90,0.0
79,-252,92,0.0
80,-252,94,0.0
83,-256,100,0.0
83,-253,102,0.0
83,-250,103,0.0
86,-254,109,0.0
86,-251,111,0.0
85,-247,112,0.0
86,-245,115,0.0
90,-250,120,0.0
88,-242,120,0.0
89,-243,123,0.0
94,-251,131,0.0
90,-239,128,0.0
101,-264,146,0.0
103,-265,150,0.0
104,-263,153,0.0
104,-259,154,0.0
92,-228,140,0.0
92,-224,141,0.0
84,-199,128,0.0
82,-194,128,0.0
73,-171,115,0.0
9263,-20957,14511,0.0
9242,-20597,14609,0.0
9196,-20184,14663,0.0
9177,-19837,14758,0.0
9162,-19503,14856,0.0
9124,-19122,14914,0.0
9087,-18753,14973,0.0
9073,-18432,15065,0.0
9034,-18067,15114,0.0
9020,-17755,15202,0.0
9010,-17453,15294,0.0
8978,-17112,15347,0.0
8971,-16824,15441,0.0
8953,-16517,15513,0.0
8897,-16144,15517,0.0
8900,-15882,15622,0.0
8888,-15594,15698,0.0
9007,-15538,16007,0.0
9161,-15535,16380,0.0
9344,-15573,16806,0.0
9528,-15604,17236,0.0
9769,-15717,17773,0.0
9989,-15783,18271,0.0
10249,-15904,18851,0.0
0,0,0,0.0
0,0,0,0.0
0,0,0,0.0
0,0,0,0.0
0,0,0,0.0
13884,-19219,26322,1.0
0,0,0,0.0
0,0,0,0.0
0,0,0,0.0
0,0,0,0.0
0,0,0,0.0
0,0,0,0.0
0,0,0,0.0
0,0,0,0.0
0,0,0,0.0
3461,-3861,6856,0.0
3460,-3769,6882,0.0
3507,-3726,7000,0.0
4556,-4723,9130,0.0
4753,-4803,9560,0.0
0,0,0,0.0
0,0,0,0.0
0,0,0,0.0
0,0,0,0.0
14227,-12528,29127,1.0
0,0,0,0.0
0,0,0,0.0
4388,-3525,9075,0.0
4322,-3361,8969,0.0
3517,-2645,7320,0.0
3542,-2572,7396,0.0
3604,-2525,7548,0.0
3639,-2457,7647,0.0
3550,-2306,7481,0.0
3603,-2247,7613,0.0
3648,-2183,7733,0.0
3683,-2110,7828,0.0
3692,-2020,7869,0.0
3672,-1915,7848,0.0
3695,-1833,7919,0.0
4343,-2043,9331,0.0
4347,-1934,9366,0.0
3642,-1527,7867,0.0
3621,-1425,7842,0.0
3632,-1336,7884,0.0
3636,-1244,7912,0.0
3623,-1147,7905,0.0
3660,-1064,8004,0.0
3643,-965,7985,0.0
3653,-872,8026,0.0
13941,-2967,30698,1.0
0,0,0,0.0
0,0,0,0.0
0,0,0,0.0
9676,-1049,21496,0.0
9114,-749,20289,0.0
8896,-496,19847,0.0
8657,-253,19354,0.0
8179,-23,18321,0.0
8650,205,19416,0.0
8630,435,19409,0.0
8685,671,19570,0.0
8747,911,19748,0.0
8701,1142,19680,0.0
8724,1382,19769,0.0
8738,1623,19837,0.0
8698,1853,19781,0.0
8727,2099,19882,0.0
8699,2334,19851,0.0
8751,2590,20005,0.0
8790,2848,20127,0.0
8775,3090,20124,0.0
8802,3347,20218,0.0
8814,3603,20280,0.0
8798,3848,20273,0.0
8823,4112,20362,0.0
12,6,30,0.0
15,8,37,0.0
5,3,13,0.0
10,6,26,0.0
6,4,16,0.0
12,8,31,0.0
22,15,52,0.0
15,10,38,0.0
21,16,51,0.0
24,18,58,0.0
29,22,69,0.0
31,25,73,0.0
36,31,88,0.0
27,24,65,0.0
31,28,74,0.0
38,37,91,0.0
31,32,76,0.0
40,41,96,0.0
40,42,94,0.0
38,41,90,0.0
38,43,93,0.0
38,44,91,0.0
43,51,104,0.0
41,50,99,0.0
40,52,97,0.0
41,54,100,0.0
39,53,96,0.0
45,62,109,0.0
41,59,101,0.0
41,59,98,0.0
43,63,102,0.0
43,65,103,0.0
40,63,97,0.0
41,67,99,0.0
42,69,101,0.0
38,66,94,0.0
40,70,97,0.0
37,68,92,0.0
40,73,98,0.0
42,78,102,0.0
40,77,98,0.0
41,81,100,0.0
41,84,101,0.0
40,83,99,0.0
40,86,100,0.0
42,90,101,0.0
42,92,103,0.0
42,95,103,0.0
44,102,107,0.0
41,97,101,0.0
45,109,111,0.0
45,110,109,0.0
45,112,110,0.0
44,113,108,0.0
46,121,112,0.0
46,124,113,0.0
47,127,113,0.0
45,127,112,0.0
45,128,109,0.0
69,-266,67,0.0
70,-267,69,0.0
68,-252,69,0.0
69,-255,72,0.0
73,-263,78,0.0
75,-268,82,0.0
75,-264,85,0.0
75,-259,86,0.0
74,-253,87,0.0
78,-260,92,0.0
78,-258,95,0.0
77,-253,97,0.0
80,-258,102,0.0
80,-255,103,0.0
83,-260,110,0.0
83,-254,110,0.0
84,-253,112,0.0
84,-252,115,0.0
87,-257,121,0.0
89,-256,124,0.0
87,-248,124,0.0
85,-239,122,0.0
89,-247,130,0.0
91,-248,134,0.0
101,-269,150,0.0
97,-259,147,0.0
105,-274,160,0.0
98,-252,152,0.0
89,-224,137,0.0
80,-202,128,0.0
78,-193,125,0.0
77,-187,123,0.0
69,-163,111,0.0
8943,-20828,14503,0.0
8925,-20472,14602,0.0
8896,-20094,14678,0.0
8875,-19741,14766,0.0
8859,-19403,14859,0.0
8832,-19047,14933,0.0
8798,-18678,14990,0.0
8770,-18328,15056,0.0
8777,-18055,15180,0.0
8746,-17704,15234,0.0
8717,-17364,15290,0.0
8722,-17097,15406,0.0
8679,-16737,15433,0.0
8679,-16464,15534,0.0
8652,-16142,15586,0.0
8637,-15847,15657,0.0
8615,-15542,15713,0.0
8759,-15535,16073,0.0
8904,-15522,16435,0.0
9052,-15508,16806,0.0
9288,-15634,17342,0.0
9542,-15778,17913,0.0
9745,-15827,18396,0.0
0,0,0,0.0
0,0,0,0.0
0,0,0,0.0
0,0,0,0.0
0,0,0,0.0
13461,-19530,26194,1.0
13555,-19281,26501,1.0
0,0,0,0.0
0,0,0,0.0
13679,-18307,27113,1.0
0,0,0,0.0
0,0,0,0.0
0,0,0,0.0
0,0,0,0.0
0,0,0,0.0
13927,-16340,28311,1.0
3397,-3893,6934,0.0
3395,-3798,6955,0.0
3439,-3756,7076,0.0
4406,-4694,9098,0.0
4427,-4597,9174,0.0
4233,-4281,8804,0.0
4216,-4151,8799,0.0
4204,-4029,8806,0.0
4204,-3917,8837,0.0
4206,-3807,8872,0.0
4219,-3707,8927,0.0
4215,-3593,8950,0.0
3550,-2932,7562,0.0
3541,-2832,7568,0.0
3517,-2719,7539,0.0
3482,-2601,7488,0.0
3461,-2493,7465,0.0
3482,-2417,7533,0.0
3481,-2325,7553,0.0
3530,-2266,7683,0.0
3525,-2170,7693,0.0
3523,-2077,7712,0.0
3529,-1987,7747,0.0
3530,-1895,7769,0.0
3540,-1807,7812,0.0
3535,-1713,7822,0.0
3551,-1628,7878,0.0
3555,-1536,7906,0.0
3551,-1440,7918,0.0
3562,-1352,7961,0.0
3557,-1256,7971,0.0
3583,-1170,8049,0.0
3580,-1075,8062,0.0
3589,-982,8102,0.0
3656,-903,8271,0.0
3663,-807,8305,0.0
13725,-2658,31190,1.0
13581,-2268,30933,1.0
0,0,0,0.0
9410,-1066,21526,0.0
8864,-765,20320,0.0
8620,-511,19803,0.0
8329,-268,19174,0.0
8116,-41,18721,0.0
8437,188,19500,0.0
8423,417,19507,0.0
8433,650,19571,0.0
8431,883,19603,0.0
8458,1121,19704,0.0
8468,1358,19765,0.0
8467,1594,19798,0.0
8435,1825,19759,0.0
8463,2071,19858,0.0
8500,2320,19980,0.0
8486,2559,19981,0.0
8501,2807,20052,0.0
8531,3063,20156,0.0
8537,3313,20203,0.0
8565,3573,20302,0.0
8568,3826,20343,0.0
8564,4077,20364,0.0
8556,4327,20376,0.0
11,5,28,0.0
20,11,49,0.0
18,10,44,0.0
23,14,56,0.0
21,14,54,0.0
24,16,59,0.0
25,18,60,0.0
21,16,53,0.0
30,23,74,0.0
31,25,76,0.0
33,28,82,0.0
30,27,75,0.0
33,30,82,0.0
35,33,87,0.0
35,35,87,0.0
34,35,85,0.0
41,43,101,0.0
40,43,99,0.0
37,42,94,0.0
34,39,83,0.0
39,47,99,0.0
39,48,97,0.0
39,50,99,0.0
41,54,103,0.0
41,54,101,0.0
44,61,110,0.0
41,58,102,0.0
43,64,110,0.0
41,62,103,0.0
41,63,103,0.0
44,69,110,0.0
44,71,110,0.0
40,67,102,0.0
37,65,95,0.0
41,71,102,0.0
37,67,94,0.0
39,70,97,0.0
40,75,100,0.0
41,78,102,0.0
38,76,97,0.0
38,77,96,0.0
40,82,100,0.0
42,89,106,0.0
39,86,100,0.0
40,89,101,0.0
41,94,104,0.0
41,97,106,0.0
41,99,105,0.0
40,98,102,0.0
43,107,110,0.0
44,110,110,0.0
42,109,106,0.0
44,118,113,0.0
43,118,110,0.0
45,124,114,0.0
44,124,111,0.0
46,132,116,0.0
46,135,116,0.0
68,-269,68,0.0
68,-266,70,0.0
69,-270,74,0.0
68,-261,74,0.0
70,-260,77,0.0
71,-264,83,0.0
71,-259,84,0.0
74,-264,88,0.0
76,-266,92,0.0
77,-268,96,0.0
77,-263,97,0.0
81,-273,105,0.0
79,-262,104,0.0
79,-257,105,0.0
81,-260,109,0.0
82,-261,114,0.0
84,-262,117,0.0
85,-262,120,0.0
87,-264,125,0.0
87,-259,126,0.0
85,-250,125,0.0
89,-257,132,0.0
90,-256,135,0.0
90,-252,137,0.0
98,-273,152,0.0
99,-269,154,0.0
101,-270,159,0.0
100,-264,159,0.0
90,-233,145,0.0
81,-207,131,0.0
79,-200,130,0.0
79,-196,130,0.0
69,-170,116,0.0
8652,-20758,14535,0.0
8636,-20403,14631,0.0
8613,-20037,14715,0.0
8580,-19654,14778,0.0
8563,-19313,14867,0.0
8536,-18955,14936,0.0
8531,-18647,15040,0.0
8507,-18301,15108,0.0
8493,-17984,15194,0.0
8449,-17605,15220,0.0
8449,-17323,15326,0.0
8439,-17025,15412,0.0
8415,-16698,15467,0.0
8393,-16384,15528,0.0
8386,-16099,15613,0.0
8374,-15807,15686,0.0
8361,-15518,15756,0.0
8529,-15560,16168,0.0
8681,-15567,16552,0.0
8812,-15529,16897,0.0
9025,-15628,17403,0.0
9295,-15809,18019,0.0
9527,-15915,18568,0.0
0,0,0,0.0
12709,-20464,25027,1.0
0,0,0,0.0
0,0,0,0.0
0,0,0,0.0
0,0,0,0.0
0,0,0,0.0
0,0,0,0.0
0,0,0,0.0
0,0,0,0.0
0,0,0,0.0
0,0,0,0.0
0,0,0,0.0
0,0,0,0.0
0,0,0,0.0
0,0,0,0.0
3345,-3942,7041,0.0
3332,-3834,7039,0.0
3427,-3848,7266,0.0
3440,-3769,7324,0.0
3458,-3692,7389,0.0
3465,-3605,7429,0.0
3468,-3513,7464,0.0
3453,-3403,7456,0.0
3470,-3325,7518,0.0
4090,-3807,8890,0.0
4082,-3689,8903,0.0
4090,-3584,8948,0.0
3424,-2909,7517,0.0
3451,-2838,7601,0.0
3425,-2724,7566,0.0
3417,-2626,7572,0.0
3413,-2530,7585,0.0
3424,-2446,7632,0.0
3439,-2365,7690,0.0
3445,-2275,7725,0.0
3443,-2182,7743,0.0
3455,-2097,7792,0.0
3473,-2014,7853,0.0
3497,-1934,7930,0.0
0,0,0,0.0
0,0,0,0.0
0,0,0,0.0
0,0,0,0.0
13653,-5712,31361,1.0
0,0,0,0.0
3591,-1308,8289,0.0
3565,-1202,8251,0.0
3556,-1102,8250,0.0
3550,-1004,8256,0.0
3559,-909,8295,0.0
3537,-807,8264,0.0
13423,-2697,31427,1.0
0,0,0,0.0
0,0,0,0.0
9172,-1086,21618,0.0
8627,-783,20378,0.0
8402,-530,19886,0.0
8198,-288,19446,0.0
8039,-59,19109,0.0
8170,169,19458,0.0
8195,399,19557,0.0
8177,630,19552,0.0
8192,863,19628,0.0
8177,1094,19630,0.0
8199,1332,19721,0.0
8199,1567,19756,0.0
8220,1807,19844,0.0
8238,2050,19923,0.0
8231,2289,19942,0.0
8279,2545,20095,0.0
8275,2787,20120,0.0
8308,3044,20233,0.0
8274,3278,20183,0.0
8286,3530,20246,0.0
8317,3794,20357,0.0
14,7,37,0.0
11,5,27,0.0
16,8,39,0.0
17,10,45,0.0
19,11,49,0.0
21,13,54,0.0
19,13,50,0.0
28,19,71,0.0
25,18,64,0.0
32,25,81,0.0
27,21,68,0.0
27,23,71,0.0
37,32,94,0.0
32,29,82,0.0
31,29,80,0.0
37,36,94,0.0
34,34,86,0.0
36,38,92,0.0
42,45,106,0.0
37,41,95,0.0
39,45,100,0.0
38,45,96,0.0
44,54,114,0.0
41,53,107,0.0
45,58,114,0.0
40,54,104,0.0
36,50,95,0.0
43,62,114,0.0
40,59,104,0.0
40,60,105,0.0
42,64,107,0.0
42,66,108,0.0
40,65,105,0.0
42,70,110,0.0
39,68,103,0.0
38,67,98,0.0
41,73,105,0.0
41,78,109,0.0
38,71,98,0.0
38,72,97,0.0
35,69,91,0.0
40,80,103,0.0
38,80,101,0.0
39,82,100,0.0
37,81,97,0.0
39,87,101,0.0
41,93,107,0.0
41,94,106,0.0
41,97,106,0.0
42,102,109,0.0
41,102,107,0.0
42,105,109,0.0
42,110,111,0.0
42,113,112,0.0
43,118,113,0.0
41,113,107,0.0
43,121,112,0.0
43,125,113,0.0
44,131,116,0.0
43,131,113,0.0
67,-275,71,0.0
68,-279,75,0.0
66,-267,75,0.0
69,-273,79,0.0
69,-270,82,0.0
71,-270,85,0.0
73,-274,89,0.0
73,-271,91,0.0
74,-271,95,0.0
76,-276,100,0.0
75,-266,100,0.0
78,-272,105,0.0
78,-268,107,0.0
81,-273,113,0.0
81,-270,115,0.0
85,-280,122,0.0
83,-269,122,0.0
83,-262,122,0.0
85,-266,128,0.0
88,-273,134,0.0
84,-254,128,0.0
86,-259,134,0.0
88,-261,139,0.0
88,-255,139,0.0
98,-279,157,0.0
97,-274,159,0.0
99,-275,162,0.0
97,-266,161,0.0
86,-231,144,0.0
86,-227,145,0.0
75,-194,127,0.0
75,-192,129,0.0
73,-183,125,0.0
63,-156,110,0.0
8341,-20316,14647,0.0
8308,-19925,14709,0.0
8292,-19580,14798,0.0
8279,-19245,14889,0.0
8256,-18890,14958,0.0
8234,-18546,15031,0.0
8222,-18226,15117,0.0
8219,-17932,15221,0.0
8190,-17581,15270,0.0
8182,-17281,15358,0.0
8140,-16913,15379,0.0
8144,-16645,15485,0.0
8129,-16343,15557,0.0
8113,-16039,15621,0.0
8098,-15743,15687,0.0
8080,-15444,15746,0.0
8277,-15549,16221,0.0
8499,-15692,16751,0.0
8558,-15526,16960,0.0
8777,-15645,17490,0.0
9035,-15819,18099,0.0
9239,-15886,18606,0.0
0,0,0,0.0
12347,-20462,25116,1.0
12457,-20262,25465,1.0
12601,-20111,25884,1.0
0,0,0,0.0
0,0,0,0.0
0,0,0,0.0
0,0,0,0.0
0,0,0,0.0
0,0,0,0.0
0,0,0,0.0
0,0,0,0.0
0,0,0,0.0
0,0,0,0.0
0,0,0,0.0
0,0,0,0.0
3279,-3976,7120,0.0
3275,-3879,7141,0.0
3325,-3842,7275,0.0
3347,-3772,7349,0.0
3332,-3661,7342,0.0
3337,-3573,7382,0.0
3328,-3468,7386,0.0
3320,-3367,7394,0.0
3335,-3289,7453,0.0
3341,-3201,7491,0.0
3343,-3110,7520,0.0
3344,-3017,7546,0.0
3354,-2932,7592,0.0
3358,-2842,7625,0.0
3355,-2747,7643,0.0
3358,-2656,7672,0.0
0,0,0,0.0
0,0,0,0.0
0,0,0,0.0
0,0,0,0.0
0,0,0,0.0
0,0,0,0.0
0,0,0,0.0
0,0,0,0.0
0,0,0,0.0
0,0,0,0.0
0,0,0,0.0
3471,-1595,8199,0.0
3450,-1489,8172,0.0
3467,-1401,8233,0.0
3475,-1307,8270,0.0
3468,-1208,8273,0.0
3461,-1109,8278,0.0
3455,-1011,8283,0.0
3466,-916,8327,0.0
3466,-820,8347,0.0
0,0,0,0.0
0,0,0,0.0
0,0,0,0.0
8959,-1108,21769,0.0
8380,-799,20407,0.0
8152,-545,19893,0.0
7921,-303,19369,0.0
7896,-77,19349,0.0
7909,150,19422,0.0
7905,378,19452,0.0
7936,610,19566,0.0
7939,841,19612,0.0
7932,1072,19635,0.0
7962,1310,19747,0.0
7962,1546,19785,0.0
7961,1781,19820,0.0
7988,2024,19922,0.0
7955,2254,19878,0.0
7980,2502,19978,0.0
7987,2745,20029,0.0
7996,2992,20086,0.0
8019,3246,20183,0.0
8052,3507,20299,0.0
8014,3739,20239,0.0
12,6,31,0.0
8072,4271,20450,0.0
11,6,30,0.0
18,11,49,0.0
17,11,46,0.0
25,16,65,0.0
26,18,68,0.0
23,17,61,0.0
31,23,81,0.0
21,17,57,0.0
26,21,68,0.0
31,27,84,0.0
33,30,88,0.0
35,33,92,0.0
37,36,98,0.0
38,38,100,0.0
35,36,92,0.0
41,43,107,0.0
42,46,111,0.0
41,46,107,0.0
41,48,107,0.0
38,46,100,0.0
43,53,112,0.0
40,52,106,0.0
46,62,121,0.0
45,62,120,0.0
43,61,115,0.0
45,65,118,0.0
42,62,111,0.0
41,63,110,0.0
43,68,115,0.0
39,65,107,0.0
39,66,106,0.0
47,81,126,0.0
43,77,117,0.0
41,75,112,0.0
41,75,110,0.0
38,74,105,0.0
40,79,109,0.0
40,82,110,0.0
38,77,103,0.0
35,75,97,0.0
37,80,101,0.0
37,81,100,0.0
37,84,102,0.0
37,86,102,0.0
39,93,108,0.0
40,97,109,0.0
40,98,109,0.0
38,98,106,0.0
39,102,107,0.0
39,102,106,0.0
41,111,112,0.0
41,114,113,0.0
42,117,115,0.0
41,116,111,0.0
41,120,111,0.0
41,124,112,0.0
43,132,118,0.0
43,135,117,0.0
59,-258,67,0.0
61,-259,69,0.0
63,-262,74,0.0
64,-263,77,0.0
65,-261,79,0.0
66,-263,83,0.0
64,-252,83,0.0
67,-258,88,0.0
67,-255,90,0.0
69,-257,94,0.0
71,-260,98,0.0
71,-256,100,0.0
74,-262,106,0.0
75,-263,109,0.0
75,-259,111,0.0
78,-263,116,0.0
76,-255,116,0.0
77,-255,120,0.0
80,-260,125,0.0
80,-255,126,0.0
78,-244,124,0.0
82,-252,132,0.0
82,-251,134,0.0
83,-249,138,0.0
89,-263,149,0.0
91,-264,153,0.0
91,-260,155,0.0
84,-238,145,0.0
79,-218,137,0.0
79,-218,139,0.0
68,-184,121,0.0
67,-179,121,0.0
66,-172,119,0.0
8047,-20542,14537,0.0
8057,-20251,14674,0.0
8027,-19861,14736,0.0
8009,-19511,14819,0.0
7995,-19171,14905,0.0
7979,-18833,14985,0.0
7957,-18485,15053,0.0
7951,-18176,15147,0.0
7918,-17815,15190,0.0
7906,-17500,15268,0.0
7901,-17205,15358,0.0
7879,-16878,15415,0.0
7858,-16558,15472,0.0
7833,-16232,15516,0.0
7846,-15988,15635,0.0
7819,-15666,15673,0.0
7850,-15461,15827,0.0
7994,-15477,16210,0.0
8232,-15662,16784,0.0
8318,-15551,17052,0.0
8524,-15655,17567,0.0
8764,-15809,18156,0.0
8993,-15929,18725,0.0
0,0,0,0.0
0,0,0,0.0
0,0,0,0.0
0,0,0,0.0
0,0,0,0.0
12409,-19624,26591,1.0
0,0,0,0.0
0,0,0,0.0
0,0,0,0.0
0,0,0,0.0
0,0,0,0.0
0,0,0,0.0
0,0,0,0.0
0,0,0,0.0
0,0,0,0.0
0,0,0,0.0
3213,-4014,7206,0.0
3221,-3928,7249,0.0
3224,-3837,7283,0.0
3212,-3728,7280,0.0
3238,-3664,7367,0.0
3241,-3573,7399,0.0
3240,-3479,7424,0.0
3250,-3394,7471,0.0
0,0,0,0.0
0,0,0,0.0
0,0,0,0.0
0,0,0,0.0
0,0,0,0.0
0,0,0,0.0
0,0,0,0.0
0,0,0,0.0
0,0,0,0.0
0,0,0,0.0
0,0,0,0.0
0,0,0,0.0
12761,-8588,30518,1.0
0,0,0,0.0
0,0,0,0.0
0,0,0,0.0
12783,-7150,30903,1.0
0,0,0,0.0
0,0,0,0.0
0,0,0,0.0
0,0,0,0.0
0,0,0,0.0
3347,-1301,8218,0.0
3361,-1211,8273,0.0
3358,-1113,8285,0.0
3363,-1019,8316,0.0
3362,-921,8335,0.0
3352,-822,8329,0.0
0,0,0,0.0
12792,-2397,31923,1.0
0,0,0,0.0
8701,-1125,21812,0.0
8164,-818,20509,0.0
8028,-569,20211,0.0
7669,-318,19349,0.0
7652,-93,19346,0.0
7674,133,19443,0.0
7672,361,19479,0.0
7660,588,19487,0.0
7667,818,19545,0.0
7711,1055,19696,0.0
7707,1287,19727,0.0
7721,1523,19798,0.0
7718,1758,19831,0.0
7731,1997,19900,0.0
7752,2242,19993,0.0
7764,2485,20060,0.0
7759,2725,20085,0.0
7766,2970,20138,0.0
7793,3226,20245,0.0
7779,3467,20244,0.0
7804,3728,20347,0.0
7,3,21,0.0
7,4,22,0.0
13,7,36,0.0
19,11,52,0.0
19,12,53,0.0
13,9,38,0.0
12,8,34,0.0
21,16,57,0.0
20,16,55,0.0
19,16,54,0.0
21,17,56,0.0
27,24,75,0.0
27,25,74,0.0
27,25,73,0.0
35,34,94,0.0
35,36,94,0.0
35,36,93,0.0
27,30,74,0.0
27,32,76,0.0
30,36,84,0.0
32,40,90,0.0
34,42,93,0.0
35,46,96,0.0
33,44,91,0.0
35,49,97,0.0
35,50,96,0.0
40,59,112,0.0
39,58,106,0.0
37,57,102,0.0
37,60,103,0.0
36,58,99,0.0
39,65,107,0.0
36,61,100,0.0
36,65,102,0.0
33,62,94,0.0
32,60,91,0.0
33,64,94,0.0
35,69,98,0.0
32,66,92,0.0
35,72,98,0.0
32,70,93,0.0
33,71,93,0.0
34,75,95,0.0
33,75,94,0.0
36,83,100,0.0
34,81,96,0.0
35,84,98,0.0
35,88,99,0.0
35,91,101,0.0
35,91,99,0.0
35,95,101,0.0
37,99,104,0.0
37,104,106,0.0
39,111,111,0.0
37,108,106,0.0
38,111,106,0.0
38,114,107,0.0
38,121,111,0.0
38,122,108,0.0
39,128,111,0.0
58,-262,69,0.0
59,-261,72,0.0
61,-263,75,0.0
61,-258,77,0.0
64,-268,82,0.0
66,-273,87,0.0
63,-254,84,0.0
67,-268,92,0.0
64,-252,90,0.0
68,-263,96,0.0
70,-265,101,0.0
72,-271,106,0.0
71,-262,106,0.0
75,-273,114,0.0
73,-262,114,0.0
76,-267,119,0.0
76,-264,121,0.0
76,-259,122,0.0
78,-261,127,0.0
80,-261,131,0.0
76,-248,127,0.0
80,-257,135,0.0
80,-253,137,0.0
84,-261,145,0.0
89,-271,154,0.0
89,-268,156,0.0
90,-266,160,0.0
81,-239,147,0.0
76,-221,138,0.0
69,-195,126,0.0
64,-180,119,0.0
56,-155,105,0.0
7786,-20857,14487,0.0
7773,-20501,14582,0.0
7762,-20154,14678,0.0
7747,-19798,14761,0.0
7722,-19428,14827,0.0
7723,-19121,14936,0.0
7712,-18792,15023,0.0
7684,-18426,15074,0.0
7668,-18094,15147,0.0
7654,-17773,15222,0.0
7623,-17412,15258,0.0
7616,-17116,15344,0.0
7603,-16808,15415,0.0
7600,-16523,15502,0.0
7545,-16131,15483,0.0
7571,-15916,15627,0.0
7568,-15640,15711,0.0
7623,-15487,15915,0.0
7771,-15517,16314,0.0
7933,-15566,16745,0.0
8064,-15546,17111,0.0
8298,-15714,17699,0.0
8510,-15828,18243,0.0
8702,-15894,18748,0.0
0,0,0,0.0
0,0,0,0.0
0,0,0,0.0
0,0,0,0.0
11945,-19856,26350,1.0
0,0,0,0.0
0,0,0,0.0
0,0,0,0.0
12279,-18843,27562,1.0
0,0,0,0.0
0,0,0,0.0
0,0,0,0.0
0,0,0,0.0
0,0,0,0.0
0,0,0,0.0
0,0,0,0.0
3208,-4128,7431,0.0
3154,-3963,7334,0.0
3171,-3888,7399,0.0
3209,-3840,7517,0.0
4122,-4807,9687,0.0
0,0,0,0.0
0,0,0,0.0
0,0,0,0.0
0,0,0,0.0
0,0,0,0.0
0,0,0,0.0
0,0,0,0.0
0,0,0,0.0
0,0,0,0.0
0,0,0,0.0
0,0,0,0.0
0,0,0,0.0
0,0,0,0.0
0,0,0,0.0
0,0,0,0.0
12476,-8660,30802,1.0
0,0,0,0.0
12459,-7921,30929,1.0
0,0,0,0.0
12385,-7151,30911,1.0
0,0,0,0.0
0,0,0,0.0
0,0,0,0.0
0,0,0,0.0
3226,-1391,8157,0.0
3252,-1307,8244,0.0
3261,-1215,8285,0.0
3259,-1118,8299,0.0
3241,-1016,8272,0.0
3256,-925,8331,0.0
3244,-825,8321,0.0
0,0,0,0.0
0,0,0,0.0
0,0,0,0.0
8483,-1147,21952,0.0
7956,-837,20635,0.0
7788,-585,20246,0.0
7462,-335,19437,0.0
7428,-109,19392,0.0
7423,116,19417,0.0
7429,343,19476,0.0
7415,570,19478,0.0
7453,801,19619,0.0
7466,1033,19692,0.0
7446,1262,19680,0.0
7452,1496,19735,0.0
7482,1737,19851,0.0
7474,1970,19871,0.0
7462,2203,19877,0.0
7496,2452,20006,0.0
7493,2691,20035,0.0
7499,2935,20087,0.0
7522,3188,20189,0.0
7520,3433,20220,0.0
7536,3687,20298,0.0
7546,3942,20364,0.0
7566,4204,20452,0.0
13,8,37,0.0
13,8,37,0.0
10,7,31,0.0
19,12,52,0.0
19,14,54,0.0
16,13,47,0.0
17,14,50,0.0
25,21,70,0.0
28,24,78,0.0
26,24,75,0.0
26,26,76,0.0
28,27,77,0.0
28,28,78,0.0
31,32,87,0.0
31,34,89,0.0
34,38,95,0.0
34,40,98,0.0
35,43,100,0.0
35,45,101,0.0
32,42,92,0.0
35,47,100,0.0
34,47,98,0.0
33,46,94,0.0
36,52,101,0.0
37,56,108,0.0
37,58,107,0.0
37,59,106,0.0
38,61,109,0.0
39,66,113,0.0
38,66,111,0.0
36,65,106,0.0
36,67,106,0.0
40,75,116,0.0
34,66,100,0.0
34,68,99,0.0
34,69,99,0.0
35,73,103,0.0
34,74,102,0.0
32,71,94,0.0
31,70,91,0.0
33,77,98,0.0
33,78,98,0.0
33,78,96,0.0
34,84,101,0.0
32,80,93,0.0
34,88,101,0.0
33,88,99,0.0
35,96,105,0.0
34,92,99,0.0
36,100,105,0.0
36,104,107,0.0
36,108,108,0.0
35,106,104,0.0
36,111,106,0.0
36,114,107,0.0
37,121,111,0.0
37,125,112,0.0
37,124,109,0.0
51,-276,76,0.0
52,-272,78,0.0
55,-280,83,0.0
55,-279,86,0.0
56,-278,89,0.0
58,-285,94,0.0
58,-277,95,0.0
59,-280,99,0.0
59,-275,101,0.0
61,-277,106,0.0
61,-274,108,0.0
64,-282,114,0.0
64,-276,115,0.0
64,-272,117,0.0
65,-273,121,0.0
66,-274,125,0.0
67,-271,128,0.0
68,-271,132,0.0
69,-269,134,0.0
69,-265,136,0.0
69,-260,136,0.0
69,-255,138,0.0
78,-284,158,0.0
78,-280,159,0.0
77,-273,159,0.0
76,-268,160,0.0
71,-242,148,0.0
66,-224,140,0.0
64,-212,136,0.0
61,-202,133,0.0
58,-189,128,0.0
52,-166,115,0.0
51,-159,112,0.0
6643,-20186,14631,0.0
6630,-19825,14707,0.0
6635,-19517,14819,0.0
6615,-19142,14873,0.0
6600,-18789,14938,0.0
6606,-18501,15049,0.0
6597,-18170,15119,0.0
6593,-17862,15206,0.0
6588,-17550,15281,0.0
6580,-17238,15353,0.0
6566,-16916,15410,0.0
6562,-16621,15486,0.0
6558,-16329,15560,0.0
6554,-16042,15635,0.0
6542,-15738,15687,0.0
6540,-15464,15765,0.0
6680,-15520,16183,0.0
6847,-15627,16667,0.0
6911,-15497,16907,0.0
7092,-15619,17433,0.0
7298,-15785,18023,0.0
7482,-15890,18563,0.0
0,0,0,0.0
10180,-20831,25481,1.0
0,0,0,0.0
0,0,0,0.0
0,0,0,0.0
0,0,0,0.0
0,0,0,0.0
0,0,0,0.0
0,0,0,0.0
10876,-19014,28129,1.0
0,0,0,0.0
0,0,0,0.0
0,0,0,0.0
0,0,0,0.0
0,0,0,0.0
0,0,0,0.0
0,0,0,0.0
0,0,0,0.0
0,0,0,0.0
2697,-3765,7231,0.0
2693,-3667,7244,0.0
2701,-3584,7287,0.0
2696,-3488,7300,0.0
2706,-3409,7351,0.0
2703,-3314,7365,0.0
2713,-3233,7414,0.0
2717,-3146,7446,0.0
2726,-3066,7496,0.0
2732,-2981,7533,0.0
2726,-2885,7541,0.0
2741,-2808,7601,0.0
2731,-2708,7599,0.0
2740,-2624,7642,0.0
2751,-2544,7695,0.0
2760,-2462,7745,0.0
2760,-2369,7763,0.0
2771,-2288,7817,0.0
2766,-2192,7822,0.0
2767,-2103,7849,0.0
2784,-2024,7919,0.0
2772,-1923,7904,0.0
2780,-1836,7947,0.0
2783,-1748,7976,0.0
2779,-1654,7987,0.0
2788,-1567,8031,0.0
2796,-1480,8075,0.0
2795,-1386,8091,0.0
2792,-1293,8105,0.0
2799,-1203,8142,0.0
2800,-1111,8167,0.0
2808,-1020,8210,0.0
2806,-926,8224,0.0
2795,-829,8212,0.0
2826,-743,8320,0.0
2818,-647,8316,0.0
2812,-550,8318,0.0
7437,-1206,22048,0.0
7076,-908,21029,0.0
6829,-644,20340,0.0
6584,-397,19653,0.0
6472,-169,19363,0.0
6461,53,19374,0.0
6488,276,19499,0.0
6469,500,19485,0.0
6498,728,19614,0.0
6496,956,19651,0.0
6451,1175,19558,0.0
6497,1413,19740,0.0
6503,1645,19800,0.0
6488,1873,19799,0.0
6496,2108,19867,0.0
6506,2347,19936,0.0
6518,2588,20018,0.0
6534,2833,20109,0.0
6537,3075,20158,0.0
6531,3314,20184,0.0
6551,3570,20288,0.0
6555,3818,20345,0.0
6549,4064,20369,0.0
5,3,18,0.0
15,10,49,0.0
12,9,43,0.0
17,13,57,0.0
14,11,45,0.0
15,12,48,0.0
16,14,53,0.0
21,20,69,0.0
23,22,73,0.0
25,26,84,0.0
26,28,87,0.0
28,31,91,0.0
27,31,88,0.0
29,35,96,0.0
28,35,93,0.0
25,33,85,0.0
31,42,101,0.0
33,44,107,0.0
32,46,107,0.0
32,47,107,0.0
26,40,86,0.0
33,53,112,0.0
32,52,108,0.0
36,62,122,0.0
33,58,113,0.0
35,61,115,0.0
31,56,104,0.0
31,57,103,0.0
32,63,110,0.0
35,70,119,0.0
36,74,123,0.0
35,74,119,0.0
33,70,111,0.0
30,66,102,0.0
31,72,108,0.0
33,76,112,0.0
30,72,104,0.0
32,78,109,0.0
30,77,105,0.0
29,75,100,0.0
28,76,99,0.0
27,75,94,0.0
28,78,98,0.0
29,83,101,0.0
27,80,95,0.0
28,83,97,0.0
28,87,100,0.0
27,87,97,0.0
27,88,97,0.0
28,96,102,0.0
28,96,100,0.0
30,104,106,0.0
30,107,107,0.0
30,111,108,0.0
29,110,106,0.0
29,114,107,0.0
30,119,109,0.0
31,125,112,0.0
40,-272,78,0.0
41,-268,79,0.0
43,-273,84,0.0
44,-276,88,0.0
45,-277,91,0.0
45,-272,93,0.0
47,-276,98,0.0
47,-273,100,0.0
48,-272,103,0.0
50,-277,109,0.0
50,-274,110,0.0
51,-273,114,0.0
52,-275,118,0.0
52,-270,119,0.0
53,-267,121,0.0
54,-268,126,0.0
54,-266,128,0.0
55,-263,130,0.0
56,-264,134,0.0
56,-259,136,0.0
56,-257,138,0.0
60,-271,150,0.0
63,-273,154,0.0
62,-269,156,0.0
60,-258,153,0.0
61,-258,157,0.0
57,-231,145,0.0
55,-218,140,0.0
48,-190,124,0.0
46,-179,120,0.0
46,-176,121,0.0
45,-167,118,0.0
42,-158,113,0.0
38,-139,103,0.0
5551,-19561,14752,0.0
5552,-19234,14840,0.0
5554,-18911,14928,0.0
5556,-18599,15019,0.0
5550,-18264,15085,0.0
5550,-17949,15162,0.0
5539,-17607,15212,0.0
5529,-17272,15260,0.0
5543,-17019,15377,0.0
5538,-16705,15434,0.0
5538,-16418,15511,0.0
5426,-15803,15267,0.0
5520,-15793,15601,0.0
5517,-15508,15664,0.0
5617,-15508,16019,0.0
5726,-15526,16399,0.0
5844,-15559,16807,0.0
5965,-15594,17227,0.0
6106,-15673,17711,0.0
6276,-15813,18275,0.0
6422,-15881,18775,0.0
0,0,0,0.0
0,0,0,0.0
8810,-20576,26055,1.0
0,0,0,0.0
8988,-20188,26778,1.0
9062,-19953,27095,1.0
0,0,0,0.0
0,0,0,0.0
0,0,0,0.0
0,0,0,0.0
0,0,0,0.0
0,0,0,0.0
0,0,0,0.0
0,0,0,0.0
0,0,0,0.0
0,0,0,0.0
0,0,0,0.0
0,0,0,0.0
0,0,0,0.0
0,0,0,0.0
0,0,0,0.0
0,0,0,0.0
2294,-3438,7250,0.0
2303,-3360,7298,0.0
2306,-3274,7328,0.0
2313,-3194,7374,0.0
2313,-3104,7393,0.0
2312,-3013,7410,0.0
2320,-2933,7458,0.0
2317,-2840,7468,0.0
2324,-2759,7511,0.0
2324,-2671,7534,0.0
2332,-2590,7580,0.0
2335,-2505,7610,0.0
2338,-2418,7638,0.0
2340,-2332,7665,0.0
2338,-2241,7682,0.0
2341,-2155,7709,0.0
2347,-2071,7749,0.0
2351,-1986,7784,0.0
2350,-1896,7803,0.0
2357,-1812,7843,0.0
2362,-1728,7879,0.0
2367,-1642,7918,0.0
2366,-1552,7935,0.0
2379,-1470,7999,0.0
2384,-1382,8033,0.0
2393,-1296,8084,0.0
2386,-1202,8083,0.0
2402,-1118,8158,0.0
2405,-1027,8187,0.0
2417,-940,8244,0.0
2419,-848,8274,0.0
2426,-757,8318,0.0
2433,-666,8364,0.0
2434,-573,8385,0.0
2440,-479,8430,0.0
2458,-387,8509,0.0
5845,-692,20281,0.0
5691,-450,19795,0.0
5541,-221,19319,0.0
5391,-2,18842,0.0
5554,217,19458,0.0
5552,438,19500,0.0
5541,660,19508,0.0
5557,886,19612,0.0
5540,1107,19599,0.0
5561,1338,19722,0.0
5561,1566,19769,0.0
5555,1793,19794,0.0
5556,2023,19844,0.0
5560,2257,19907,0.0
5574,2497,20008,0.0
5578,2735,20071,0.0
5583,2976,20136,0.0
5555,3200,20084,0.0
5590,3463,20263,0.0
5583,3702,20287,0.0
5576,3943,20312,0.0
6,5,26,0.0
5,5,22,0.0
8,6,33,0.0
13,11,48,0.0
10,10,41,0.0
16,16,63,0.0
13,13,50,0.0
17,18,65,0.0
21,24,82,0.0
22,26,85,0.0
22,27,86,0.0
19,25,77,0.0
22,31,89,0.0
26,36,100,0.0
19,28,77,0.0
24,35,92,0.0
21,34,85,0.0
26,41,100,0.0
24,39,92,0.0
22,38,88,0.0
24,43,95,0.0
28,51,110,0.0
28,53,111,0.0
28,55,111,0.0
25,50,100,0.0
27,56,107,0.0
27,58,109,0.0
26,57,105,0.0
27,63,112,0.0
27,65,112,0.0
26,62,105,0.0
27,66,110,0.0
25,65,103,0.0
26,69,109,0.0
24,65,98,0.0
25,70,105,0.0
23,66,97,0.0
22,64,91,0.0
24,73,101,0.0
22,70,95,0.0
23,73,97,0.0
21,69,89,0.0
22,75,96,0.0
22,76,95,0.0
22,77,93,0.0
21,78,91,0.0
22,83,96,0.0
21,81,93,0.0
21,82,91,0.0
22,90,97,0.0
21,90,95,0.0
22,93,97,0.0
21,93,95,0.0
21,97,97,0.0
23,107,105,0.0
23,111,107,0.0
22,111,104,0.0
23,117,107,0.0
24,-270,80,0.0
24,-260,80,0.0
25,-273,88,0.0
26,-263,87,0.0
26,-267,92,0.0
28,-271,96,0.0
28,-266,98,0.0
29,-268,103,0.0
29,-263,104,0.0
31,-273,111,0.0
31,-270,113,0.0
32,-266,115,0.0
32,-261,115,0.0
32,-257,117,0.0
33,-261,123,0.0
34,-262,127,0.0
35,-260,130,0.0
35,-256,130,0.0
35,-245,129,0.0
37,-258,139,0.0
38,-256,142,0.0
40,-270,152,0.0
41,-268,156,0.0
40,-259,155,0.0
38,-238,145,0.0
36,-223,139,0.0
39,-231,148,0.0
34,-203,134,0.0
33,-190,127,0.0
32,-180,124,0.0
32,-178,125,0.0
28,-152,109,0.0
26,-141,104,0.0
24,-129,97,0.0
20,-101,78,0.0
20,-100,79,0.0
18,-91,73,0.0
3777,-18257,15081,0.0
3784,-17940,15152,0.0
3797,-17653,15246,0.0
3801,-17333,15305,0.0
3810,-17041,15382,0.0
3818,-16749,15455,0.0
3828,-16471,15537,0.0
3806,-16062,15488,0.0
3833,-15862,15635,0.0
3841,-15588,15707,0.0
3887,-15475,15939,0.0
3979,-15530,16353,0.0
4067,-15566,16756,0.0
4133,-15513,17073,0.0
4251,-15644,17603,0.0
4368,-15758,18131,0.0
4484,-15859,18658,0.0
0,0,0,0.0
6147,-20887,25702,1.0
6220,-20711,26070,1.0
0,0,0,0.0
0,0,0,0.0
0,0,0,0.0
0,0,0,0.0
0,0,0,0.0
0,0,0,0.0
0,0,0,0.0
0,0,0,0.0
0,0,0,0.0
0,0,0,0.0
0,0,0,0.0
0,0,0,0.0
0,0,0,0.0
0,0,0,0.0
0,0,0,0.0
0,0,0,0.0
0,0,0,0.0
0,0,0,0.0
2027,-4407,8876,0.0
2033,-4306,8920,0.0
2062,-4255,9072,0.0
2075,-4169,9151,0.0
2087,-4079,9225,0.0
2107,-4003,9332,0.0
2123,-3921,9429,0.0
2127,-3814,9468,0.0
2145,-3732,9571,0.0
2167,-3655,9689,0.0
2189,-3578,9815,0.0
2212,-3498,9940,0.0
2227,-3405,10029,0.0
2251,-3326,10166,0.0
2270,-3233,10272,0.0
2293,-3148,10405,0.0
2318,-3062,10541,0.0
2344,-2976,10687,0.0
2356,-2869,10768,0.0
2365,-2758,10835,0.0
2378,-2650,10918,0.0
2377,-2528,10945,0.0
2387,-2416,11015,0.0
2401,-2308,11110,0.0
2411,-2193,11184,0.0
2409,-2067,11203,0.0
2426,-1957,11314,0.0
0,0,0,0.0
0,0,0,0.0
0,0,0,0.0
0,0,0,0.0
0,0,0,0.0
6872,-3414,32554,1.0
0,0,0,0.0
6764,-2655,32218,1.0
6754,-2296,32254,1.0
6678,-1919,31981,1.0
4502,-1057,21618,0.0
4230,-768,20374,0.0
4199,-539,20281,0.0
3985,-299,19302,0.0
3986,-83,19362,0.0
3964,131,19316,0.0
3976,347,19432,0.0
3974,565,19479,0.0
3979,784,19560,0.0
3980,1006,19629,0.0
3980,1228,19688,0.0
3978,1451,19745,0.0
3969,1674,19762,0.0
3969,1900,19820,0.0
3959,2124,19842,0.0
3968,2359,19949,0.0
3970,2595,20029,0.0
3964,2826,20064,0.0
3960,3060,20113,0.0
3955,3295,20155,0.0
3955,3537,20231,0.0
6,5,30,0.0
3,2,14,0.0
5,5,27,0.0
7,7,32,0.0
7,8,39,0.0
6,7,30,0.0
9,11,47,0.0
10,13,53,0.0
10,14,53,0.0
13,20,71,0.0
12,18,63,0.0
14,24,76,0.0
13,22,68,0.0
16,28,84,0.0
15,27,79,0.0
14,28,78,0.0
18,36,97,0.0
15,31,82,0.0
17,37,93,0.0
18,41,99,0.0
16,37,88,0.0
19,44,102,0.0
17,42,94,0.0
17,44,96,0.0
16,44,93,0.0
17,48,97,0.0
18,50,99,0.0
17,53,103,0.0
17,52,97,0.0
18,59,108,0.0
18,60,109,0.0
17,59,102,0.0
17,58,98,0.0
18,66,108,0.0
17,62,99,0.0
16,61,97,0.0
17,65,98,0.0
16,66,99,0.0
16,67,98,0.0
15,67,95,0.0
15,67,95,0.0
14,65,88,0.0
14,69,91,0.0
15,72,93,0.0
14,71,90,0.0
14,75,93,0.0
13,73,88,0.0
14,76,90,0.0
13,73,85,0.0
13,77,88,0.0
12,75,84,0.0
13,82,89,0.0
13,85,90,0.0
12,89,92,0.0
13,87,89,0.0
12,90,90,0.0
13,98,96,0.0
12,98,93,0.0
12,100,95,0.0
11,-274,84,0.0
12,-271,86,0.0
13,-267,88,0.0
13,-273,93,0.0
14,-270,95,0.0
14,-264,96,0.0
15,-275,104,0.0
17,-278,108,0.0
16,-267,108,0.0
17,-262,108,0.0
17,-260,111,0.0
18,-264,116,0.0
19,-265,120,0.0
19,-262,122,0.0
20,-257,124,0.0
20,-264,129,0.0
21,-259,131,0.0
21,-253,132,0.0
23,-264,141,0.0
26,-285,156,0.0
26,-287,162,0.0
26,-282,163,0.0
25,-263,156,0.0
25,-251,152,0.0
23,-226,140,0.0
22,-210,133,0.0
22,-200,130,0.0
22,-199,133,0.0
20,-177,120,0.0
18,-162,113,0.0
20,-165,118,0.0
17,-142,104,0.0
16,-127,95,0.0
15,-118,90,0.0
13,-97,76,0.0
12,-94,75,0.0
12,-87,71,0.0
9,-61,51,0.0
2564,-17768,15201,0.0
2577,-17454,15264,0.0
2596,-17193,15369,0.0
2608,-16885,15429,0.0
2622,-16600,15503,0.0
2631,-16291,15550,0.0
2642,-15992,15602,0.0
2654,-15720,15676,0.0
2665,-15438,15734,0.0
2732,-15481,16125,0.0
2811,-15584,16592,0.0
2853,-15477,16843,0.0
2931,-15556,17304,0.0
3024,-15702,17856,0.0
3114,-15816,18387,0.0
3197,-15887,18883,0.0
4112,-19988,24292,1.0
0,0,0,0.0
0,0,0,0.0
0,0,0,0.0
4266,-18986,25251,1.0
0,0,0,0.0
4384,-18662,25987,1.0
0,0,0,0.0
0,0,0,0.0
4506,-17923,26774,1.0
0,0,0,0.0
0,0,0,0.0
0,0,0,0.0
0,0,0,0.0
0,0,0,0.0
0,0,0,0.0
0,0,0,0.0
4894,-16101,29326,1.0
0,0,0,0.0
0,0,0,0.0
4793,-14616,28835,1.0
4824,-14332,29062,1.0
0,0,0,0.0
0,0,0,0.0
0,0,0,0.0
0,0,0,0.0
0,0,0,0.0
0,0,0,0.0
0,0,0,0.0
0,0,0,0.0
4654,-10686,28466,1.0
0,0,0,0.0
0,0,0,0.0
0,0,0,0.0
0,0,0,0.0
0,0,0,0.0
0,0,0,0.0
0,0,0,0.0
0,0,0,0.0
0,0,0,0.0
0,0,0,0.0
0,0,0,0.0
4938,-7157,30990,1.0
0,0,0,0.0
0,0,0,0.0
0,0,0,0.0
0,0,0,0.0
0,0,0,0.0
0,0,0,0.0
4947,-4775,31627,1.0
0,0,0,0.0
0,0,0,0.0
4879,-3693,31466,1.0
0,0,0,0.0
0,0,0,0.0
0,0,0,0.0
0,0,0,0.0
0,0,0,0.0
3334,-1114,21914,0.0
3149,-826,20767,0.0
3077,-586,20364,0.0
2945,-347,19556,0.0
2901,-131,19333,0.0
2892,81,19347,0.0
2894,295,19440,0.0
2892,510,19494,0.0
2887,726,19540,0.0
2881,943,19578,0.0
2884,1164,19672,0.0
2881,1386,19731,0.0
2872,1606,19758,0.0
2865,1828,19798,0.0
2858,2051,19832,0.0
2859,2283,19934,0.0
2855,2512,19995,0.0
2843,2737,20005,0.0
2838,2969,20063,0.0
4,3,25,0.0
3,4,27,0.0
4,4,25,0.0
3,3,20,0.0
4,5,30,0.0
7,10,50,0.0
6,10,47,0.0
7,12,54,0.0
8,15,60,0.0
8,15,59,0.0
8,16,62,0.0
9,20,72,0.0
9,22,74,0.0
11,24,79,0.0
12,28,87,0.0
11,30,90,0.0
13,35,103,0.0
12,35,98,0.0
15,44,119,0.0
13,40,107,0.0
14,44,112,0.0
13,44,108,0.0
13,44,107,0.0
13,46,107,0.0
14,51,116,0.0
14,53,117,0.0
13,53,111,0.0
14,60,124,0.0
12,53,108,0.0
13,59,116,0.0
13,62,117,0.0
13,65,121,0.0
13,65,116,0.0
13,66,116,0.0
12,63,108,0.0
13,74,122,0.0
12,71,116,0.0
13,76,121,0.0
13,80,124,0.0
11,72,110,0.0
12,78,116,0.0
11,77,112,0.0
10,77,109,0.0
11,81,112,0.0
10,80,108,0.0
10,83,111,0.0
10,82,105,0.0
10,82,104,0.0
10,87,108,0.0
8,78,94,0.0
8,83,98,0.0
8,83,97,0.0
8,88,99,0.0
8,88,98,0.0
8,96,104,0.0
8,98,104,0.0
8,101,106,0.0
7,102,103,0.0
7,110,109,0.0
7,105,102,0.0
6,111,106,0.0
-1,-283,89,0.0
0,-270,87,0.0
0,-272,91,0.0
0,-269,94,0.0
1,-266,96,0.0
2,-262,98,0.0
2,-264,102,0.0
2,-261,104,0.0
2,-259,106,0.0
4,-272,115,0.0
4,-258,112,0.0
5,-261,117,0.0
5,-262,120,0.0
6,-253,120,0.0
6,-247,120,0.0
7,-260,130,0.0
7,-252,129,0.0
7,-257,136,0.0
9,-272,148,0.0
9,-282,157,0.0
10,-282,160,0.0
11,-281,163,0.0
11,-273,164,0.0
10,-255,156,0.0
11,-234,147,0.0
10,-228,147,0.0
10,-208,137,0.0
10,-200,135,0.0
10,-181,124,0.0
10,-179,126,0.0
8,-151,109,0.0
9,-153,113,0.0
8,-130,98,0.0
9,-133,103,0.0
7,-106,84,0.0
7,-108,87,0.0
6,-95,78,0.0
1343,-17906,15141,0.0
1363,-17597,15209,0.0
1382,-17278,15263,0.0
1403,-16996,15345,0.0
1421,-16686,15396,0.0
1442,-16428,15492,0.0
1447,-15995,15414,0.0
1479,-15881,15640,0.0
1493,-15572,15671,0.0
1524,-15442,15882,0.0
1569,-15458,16247,0.0
1629,-15604,16761,0.0
