//X,Y,Z,Classification
-7690.0,-3252.0,22994.0,0.0
-7687.0,-3512.0,22929.0,0.0
-7690.0,-3774.0,22886.0,0.0
-7689.0,-4035.0,22831.0,0.0
-7691.0,-4297.0,22783.0,0.0
-7696.0,-4561.0,22745.0,0.0
-7698.0,-4822.0,22694.0,0.0
-7689.0,-5076.0,22611.0,0.0
-7670.0,-5324.0,22502.0,0.0
-7689.0,-5597.0,22500.0,0.0
-7683.0,-5852.0,22427.0,0.0
-7695.0,-6122.0,22405.0,0.0
-7667.0,-6360.0,22268.0,0.0
-7682.0,-6632.0,22251.0,0.0
-7696.0,-6907.0,22235.0,0.0
-7701.0,-7172.0,22187.0,0.0
-7692.0,-7426.0,22104.0,0.0
-7709.0,-7705.0,22091.0,0.0
-7719.0,-7978.0,22058.0,0.0
-7705.0,-8228.0,21958.0,0.0
-8.0,-8.0,23.0,0.0
-7706.0,-8757.0,21833.0,0.0
0.0,0.0,0.0,0.0
-5.0,-7.0,18.0,0.0
-4.0,-5.0,12.0,0.0
-10.0,-14.0,32.0,0.0
-13.0,-18.0,39.0,0.0
-9.0,-11.0,26.0,0.0
-9.0,-13.0,27.0,0.0
-9.0,-13.0,28.0,0.0
-12.0,-18.0,34.0,0.0
-14.0,-21.0,41.0,0.0
-10.0,-16.0,30.0,0.0
-12.0,-19.0,35.0,0.0
-13.0,-20.0,37.0,0.0
-13.0,-22.0,38.0,0.0
-6.0,-12.0,20.0,0.0
-14.0,-25.0,40.0,0.0
-16.0,-29.0,46.0,0.0
-12.0,-21.0,33.0,0.0
-13.0,-24.0,36.0,0.0
-18.0,-34.0,50.0,0.0
-24.0,-48.0,67.0,0.0
-18.0,-36.0,50.0,0.0
-22.0,-45.0,60.0,0.0
-23.0,-47.0,61.0,0.0
-26.0,-54.0,69.0,0.0
-24.0,-51.0,63.0,0.0
-23.0,-49.0,59.0,0.0
-23.0,-51.0,61.0,0.0
-27.0,-60.0,70.0,0.0
-27.0,-63.0,72.0,0.0
-30.0,-68.0,76.0,0.0
-24.0,-59.0,64.0,0.0
-32.0,-77.0,82.0,0.0
-32.0,-79.0,83.0,0.0
-31.0,-79.0,80.0,0.0
-34.0,-86.0,85.0,0.0
-33.0,-84.0,81.0,0.0
-34.0,-89.0,86.0,0.0
-31.0,-85.0,79.0,0.0
-32.0,-87.0,79.0,0.0
-36.0,-99.0,88.0,0.0
-37.0,-102.0,89.0,0.0
-37.0,-106.0,90.0,0.0
-37.0,-107.0,88.0,0.0
-36.0,-104.0,84.0,0.0
-37.0,-110.0,87.0,0.0
-37.0,-114.0,88.0,0.0
-42.0,-128.0,96.0,0.0
-43.0,-133.0,98.0,0.0
-40.0,-130.0,94.0,0.0
-42.0,-138.0,97.0,0.0
-40.0,-132.0,91.0,0.0
-39.0,-131.0,88.0,0.0
-42.0,-144.0,94.0,0.0
-41.0,-142.0,91.0,0.0
-39.0,-137.0,86.0,0.0
-39.0,-139.0,85.0,0.0
-41.0,-149.0,88.0,0.0
-43.0,-157.0,91.0,0.0
-42.0,-158.0,89.0,0.0
-40.0,-154.0,85.0,0.0
-41.0,-160.0,86.0,0.0
-43.0,-168.0,87.0,0.0
-42.0,-169.0,85.0,0.0
-43.0,-174.0,86.0,0.0
-42.0,-172.0,82.0,0.0
-39.0,-166.0,77.0,0.0
-41.0,-174.0,79.0,0.0
-37.0,-161.0,70.0,0.0
-37.0,-163.0,69.0,0.0
-36.0,-161.0,66.0,0.0
-37.0,-168.0,67.0,0.0
-39.0,-177.0,69.0,0.0
-46.0,-217.0,81.0,0.0
-57.0,-275.0,100.0,0.0
-58.0,-280.0,98.0,0.0
-56.0,-279.0,95.0,0.0
-55.0,-281.0,92.0,0.0
-55.0,-284.0,90.0,0.0
-56.0,-288.0,88.0,0.0
-55.0,-291.0,85.0,0.0
-53.0,-286.0,80.0,0.0
-55.0,-298.0,80.0,0.0
-4675.0,18760.0,17109.0,0.0
-4788.0,18768.0,17490.0,0.0
-5028.0,19249.0,18327.0,0.0
-5124.0,19161.0,18639.0,0.0
-5229.0,19096.0,18980.0,0.0
-5295.0,18887.0,19180.0,0.0
-5414.0,18863.0,19574.0,0.0
-5332.0,18145.0,19240.0,0.0
-5512.0,18319.0,19851.0,0.0
-5536.0,17972.0,19903.0,0.0
-8908.0,28233.0,31955.0,0.0
-8862.0,27428.0,31731.0,0.0
-8979.0,27135.0,32092.0,0.0
-6840.0,20183.0,24403.0,0.0
-6975.0,20087.0,24834.0,0.0
-7111.0,19991.0,25272.0,0.0
-7124.0,19548.0,25275.0,0.0
-7119.0,19060.0,25209.0,0.0
-7101.0,18550.0,25101.0,0.0
-7094.0,18077.0,25030.0,0.0
-7068.0,17567.0,24894.0,0.0
-7043.0,17067.0,24759.0,0.0
-7079.0,16724.0,24841.0,0.0
-9754.0,22459.0,34166.0,0.0
-9782.0,21947.0,34202.0,0.0
-9781.0,21379.0,34140.0,0.0
-9759.0,20774.0,34003.0,0.0
-9750.0,20206.0,33910.0,0.0
-9749.0,19665.0,33848.0,0.0
-9125.0,17909.0,31628.0,0.0
-8969.0,17121.0,31032.0,0.0
-9028.0,16754.0,31182.0,0.0
-9028.0,16279.0,31125.0,0.0
-9223.0,16154.0,31740.0,0.0
-9398.0,15984.0,32288.0,0.0
-9587.0,15822.0,32880.0,0.0
-9585.0,15342.0,32813.0,0.0
-9606.0,14904.0,32827.0,0.0
-9589.0,14412.0,32710.0,0.0
-9489.0,13808.0,32315.0,0.0
-7792.0,10971.0,26490.0,0.0
-7844.0,10677.0,26622.0,0.0
-7824.0,10287.0,26505.0,0.0
-7813.0,9915.0,26423.0,0.0
-7790.0,9533.0,26299.0,0.0
-7773.0,9164.0,26195.0,0.0
-7758.0,8800.0,26095.0,0.0
-7743.0,8444.0,25999.0,0.0
-7732.0,8095.0,25917.0,0.0
-7726.0,7757.0,25853.0,0.0
-7712.0,7413.0,25757.0,0.0
-7695.0,7070.0,25654.0,0.0
-7689.0,6742.0,25585.0,0.0
-7673.0,6408.0,25486.0,0.0
-7672.0,6091.0,25437.0,0.0
-7647.0,5759.0,25308.0,0.0
-7650.0,5450.0,25271.0,0.0
-7626.0,5126.0,25148.0,0.0
-7608.0,4809.0,25043.0,0.0
-7613.0,4510.0,25011.0,0.0
-7590.0,4198.0,24888.0,0.0
-7578.0,3895.0,24803.0,0.0
-7563.0,3592.0,24709.0,0.0
-7562.0,3300.0,24656.0,0.0
-7555.0,3006.0,24588.0,0.0
-7541.0,2713.0,24497.0,0.0
-7535.0,2425.0,24430.0,0.0
-7531.0,2139.0,24367.0,0.0
-7520.0,1853.0,24283.0,0.0
-7502.0,1568.0,24178.0,0.0
-7498.0,1289.0,24118.0,0.0
-7498.0,1012.0,24068.0,0.0
-7489.0,735.0,23992.0,0.0
-7482.0,459.0,23919.0,0.0
-7469.0,185.0,23831.0,0.0
-7464.0,-85.0,23767.0,0.0
-7466.0,-355.0,23723.0,0.0
-7454.0,-624.0,23634.0,0.0
-7444.0,-892.0,23555.0,0.0
-7431.0,-1157.0,23466.0,0.0
-7430.0,-1422.0,23409.0,0.0
-7420.0,-1685.0,23327.0,0.0
-7414.0,-1947.0,23259.0,0.0
-7411.0,-2210.0,23202.0,0.0
-7414.0,-2473.0,23157.0,0.0
-7412.0,-2734.0,23101.0,0.0
-7411.0,-2996.0,23047.0,0.0
-7415.0,-3258.0,23004.0,0.0
-7414.0,-3519.0,22950.0,0.0
-7420.0,-3782.0,22915.0,0.0
-7418.0,-4041.0,22854.0,0.0
-7418.0,-4302.0,22800.0,0.0
-7403.0,-4553.0,22702.0,0.0
-7414.0,-4820.0,22684.0,0.0
-7408.0,-5075.0,22609.0,0.0
-7399.0,-5328.0,22526.0,0.0
-7394.0,-5584.0,22456.0,0.0
-7403.0,-5849.0,22427.0,0.0
-7417.0,-6120.0,22413.0,0.0
-7415.0,-6378.0,22351.0,0.0
-7421.0,-6643.0,22309.0,0.0
-7413.0,-6898.0,22231.0,0.0
-7408.0,-7153.0,22155.0,0.0
-7424.0,-7431.0,22145.0,0.0
-7425.0,-7693.0,22086.0,0.0
-7426.0,-7957.0,22029.0,0.0
-7426.0,-8220.0,21968.0,0.0
-10.0,-12.0,32.0,0.0
-5.0,-6.0,16.0,0.0
-9.0,-11.0,27.0,0.0
-11.0,-15.0,35.0,0.0
-16.0,-22.0,50.0,0.0
-16.0,-21.0,49.0,0.0
-16.0,-23.0,50.0,0.0
-14.0,-19.0,41.0,0.0
-15.0,-21.0,44.0,0.0
-16.0,-24.0,48.0,0.0
-14.0,-21.0,41.0,0.0
-18.0,-27.0,52.0,0.0
-14.0,-21.0,40.0,0.0
-18.0,-29.0,51.0,0.0
-23.0,-39.0,67.0,0.0
-19.0,-32.0,54.0,0.0
-12.0,-21.0,37.0,0.0
-18.0,-33.0,53.0,0.0
-17.0,-32.0,49.0,0.0
-20.0,-39.0,60.0,0.0
-19.0,-36.0,54.0,0.0
-24.0,-47.0,68.0,0.0
-20.0,-40.0,57.0,0.0
-26.0,-53.0,73.0,0.0
-30.0,-62.0,84.0,0.0
-30.0,-63.0,82.0,0.0
-24.0,-53.0,68.0,0.0
-26.0,-57.0,72.0,0.0
-27.0,-62.0,76.0,0.0
-31.0,-70.0,84.0,0.0
-27.0,-61.0,73.0,0.0
-29.0,-68.0,78.0,0.0
-34.0,-80.0,90.0,0.0
-30.0,-74.0,80.0,0.0
-27.0,-70.0,74.0,0.0
-35.0,-91.0,95.0,0.0
-30.0,-77.0,79.0,0.0
-37.0,-96.0,96.0,0.0
-33.0,-87.0,86.0,0.0
-40.0,-109.0,104.0,0.0
-37.0,-100.0,93.0,0.0
-37.0,-104.0,95.0,0.0
-38.0,-110.0,98.0,0.0
-40.0,-116.0,101.0,0.0
-38.0,-111.0,95.0,0.0
-41.0,-122.0,101.0,0.0
-39.0,-120.0,97.0,0.0
-40.0,-124.0,98.0,0.0
-41.0,-129.0,101.0,0.0
-41.0,-131.0,99.0,0.0
-41.0,-135.0,100.0,0.0
-43.0,-141.0,102.0,0.0
-41.0,-140.0,99.0,0.0
-40.0,-137.0,94.0,0.0
-43.0,-151.0,102.0,0.0
-42.0,-149.0,98.0,0.0
-43.0,-154.0,98.0,0.0
-43.0,-159.0,100.0,0.0
-42.0,-157.0,96.0,0.0
-44.0,-166.0,99.0,0.0
-42.0,-162.0,94.0,0.0
-45.0,-173.0,98.0,0.0
-42.0,-168.0,93.0,0.0
-44.0,-175.0,94.0,0.0
-41.0,-170.0,88.0,0.0
-41.0,-174.0,88.0,0.0
-42.0,-179.0,88.0,0.0
-43.0,-186.0,90.0,0.0
-40.0,-180.0,84.0,0.0
-41.0,-183.0,83.0,0.0
-39.0,-175.0,78.0,0.0
-39.0,-181.0,78.0,0.0
-37.0,-175.0,72.0,0.0
-37.0,-175.0,71.0,0.0
-37.0,-183.0,71.0,0.0
-41.0,-206.0,78.0,0.0
-56.0,-280.0,102.0,0.0
-56.0,-286.0,102.0,0.0
-56.0,-291.0,100.0,0.0
-55.0,-288.0,95.0,0.0
-54.0,-290.0,93.0,0.0
-56.0,-302.0,93.0,0.0
-53.0,-296.0,87.0,0.0
-53.0,-300.0,84.0,0.0
-52.0,-303.0,82.0,0.0
-4480.0,18862.0,17282.0,0.0
-4508.0,18530.0,17346.0,0.0
-4772.0,19154.0,18318.0,0.0
-4885.0,19140.0,18702.0,0.0
-4984.0,19069.0,19038.0,0.0
-5084.0,18990.0,19371.0,0.0
-5187.0,18916.0,19716.0,0.0
-5253.0,18702.0,19919.0,0.0
-5257.0,18274.0,19890.0,0.0
-5281.0,17921.0,19934.0,0.0
-5608.0,18577.0,21120.0,0.0
-5717.0,18488.0,21483.0,0.0
-5809.0,18333.0,21778.0,0.0
-8319.0,25624.0,31119.0,0.0
-6670.0,20049.0,24896.0,0.0
-6805.0,19961.0,25346.0,0.0
-6803.0,19468.0,25284.0,0.0
-6783.0,18939.0,25159.0,0.0
-6773.0,18443.0,25066.0,0.0
-6403.0,17002.0,23645.0,0.0
-6744.0,17461.0,24852.0,0.0
-6707.0,16929.0,24668.0,0.0
-6767.0,16647.0,24836.0,0.0
-9375.0,22473.0,34338.0,0.0
-9364.0,21868.0,34230.0,0.0
-9346.0,21255.0,34092.0,0.0
-9334.0,20670.0,33983.0,0.0
-9325.0,20101.0,33884.0,0.0
-9309.0,19524.0,33757.0,0.0
-9334.0,19044.0,33783.0,0.0
-8574.0,17011.0,30974.0,0.0
-8683.0,16743.0,31302.0,0.0
-8717.0,16331.0,31364.0,0.0
-8867.0,16134.0,31843.0,0.0
-9204.0,16255.0,32988.0,0.0
-9236.0,15825.0,33037.0,0.0
-9146.0,15196.0,32654.0,0.0
-9191.0,14802.0,32755.0,0.0
-9190.0,14333.0,32685.0,0.0
-9095.0,13730.0,32285.0,0.0
-7480.0,10923.0,26504.0,0.0
-7511.0,10601.0,26560.0,0.0
-7500.0,10225.0,26474.0,0.0
-7478.0,9837.0,26345.0,0.0
-7475.0,9480.0,26285.0,0.0
-7456.0,9109.0,26169.0,0.0
-7439.0,8743.0,26059.0,0.0
-7436.0,8399.0,25997.0,0.0
-7424.0,8050.0,25909.0,0.0
-7412.0,7705.0,25816.0,0.0
-7394.0,7357.0,25703.0,0.0
-7386.0,7025.0,25630.0,0.0
-7381.0,6697.0,25559.0,0.0
-7356.0,6357.0,25427.0,0.0
-7349.0,6035.0,25351.0,0.0
-7336.0,5713.0,25258.0,0.0
-7334.0,5402.0,25204.0,0.0
-7318.0,5084.0,25100.0,0.0
-7314.0,4778.0,25037.0,0.0
-7308.0,4472.0,24969.0,0.0
-7291.0,4164.0,24864.0,0.0
-7281.0,3863.0,24783.0,0.0
-7275.0,3566.0,24715.0,0.0
-7262.0,3268.0,24618.0,0.0
-7259.0,2978.0,24558.0,0.0
-7253.0,2688.0,24492.0,0.0
-7236.0,2397.0,24383.0,0.0
-7237.0,2114.0,24339.0,0.0
-7225.0,1829.0,24249.0,0.0
-7225.0,1549.0,24201.0,0.0
-7218.0,1270.0,24129.0,0.0
-7193.0,990.0,23999.0,0.0
-7197.0,716.0,23961.0,0.0
-7184.0,441.0,23867.0,0.0
-7188.0,169.0,23833.0,0.0
-7182.0,-100.0,23762.0,0.0
-7174.0,-370.0,23685.0,0.0
-7162.0,-637.0,23599.0,0.0
-7163.0,-904.0,23551.0,0.0
-7153.0,-1168.0,23466.0,0.0
-7141.0,-1431.0,23378.0,0.0
-7144.0,-1696.0,23333.0,0.0
-7128.0,-1954.0,23234.0,0.0
-7134.0,-2218.0,23201.0,0.0
-7134.0,-2479.0,23149.0,0.0
-7139.0,-2744.0,23117.0,0.0
-7134.0,-3002.0,23045.0,0.0
-7133.0,-3261.0,22990.0,0.0
-7128.0,-3519.0,22921.0,0.0
-7122.0,-3776.0,22850.0,0.0
-7131.0,-4040.0,22826.0,0.0
-7123.0,-4293.0,22748.0,0.0
-7130.0,-4557.0,22719.0,0.0
-7129.0,-4814.0,22659.0,0.0
-7142.0,-5082.0,22647.0,0.0
-7121.0,-5326.0,22527.0,0.0
-7119.0,-5583.0,22464.0,0.0
-7124.0,-5844.0,22423.0,0.0
-5.0,-4.0,18.0,0.0
-7132.0,-6368.0,22335.0,0.0
-6.0,-4.0,19.0,0.0
-6.0,-6.0,20.0,0.0
-7146.0,-7162.0,22207.0,0.0
-7.0,-8.0,25.0,0.0
-2.0,-2.0,8.0,0.0
-13.0,-15.0,45.0,0.0
-10.0,-11.0,32.0,0.0
-3.0,-4.0,11.0,0.0
-5.0,-6.0,17.0,0.0
-7.0,-9.0,24.0,0.0
-2.0,-3.0,9.0,0.0
-14.0,-19.0,45.0,0.0
-7.0,-10.0,24.0,0.0
-12.0,-16.0,38.0,0.0
-12.0,-18.0,40.0,0.0
-13.0,-21.0,44.0,0.0
-18.0,-28.0,57.0,0.0
-12.0,-20.0,39.0,0.0
-10.0,-17.0,32.0,0.0
-11.0,-19.0,34.0,0.0
-11.0,-18.0,33.0,0.0
-13.0,-24.0,42.0,0.0
-15.0,-27.0,46.0,0.0
-20.0,-37.0,60.0,0.0
-16.0,-29.0,48.0,0.0
-15.0,-27.0,44.0,0.0
-20.0,-38.0,59.0,0.0
-22.0,-43.0,65.0,0.0
-21.0,-42.0,62.0,0.0
-21.0,-43.0,62.0,0.0
-22.0,-46.0,64.0,0.0
-21.0,-46.0,63.0,0.0
-22.0,-49.0,64.0,0.0
-24.0,-54.0,70.0,0.0
-26.0,-58.0,74.0,0.0
-22.0,-52.0,63.0,0.0
-25.0,-59.0,71.0,0.0
-27.0,-67.0,78.0,0.0
-26.0,-66.0,76.0,0.0
-30.0,-73.0,83.0,0.0
-30.0,-76.0,83.0,0.0
-31.0,-80.0,86.0,0.0
-30.0,-78.0,82.0,0.0
-27.0,-73.0,75.0,0.0
-33.0,-91.0,90.0,0.0
-30.0,-84.0,82.0,0.0
-34.0,-96.0,92.0,0.0
-36.0,-104.0,97.0,0.0
-31.0,-92.0,85.0,0.0
-35.0,-106.0,95.0,0.0
-34.0,-103.0,90.0,0.0
-34.0,-104.0,89.0,0.0
-37.0,-116.0,97.0,0.0
-37.0,-119.0,97.0,0.0
-38.0,-125.0,99.0,0.0
-37.0,-122.0,95.0,0.0
-34.0,-117.0,89.0,0.0
-36.0,-120.0,89.0,0.0
-34.0,-121.0,88.0,0.0
-38.0,-134.0,95.0,0.0
-35.0,-125.0,86.0,0.0
-37.0,-136.0,92.0,0.0
-36.0,-135.0,89.0,0.0
-39.0,-146.0,95.0,0.0
-37.0,-142.0,89.0,0.0
-40.0,-155.0,95.0,0.0
-40.0,-158.0,95.0,0.0
-39.0,-157.0,91.0,0.0
-39.0,-158.0,90.0,0.0
-38.0,-157.0,86.0,0.0
-37.0,-156.0,84.0,0.0
-38.0,-164.0,86.0,0.0
-35.0,-156.0,79.0,0.0
-37.0,-163.0,82.0,0.0
-34.0,-157.0,76.0,0.0
-36.0,-166.0,78.0,0.0
-35.0,-163.0,74.0,0.0
-33.0,-160.0,71.0,0.0
-33.0,-158.0,69.0,0.0
-32.0,-162.0,68.0,0.0
-32.0,-159.0,65.0,0.0
-32.0,-166.0,66.0,0.0
-33.0,-172.0,65.0,0.0
-50.0,-266.0,98.0,0.0
-53.0,-283.0,101.0,0.0
-52.0,-281.0,97.0,0.0
-51.0,-282.0,94.0,0.0
-51.0,-289.0,93.0,0.0
-51.0,-294.0,91.0,0.0
-49.0,-285.0,85.0,0.0
-49.0,-289.0,83.0,0.0
-49.0,-300.0,82.0,0.0
-4281.0,18964.0,17452.0,0.0
-4285.0,18523.0,17415.0,0.0
-4548.0,19182.0,18426.0,0.0
-4649.0,19135.0,18779.0,0.0
-4742.0,19048.0,19099.0,0.0
-4843.0,18983.0,19448.0,0.0
-4944.0,18913.0,19799.0,0.0
-4917.0,18357.0,19635.0,0.0
-5093.0,18556.0,20283.0,0.0
-5083.0,18074.0,20190.0,0.0
-5239.0,18175.0,20751.0,0.0
-5468.0,18514.0,21606.0,0.0
-5580.0,18435.0,21992.0,0.0
-5694.0,18351.0,22380.0,0.0
-5809.0,18264.0,22777.0,0.0
-5920.0,18156.0,23152.0,0.0
-6025.0,18023.0,23506.0,0.0
-6422.0,18731.0,24988.0,0.0
-6386.0,18164.0,24792.0,0.0
-6276.0,17401.0,24303.0,0.0
-6305.0,17041.0,24359.0,0.0
-6394.0,16844.0,24649.0,0.0
-8941.0,22949.0,34384.0,0.0
-8946.0,22368.0,34324.0,0.0
-8944.0,21781.0,34241.0,0.0
-8929.0,21171.0,34102.0,0.0
-8909.0,20562.0,33952.0,0.0
-8915.0,20022.0,33898.0,0.0
-8916.0,19481.0,33828.0,0.0
-8238.0,17505.0,31190.0,0.0
-8170.0,16875.0,30861.0,0.0
-8239.0,16537.0,31054.0,0.0
-8296.0,16175.0,31204.0,0.0
-8707.0,16482.0,32677.0,0.0
-8778.0,16127.0,32874.0,0.0
-8823.0,15723.0,32972.0,0.0
-8804.0,15211.0,32832.0,0.0
-8804.0,14739.0,32764.0,0.0
-8812.0,14284.0,32723.0,0.0
-7021.0,11017.0,26022.0,0.0
-7182.0,10897.0,26561.0,0.0
-7200.0,10556.0,26574.0,0.0
-7184.0,10171.0,26459.0,0.0
-7172.0,9796.0,26361.0,0.0
-7166.0,9435.0,26283.0,0.0
-7154.0,9071.0,26188.0,0.0
-7141.0,8710.0,26087.0,0.0
-7124.0,8349.0,25972.0,0.0
-7122.0,8010.0,25910.0,0.0
-7120.0,7675.0,25851.0,0.0
-7100.0,7325.0,25727.0,0.0
-7083.0,6983.0,25613.0,0.0
-7078.0,6657.0,25544.0,0.0
-7063.0,6324.0,25439.0,0.0
-7061.0,6008.0,25378.0,0.0
-7051.0,5686.0,25290.0,0.0
-7047.0,5375.0,25228.0,0.0
-7027.0,5055.0,25106.0,0.0
-7008.0,4738.0,24988.0,0.0
-7008.0,4437.0,24934.0,0.0
-7001.0,4136.0,24860.0,0.0
-6994.0,3836.0,24786.0,0.0
-6976.0,3533.0,24670.0,0.0
-6988.0,3249.0,24662.0,0.0
-6964.0,2949.0,24528.0,0.0
-6968.0,2665.0,24491.0,0.0
-6964.0,2379.0,24428.0,0.0
-6951.0,2092.0,24331.0,0.0
-6948.0,1810.0,24271.0,0.0
-6943.0,1529.0,24201.0,0.0
-6931.0,1250.0,24112.0,0.0
-6923.0,973.0,24033.0,0.0
-6918.0,698.0,23969.0,0.0
-6913.0,426.0,23900.0,0.0
-6915.0,154.0,23856.0,0.0
-6897.0,-115.0,23741.0,0.0
-6892.0,-383.0,23676.0,0.0
-6882.0,-649.0,23587.0,0.0
-6883.0,-916.0,23541.0,0.0
-6863.0,-1177.0,23420.0,0.0
-6873.0,-1443.0,23406.0,0.0
-6862.0,-1704.0,23318.0,0.0
-6857.0,-1964.0,23249.0,0.0
-6845.0,-2222.0,23158.0,0.0
-6858.0,-2487.0,23149.0,0.0
-6855.0,-2746.0,23087.0,0.0
-6857.0,-3007.0,23040.0,0.0
-6862.0,-3268.0,23006.0,0.0
-6851.0,-3523.0,22918.0,0.0
-6861.0,-3786.0,22896.0,0.0
-6856.0,-4042.0,22828.0,0.0
-6853.0,-4299.0,22766.0,0.0
-6857.0,-4559.0,22726.0,0.0
-6854.0,-4814.0,22659.0,0.0
-6855.0,-5073.0,22610.0,0.0
-6.0,-5.0,23.0,0.0
-5747.0,-4687.0,18865.0,0.0
-6846.0,-5839.0,22415.0,0.0
-6853.0,-6103.0,22384.0,0.0
-6859.0,-6368.0,22350.0,0.0
-4951.0,-4783.0,16093.0,0.0
-4958.0,-4978.0,16074.0,0.0
-6857.0,-7143.0,22173.0,0.0
-1.0,-1.0,4.0,0.0
-3.0,-4.0,13.0,0.0
-7.0,-8.0,23.0,0.0
-9.0,-11.0,32.0,0.0
-9.0,-12.0,31.0,0.0
-8.0,-9.0,27.0,0.0
-4.0,-5.0,15.0,0.0
-8.0,-12.0,29.0,0.0
-6.0,-8.0,20.0,0.0
-8.0,-12.0,29.0,0.0
-12.0,-18.0,40.0,0.0
-14.0,-22.0,47.0,0.0
-15.0,-25.0,51.0,0.0
-18.0,-29.0,58.0,0.0
-16.0,-28.0,55.0,0.0
-16.0,-28.0,54.0,0.0
-16.0,-29.0,54.0,0.0
-15.0,-26.0,47.0,0.0
-16.0,-29.0,52.0,0.0
-16.0,-30.0,51.0,0.0
-19.0,-37.0,61.0,0.0
-16.0,-33.0,53.0,0.0
-16.0,-34.0,53.0,0.0
-19.0,-40.0,61.0,0.0
-20.0,-43.0,64.0,0.0
-21.0,-45.0,65.0,0.0
-27.0,-58.0,82.0,0.0
-21.0,-46.0,64.0,0.0
-25.0,-56.0,75.0,0.0
-27.0,-63.0,84.0,0.0
-26.0,-62.0,80.0,0.0
-24.0,-56.0,71.0,0.0
-29.0,-70.0,87.0,0.0
-30.0,-72.0,87.0,0.0
-24.0,-61.0,71.0,0.0
-29.0,-74.0,85.0,0.0
-31.0,-80.0,90.0,0.0
-26.0,-70.0,77.0,0.0
-30.0,-82.0,89.0,0.0
-31.0,-87.0,91.0,0.0
-33.0,-93.0,95.0,0.0
-31.0,-91.0,91.0,0.0
-32.0,-96.0,94.0,0.0
-34.0,-99.0,94.0,0.0
-33.0,-100.0,93.0,0.0
-32.0,-99.0,90.0,0.0
-35.0,-111.0,99.0,0.0
-35.0,-113.0,99.0,0.0
-37.0,-121.0,103.0,0.0
-33.0,-107.0,89.0,0.0
-34.0,-114.0,93.0,0.0
-38.0,-129.0,103.0,0.0
-35.0,-123.0,96.0,0.0
-37.0,-129.0,99.0,0.0
-37.0,-133.0,99.0,0.0
-38.0,-137.0,100.0,0.0
-35.0,-133.0,95.0,0.0
-37.0,-138.0,96.0,0.0
-36.0,-138.0,93.0,0.0
-37.0,-141.0,94.0,0.0
-39.0,-154.0,99.0,0.0
-34.0,-141.0,89.0,0.0
-36.0,-144.0,89.0,0.0
-37.0,-154.0,92.0,0.0
-36.0,-152.0,90.0,0.0
-40.0,-171.0,98.0,0.0
-37.0,-161.0,90.0,0.0
-37.0,-165.0,90.0,0.0
-33.0,-150.0,80.0,0.0
-37.0,-169.0,87.0,0.0
-37.0,-176.0,88.0,0.0
-36.0,-171.0,84.0,0.0
-38.0,-180.0,85.0,0.0
-35.0,-176.0,81.0,0.0
-33.0,-167.0,74.0,0.0
-33.0,-171.0,74.0,0.0
-34.0,-177.0,74.0,0.0
-32.0,-169.0,70.0,0.0
-31.0,-166.0,66.0,0.0
-32.0,-177.0,69.0,0.0
-45.0,-248.0,92.0,0.0
-49.0,-278.0,100.0,0.0
-49.0,-283.0,98.0,0.0
-48.0,-281.0,94.0,0.0
-48.0,-285.0,93.0,0.0
-48.0,-294.0,91.0,0.0
-47.0,-290.0,87.0,0.0
-45.0,-284.0,82.0,0.0
-46.0,-295.0,82.0,0.0
-4096.0,19144.0,17693.0,0.0
-4100.0,18688.0,17645.0,0.0
-4145.0,18428.0,17776.0,0.0
-4402.0,19090.0,18814.0,0.0
-4499.0,19031.0,19162.0,0.0
-4595.0,18956.0,19502.0,0.0
-4676.0,18815.0,19778.0,0.0
-4785.0,18782.0,20175.0,0.0
-4887.0,18713.0,20539.0,0.0
-4903.0,18314.0,20543.0,0.0
-4899.0,17845.0,20458.0,0.0
-5194.0,18457.0,21628.0,0.0
-5306.0,18389.0,22027.0,0.0
-5417.0,18309.0,22422.0,0.0
-5533.0,18236.0,22833.0,0.0
-5647.0,18149.0,23239.0,0.0
-5761.0,18054.0,23643.0,0.0
-5885.0,17977.0,24082.0,0.0
-5979.0,17804.0,24401.0,0.0
-6109.0,17726.0,24859.0,0.0
-6171.0,17451.0,25048.0,0.0
-6176.0,17014.0,25001.0,0.0
-8516.0,22852.0,34382.0,0.0
-8515.0,22251.0,34288.0,0.0
-8508.0,21647.0,34171.0,0.0
-7120.0,17636.0,28529.0,0.0
-8501.0,20488.0,33971.0,0.0
-8485.0,19893.0,33821.0,0.0
-8474.0,19326.0,33700.0,0.0
-8479.0,18798.0,33634.0,0.0
-7910.0,17044.0,31301.0,0.0
-7952.0,16648.0,31395.0,0.0
-8124.0,16514.0,31994.0,0.0
-8230.0,16241.0,32338.0,0.0
-8414.0,16110.0,32983.0,0.0
-8431.0,15656.0,32974.0,0.0
-8421.0,15157.0,32860.0,0.0
-8401.0,14648.0,32705.0,0.0
-8399.0,14178.0,32622.0,0.0
-6702.0,10946.0,25974.0,0.0
-6883.0,10869.0,26612.0,0.0
-6891.0,10513.0,26585.0,0.0
-6869.0,10118.0,26442.0,0.0
-6846.0,9725.0,26293.0,0.0
-6843.0,9368.0,26224.0,0.0
-6840.0,9016.0,26156.0,0.0
-6828.0,8656.0,26054.0,0.0
-6817.0,8303.0,25952.0,0.0
-6810.0,7958.0,25870.0,0.0
-6796.0,7610.0,25763.0,0.0
-6783.0,7269.0,25660.0,0.0
-6782.0,6943.0,25601.0,0.0
-6782.0,6621.0,25542.0,0.0
-6761.0,6284.0,25412.0,0.0
-6755.0,5964.0,25336.0,0.0
-6746.0,5645.0,25247.0,0.0
-6742.0,5333.0,25176.0,0.0
-6714.0,5006.0,25019.0,0.0
-6730.0,4715.0,25024.0,0.0
-6722.0,4411.0,24943.0,0.0
-6707.0,4104.0,24835.0,0.0
-6704.0,3807.0,24773.0,0.0
-6693.0,3510.0,24682.0,0.0
-6684.0,3215.0,24597.0,0.0
-6687.0,2929.0,24553.0,0.0
-6666.0,2634.0,24424.0,0.0
-6672.0,2353.0,24393.0,0.0
-6665.0,2070.0,24316.0,0.0
-6656.0,1787.0,24231.0,0.0
-6641.0,1505.0,24125.0,0.0
-6643.0,1230.0,24079.0,0.0
-6638.0,955.0,24013.0,0.0
-6625.0,681.0,23915.0,0.0
-6625.0,409.0,23861.0,0.0
-6620.0,139.0,23794.0,0.0
-6618.0,-129.0,23736.0,0.0
-6607.0,-396.0,23643.0,0.0
-6596.0,-661.0,23554.0,0.0
-6598.0,-927.0,23508.0,0.0
-6588.0,-1189.0,23425.0,0.0
-6589.0,-1451.0,23374.0,0.0
-6585.0,-1713.0,23306.0,0.0
-6578.0,-1972.0,23232.0,0.0
-6578.0,-2232.0,23181.0,0.0
-6573.0,-2490.0,23109.0,0.0
-6581.0,-2752.0,23084.0,0.0
-6571.0,-3007.0,22999.0,0.0
-6572.0,-3265.0,22953.0,0.0
-6581.0,-3527.0,22928.0,0.0
-4.0,-3.0,19.0,0.0
-6578.0,-4042.0,22818.0,0.0
-6575.0,-4297.0,22751.0,0.0
-6587.0,-4562.0,22738.0,0.0
-6575.0,-4811.0,22646.0,0.0
-6575.0,-5068.0,22590.0,0.0
0.0,0.0,0.0,0.0
-5496.0,-4667.0,18795.0,0.0
-5770.0,-5124.0,19682.0,0.0
-5790.0,-5369.0,19704.0,0.0
-5787.0,-5592.0,19646.0,0.0
-4769.0,-4796.0,16150.0,0.0
-4777.0,-4990.0,16133.0,0.0
-5.0,-6.0,20.0,0.0
-3.0,-4.0,11.0,0.0
0.0,0.0,1.0,0.0
-4790.0,-5761.0,16014.0,0.0
-4784.0,-5944.0,15955.0,0.0
-4.0,-5.0,15.0,0.0
-3.0,-5.0,13.0,0.0
-3.0,-5.0,13.0,0.0
-6.0,-10.0,25.0,0.0
-5.0,-8.0,20.0,0.0
-5.0,-9.0,22.0,0.0
-10.0,-16.0,36.0,0.0
-9.0,-14.0,31.0,0.0
-12.0,-21.0,42.0,0.0
-5.0,-10.0,22.0,0.0
-8.0,-12.0,26.0,0.0
-13.0,-24.0,46.0,0.0
-9.0,-17.0,32.0,0.0
-12.0,-23.0,42.0,0.0
-12.0,-24.0,43.0,0.0
-15.0,-28.0,49.0,0.0
-13.0,-28.0,45.0,0.0
-14.0,-29.0,48.0,0.0
-19.0,-39.0,62.0,0.0
-18.0,-40.0,61.0,0.0
-17.0,-36.0,56.0,0.0
-17.0,-37.0,56.0,0.0
-23.0,-51.0,72.0,0.0
-21.0,-49.0,70.0,0.0
-26.0,-61.0,83.0,0.0
-24.0,-57.0,75.0,0.0
-22.0,-54.0,70.0,0.0
-23.0,-58.0,73.0,0.0
-23.0,-57.0,71.0,0.0
-23.0,-60.0,72.0,0.0
-23.0,-60.0,71.0,0.0
-26.0,-69.0,80.0,0.0
-25.0,-68.0,77.0,0.0
-26.0,-72.0,80.0,0.0
-25.0,-72.0,79.0,0.0
-26.0,-76.0,80.0,0.0
-27.0,-82.0,84.0,0.0
-30.0,-89.0,89.0,0.0
-28.0,-86.0,84.0,0.0
-31.0,-96.0,92.0,0.0
-30.0,-94.0,88.0,0.0
-31.0,-99.0,92.0,0.0
-32.0,-105.0,94.0,0.0
-31.0,-102.0,90.0,0.0
-32.0,-109.0,94.0,0.0
-32.0,-110.0,92.0,0.0
-31.0,-109.0,89.0,0.0
-32.0,-114.0,92.0,0.0
-32.0,-117.0,91.0,0.0
-32.0,-121.0,92.0,0.0
-30.0,-114.0,86.0,0.0
-35.0,-131.0,95.0,0.0
-34.0,-128.0,92.0,0.0
-33.0,-130.0,91.0,0.0
-33.0,-129.0,88.0,0.0
-31.0,-128.0,85.0,0.0
-34.0,-140.0,91.0,0.0
-33.0,-136.0,86.0,0.0
-33.0,-142.0,88.0,0.0
-34.0,-147.0,89.0,0.0
-32.0,-138.0,82.0,0.0
-32.0,-145.0,83.0,0.0
-33.0,-153.0,86.0,0.0
-32.0,-151.0,82.0,0.0
-31.0,-147.0,78.0,0.0
-32.0,-153.0,79.0,0.0
-31.0,-152.0,77.0,0.0
-31.0,-154.0,75.0,0.0
-32.0,-164.0,78.0,0.0
-28.0,-147.0,69.0,0.0
-28.0,-150.0,67.0,0.0
-27.0,-150.0,66.0,0.0
-29.0,-156.0,66.0,0.0
-28.0,-156.0,64.0,0.0
-29.0,-162.0,65.0,0.0
-28.0,-161.0,62.0,0.0
-39.0,-230.0,86.0,0.0
-46.0,-278.0,100.0,0.0
-45.0,-274.0,96.0,0.0
-45.0,-278.0,94.0,0.0
-44.0,-281.0,91.0,0.0
-44.0,-285.0,90.0,0.0
-43.0,-288.0,87.0,0.0
-42.0,-282.0,82.0,0.0
-43.0,-295.0,83.0,0.0
-3894.0,19270.0,17882.0,0.0
-3929.0,18947.0,17962.0,0.0
-3922.0,18431.0,17852.0,0.0
-4150.0,19016.0,18816.0,0.0
-4259.0,19025.0,19233.0,0.0
-4352.0,18952.0,19576.0,0.0
-4443.0,18864.0,19908.0,0.0
-4539.0,18789.0,20262.0,0.0
-4512.0,18207.0,20064.0,0.0
-4631.0,18218.0,20518.0,0.0
-4661.0,17874.0,20574.0,0.0
-4932.0,18445.0,21701.0,0.0
-5043.0,18386.0,22112.0,0.0
-5147.0,18291.0,22490.0,0.0
-5262.0,18228.0,22916.0,0.0
-5373.0,18142.0,23322.0,0.0
-5483.0,18044.0,23723.0,0.0
-5599.0,17954.0,24148.0,0.0
-5716.0,17862.0,24577.0,0.0
-5832.0,17754.0,24999.0,0.0
-5851.0,17349.0,25002.0,0.0
-5909.0,17064.0,25173.0,0.0
-5959.0,16756.0,25310.0,0.0
-6336.0,17347.0,26838.0,0.0
-6470.0,17240.0,27325.0,0.0
-6594.0,17099.0,27771.0,0.0
-6787.0,17120.0,28503.0,0.0
-8080.0,19822.0,33837.0,0.0
-8066.0,19237.0,33684.0,0.0
-7447.0,17264.0,31015.0,0.0
-7470.0,16826.0,31029.0,0.0
-7625.0,16684.0,31592.0,0.0
-7775.0,16515.0,32128.0,0.0
-7851.0,16182.0,32355.0,0.0
-8021.0,16038.0,32972.0,0.0
-8037.0,15582.0,32957.0,0.0
-8040.0,15103.0,32881.0,0.0
-8016.0,14584.0,32702.0,0.0
-6286.0,11071.0,25584.0,0.0
-6419.0,10934.0,26058.0,0.0
-6537.0,10766.0,26477.0,0.0
-6572.0,10454.0,26550.0,0.0
-6558.0,10069.0,26433.0,0.0
-6550.0,9697.0,26335.0,0.0
-6541.0,9331.0,26238.0,0.0
-6528.0,8964.0,26123.0,0.0
-6523.0,8613.0,26042.0,0.0
-6508.0,8254.0,25922.0,0.0
-6505.0,7914.0,25850.0,0.0
-6496.0,7571.0,25755.0,0.0
-6493.0,7239.0,25684.0,0.0
-6484.0,6905.0,25589.0,0.0
-6475.0,6576.0,25498.0,0.0
-6471.0,6253.0,25423.0,0.0
-6471.0,5939.0,25367.0,0.0
-6453.0,5612.0,25236.0,0.0
-6447.0,5299.0,25158.0,0.0
-6441.0,4989.0,25079.0,0.0
-6437.0,4684.0,25006.0,0.0
-6424.0,4376.0,24899.0,0.0
-6421.0,4077.0,24834.0,0.0
-6424.0,3785.0,24792.0,0.0
-6407.0,3484.0,24672.0,0.0
-6403.0,3192.0,24599.0,0.0
-6399.0,2904.0,24533.0,0.0
-6392.0,2615.0,24453.0,0.0
-6389.0,2332.0,24387.0,0.0
-6385.0,2049.0,24316.0,0.0
-6378.0,1768.0,24237.0,0.0
-6375.0,1490.0,24172.0,0.0
-6369.0,1213.0,24099.0,0.0
-6347.0,936.0,23959.0,0.0
-6356.0,665.0,23939.0,0.0
-6352.0,394.0,23874.0,0.0
-6345.0,124.0,23795.0,0.0
-6339.0,-143.0,23719.0,0.0
-6335.0,-409.0,23656.0,0.0
-6333.0,-675.0,23594.0,0.0
-6323.0,-938.0,23502.0,0.0
-6315.0,-1199.0,23420.0,0.0
-6315.0,-1462.0,23373.0,0.0
-6309.0,-1721.0,23298.0,0.0
-6307.0,-1981.0,23234.0,0.0
-6302.0,-2238.0,23167.0,0.0
-6297.0,-2496.0,23097.0,0.0
-6304.0,-2757.0,23069.0,0.0
-6310.0,-3017.0,23038.0,0.0
-6305.0,-3273.0,22968.0,0.0
-6303.0,-3529.0,22909.0,0.0
-6301.0,-3784.0,22848.0,0.0
-6299.0,-4039.0,22786.0,0.0
-6312.0,-4304.0,22781.0,0.0
-6303.0,-4555.0,22699.0,0.0
-6307.0,-4814.0,22660.0,0.0
-6305.0,-5069.0,22599.0,0.0
-5810.0,-4908.0,20777.0,0.0
-5266.0,-4663.0,18785.0,0.0
-5531.0,-5121.0,19686.0,0.0
-5542.0,-5357.0,19674.0,0.0
-5.0,-4.0,19.0,0.0
-4606.0,-4828.0,16273.0,0.0
-4583.0,-4991.0,16152.0,0.0
-4490.0,-5074.0,15784.0,0.0
-9.0,-10.0,35.0,0.0
-7.0,-9.0,27.0,0.0
-4628.0,-5802.0,16147.0,0.0
-4644.0,-6012.0,16159.0,0.0
-7.0,-10.0,28.0,0.0
-8.0,-11.0,31.0,0.0
-4.0,-6.0,17.0,0.0
-12.0,-18.0,43.0,0.0
-8.0,-14.0,33.0,0.0
-9.0,-14.0,34.0,0.0
-13.0,-21.0,46.0,0.0
-9.0,-16.0,35.0,0.0
-12.0,-19.0,41.0,0.0
-11.0,-18.0,38.0,0.0
-9.0,-18.0,34.0,0.0
-13.0,-25.0,47.0,0.0
-17.0,-33.0,61.0,0.0
-12.0,-24.0,43.0,0.0
-14.0,-29.0,50.0,0.0
-17.0,-35.0,60.0,0.0
-14.0,-29.0,49.0,0.0
-14.0,-29.0,48.0,0.0
-15.0,-32.0,51.0,0.0
-18.0,-42.0,64.0,0.0
-18.0,-41.0,61.0,0.0
-21.0,-48.0,71.0,0.0
-22.0,-51.0,73.0,0.0
-16.0,-40.0,56.0,0.0
-18.0,-45.0,63.0,0.0
-19.0,-49.0,65.0,0.0
-24.0,-61.0,78.0,0.0
-19.0,-51.0,65.0,0.0
-23.0,-61.0,76.0,0.0
-23.0,-61.0,74.0,0.0
-26.0,-72.0,85.0,0.0
-26.0,-74.0,85.0,0.0
-24.0,-69.0,78.0,0.0
-28.0,-83.0,91.0,0.0
-26.0,-78.0,85.0,0.0
-31.0,-92.0,98.0,0.0
-25.0,-78.0,81.0,0.0
-27.0,-88.0,88.0,0.0
-31.0,-96.0,95.0,0.0
-31.0,-99.0,96.0,0.0
-30.0,-97.0,92.0,0.0
-32.0,-106.0,97.0,0.0
-32.0,-109.0,98.0,0.0
-31.0,-108.0,96.0,0.0
-34.0,-121.0,104.0,0.0
-32.0,-116.0,98.0,0.0
-31.0,-112.0,93.0,0.0
-32.0,-118.0,95.0,0.0
-30.0,-113.0,89.0,0.0
-32.0,-125.0,96.0,0.0
-31.0,-123.0,93.0,0.0
-33.0,-131.0,97.0,0.0
-34.0,-140.0,101.0,0.0
-32.0,-135.0,94.0,0.0
-33.0,-139.0,95.0,0.0
-34.0,-147.0,99.0,0.0
-34.0,-150.0,98.0,0.0
-32.0,-143.0,91.0,0.0
-32.0,-146.0,91.0,0.0
-33.0,-152.0,92.0,0.0
-33.0,-155.0,92.0,0.0
-33.0,-157.0,91.0,0.0
-32.0,-157.0,88.0,0.0
-33.0,-166.0,91.0,0.0
-32.0,-164.0,88.0,0.0
-31.0,-161.0,84.0,0.0
-31.0,-163.0,83.0,0.0
-31.0,-163.0,81.0,0.0
-29.0,-157.0,75.0,0.0
-29.0,-162.0,76.0,0.0
-28.0,-160.0,73.0,0.0
-27.0,-152.0,67.0,0.0
-28.0,-163.0,69.0,0.0
-26.0,-153.0,63.0,0.0
-26.0,-160.0,65.0,0.0
-26.0,-164.0,64.0,0.0
-34.0,-214.0,81.0,0.0
-42.0,-272.0,99.0,0.0
-42.0,-278.0,98.0,0.0
-42.0,-282.0,96.0,0.0
-41.0,-277.0,91.0,0.0
-40.0,-280.0,89.0,0.0
-41.0,-290.0,89.0,0.0
-40.0,-289.0,85.0,0.0
-39.0,-288.0,81.0,0.0
-3528.0,18548.0,17280.0,0.0
-3631.0,18597.0,17700.0,0.0
-3726.0,18582.0,18069.0,0.0
-3816.0,18540.0,18419.0,0.0
-4014.0,19001.0,19286.0,0.0
-4102.0,18916.0,19615.0,0.0
-4198.0,18862.0,19984.0,0.0
-4278.0,18730.0,20277.0,0.0
-4346.0,18537.0,20507.0,0.0
-4448.0,18487.0,20902.0,0.0
-4401.0,17826.0,20598.0,0.0
-4477.0,17671.0,20869.0,0.0
-4773.0,18358.0,22164.0,0.0
-4874.0,18267.0,22546.0,0.0
-4986.0,18204.0,22974.0,0.0
-5093.0,18113.0,23375.0,0.0
-5204.0,18031.0,23799.0,0.0
-5312.0,17930.0,24209.0,0.0
-5422.0,17826.0,24623.0,0.0
-5527.0,17694.0,25010.0,0.0
-5641.0,17587.0,25443.0,0.0
-5696.0,17287.0,25602.0,0.0
-5701.0,16842.0,25540.0,0.0
-6029.0,17332.0,26920.0,0.0
-6158.0,17225.0,27407.0,0.0
-6287.0,17107.0,27894.0,0.0
-6416.0,16979.0,28378.0,0.0
-6554.0,16865.0,28903.0,0.0
-6666.0,16671.0,29305.0,0.0
-6929.0,16837.0,30369.0,0.0
-7079.0,16708.0,30935.0,0.0
-7256.0,16627.0,31612.0,0.0
-7381.0,16418.0,32068.0,0.0
-7528.0,16246.0,32614.0,0.0
-7625.0,15958.0,32941.0,0.0
-7639.0,15495.0,32908.0,0.0
-7633.0,15001.0,32794.0,0.0
-7646.0,14548.0,32757.0,0.0
-6005.0,11056.0,25659.0,0.0
-6092.0,10849.0,25962.0,0.0
-6188.0,10649.0,26301.0,0.0
-6235.0,10361.0,26429.0,0.0
-6239.0,10003.0,26374.0,0.0
-6239.0,9646.0,26310.0,0.0
-6228.0,9276.0,26199.0,0.0
-6221.0,8917.0,26101.0,0.0
-6217.0,8566.0,26019.0,0.0
-6212.0,8219.0,25932.0,0.0
-6192.0,7856.0,25781.0,0.0
-6191.0,7525.0,25718.0,0.0
-6191.0,7197.0,25656.0,0.0
-6177.0,6857.0,25535.0,0.0
-6183.0,6542.0,25494.0,0.0
-6174.0,6216.0,25402.0,0.0
-6169.0,5897.0,25317.0,0.0
-6165.0,5583.0,25243.0,0.0
-6161.0,5271.0,25163.0,0.0
-6152.0,4960.0,25069.0,0.0
-6149.0,4656.0,24999.0,0.0
-6131.0,4344.0,24866.0,0.0
-6129.0,4046.0,24801.0,0.0
-6128.0,3753.0,24741.0,0.0
-6127.0,3461.0,24681.0,0.0
-6119.0,3168.0,24592.0,0.0
-6111.0,2879.0,24505.0,0.0
-6118.0,2597.0,24473.0,0.0
-6101.0,2308.0,24350.0,0.0
-6099.0,2027.0,24287.0,0.0
-6091.0,1746.0,24199.0,0.0
-6087.0,1469.0,24132.0,0.0
-6081.0,1194.0,24050.0,0.0
-6074.0,920.0,23968.0,0.0
-6081.0,650.0,23942.0,0.0
-6066.0,378.0,23828.0,0.0
-6061.0,110.0,23757.0,0.0
-6055.0,-156.0,23680.0,0.0
-6060.0,-421.0,23647.0,0.0
-6048.0,-685.0,23548.0,0.0
-6047.0,-948.0,23489.0,0.0
-6044.0,-1209.0,23424.0,0.0
-6038.0,-1469.0,23347.0,0.0
-6040.0,-1730.0,23304.0,0.0
-6030.0,-1986.0,23214.0,0.0
-6026.0,-2244.0,23145.0,0.0
-6020.0,-2499.0,23069.0,0.0
-6028.0,-2759.0,23046.0,0.0
-6032.0,-3018.0,23010.0,0.0
-6022.0,-3270.0,22921.0,0.0
-6035.0,-3533.0,22914.0,0.0
-6033.0,-3788.0,22854.0,0.0
-6026.0,-4040.0,22778.0,0.0
-6032.0,-4299.0,22748.0,0.0
-6032.0,-4555.0,22695.0,0.0
-6028.0,-4807.0,22627.0,0.0
-6034.0,-5067.0,22597.0,0.0
0.0,0.0,3.0,0.0
-5060.0,-4680.0,18862.0,0.0
-5299.0,-5124.0,19705.0,0.0
0.0,0.0,0.0,0.0
-4.0,-4.0,15.0,0.0
-4298.0,-4704.0,15869.0,0.0
-5.0,-6.0,20.0,0.0
0.0,0.0,0.0,0.0
-3.0,-4.0,12.0,0.0
-3.0,-4.0,11.0,0.0
-4.0,-5.0,15.0,0.0
-4.0,-6.0,18.0,0.0
-3.0,-4.0,13.0,0.0
-5.0,-8.0,20.0,0.0
-8.0,-13.0,33.0,0.0
-5.0,-8.0,20.0,0.0
-5.0,-7.0,19.0,0.0
-7.0,-12.0,28.0,0.0
0.0,0.0,3.0,0.0
-8.0,-15.0,32.0,0.0
-7.0,-13.0,28.0,0.0
-8.0,-15.0,32.0,0.0
-6.0,-12.0,24.0,0.0
-10.0,-19.0,38.0,0.0
-11.0,-21.0,41.0,0.0
-10.0,-22.0,40.0,0.0
-16.0,-35.0,62.0,0.0
-14.0,-30.0,51.0,0.0
-10.0,-21.0,37.0,0.0
-10.0,-24.0,38.0,0.0
-13.0,-31.0,50.0,0.0
-10.0,-23.0,37.0,0.0
-17.0,-41.0,61.0,0.0
-15.0,-38.0,56.0,0.0
-17.0,-43.0,62.0,0.0
-16.0,-41.0,59.0,0.0
-15.0,-41.0,56.0,0.0
-22.0,-57.0,75.0,0.0
-17.0,-49.0,63.0,0.0
-21.0,-56.0,71.0,0.0
-19.0,-52.0,65.0,0.0
-24.0,-66.0,81.0,0.0
-20.0,-58.0,70.0,0.0
-22.0,-64.0,74.0,0.0
-25.0,-74.0,84.0,0.0
-23.0,-70.0,78.0,0.0
-25.0,-78.0,84.0,0.0
-26.0,-84.0,88.0,0.0
-25.0,-81.0,84.0,0.0
-24.0,-79.0,80.0,0.0
-27.0,-90.0,90.0,0.0
-27.0,-93.0,90.0,0.0
-30.0,-104.0,98.0,0.0
-26.0,-91.0,85.0,0.0
-27.0,-96.0,87.0,0.0
-28.0,-105.0,93.0,0.0
-28.0,-105.0,92.0,0.0
-31.0,-118.0,100.0,0.0
-29.0,-112.0,93.0,0.0
-28.0,-110.0,89.0,0.0
-28.0,-112.0,88.0,0.0
-28.0,-116.0,90.0,0.0
-28.0,-117.0,89.0,0.0
-29.0,-124.0,91.0,0.0
-30.0,-131.0,95.0,0.0
-30.0,-132.0,93.0,0.0
-29.0,-131.0,90.0,0.0
-29.0,-134.0,90.0,0.0
-30.0,-139.0,91.0,0.0
-30.0,-144.0,92.0,0.0
-29.0,-140.0,88.0,0.0
-29.0,-145.0,88.0,0.0
-29.0,-144.0,85.0,0.0
-28.0,-141.0,82.0,0.0
-29.0,-149.0,84.0,0.0
-28.0,-148.0,82.0,0.0
-26.0,-143.0,77.0,0.0
-26.0,-146.0,76.0,0.0
-27.0,-152.0,78.0,0.0
-28.0,-158.0,79.0,0.0
-25.0,-146.0,71.0,0.0
-26.0,-152.0,71.0,0.0
-24.0,-148.0,67.0,0.0
-24.0,-149.0,66.0,0.0
-23.0,-145.0,62.0,0.0
-23.0,-147.0,61.0,0.0
-23.0,-152.0,61.0,0.0
-24.0,-159.0,62.0,0.0
-30.0,-197.0,75.0,0.0
-39.0,-268.0,99.0,0.0
-40.0,-274.0,97.0,0.0
-38.0,-272.0,93.0,0.0
-38.0,-275.0,91.0,0.0
-38.0,-279.0,89.0,0.0
-38.0,-281.0,86.0,0.0
-38.0,-285.0,85.0,0.0
-37.0,-287.0,81.0,0.0
-3328.0,18667.0,17458.0,0.0
-3489.0,19045.0,18195.0,0.0
-3512.0,18659.0,18213.0,0.0
-3545.0,18333.0,18282.0,0.0
-3759.0,18924.0,19279.0,0.0
-3859.0,18917.0,19691.0,0.0
-3949.0,18847.0,20044.0,0.0
-4029.0,18727.0,20350.0,0.0
-4123.0,18660.0,20721.0,0.0
-4219.0,18595.0,21102.0,0.0
-4234.0,18172.0,21076.0,0.0
-4231.0,17686.0,20966.0,0.0
-4502.0,18326.0,22207.0,0.0
-4609.0,18269.0,22634.0,0.0
-4709.0,18177.0,23025.0,0.0
-4816.0,18104.0,23452.0,0.0
-4923.0,18016.0,23869.0,0.0
-5030.0,17924.0,24291.0,0.0
-5136.0,17817.0,24702.0,0.0
-5247.0,17717.0,25138.0,0.0
-5347.0,17576.0,25523.0,0.0
-5411.0,17309.0,25731.0,0.0
-5397.0,16798.0,25569.0,0.0
-5487.0,16615.0,25903.0,0.0
-5842.0,17205.0,27478.0,0.0
-5972.0,17099.0,27986.0,0.0
-6094.0,16966.0,28462.0,0.0
-6229.0,16852.0,28990.0,0.0
-6355.0,16706.0,29480.0,0.0
-6441.0,16448.0,29782.0,0.0
-6575.0,16301.0,30297.0,0.0
-6743.0,16228.0,30973.0,0.0
-6900.0,16113.0,31593.0,0.0
-7114.0,16112.0,32472.0,0.0
-7243.0,15903.0,32956.0,0.0
-7256.0,15438.0,32915.0,0.0
-7252.0,14943.0,32797.0,0.0
-7244.0,14449.0,32664.0,0.0
-5709.0,11016.0,25665.0,0.0
-5805.0,10830.0,26022.0,0.0
-5890.0,10618.0,26331.0,0.0
-5947.0,10349.0,26505.0,0.0
-5929.0,9954.0,26353.0,0.0
-5923.0,9584.0,26251.0,0.0
-5925.0,9233.0,26189.0,0.0
-5920.0,8876.0,26096.0,0.0
-5910.0,8515.0,25977.0,0.0
-5902.0,8164.0,25876.0,0.0
-5906.0,7835.0,25829.0,0.0
-5895.0,7488.0,25708.0,0.0
-5902.0,7169.0,25673.0,0.0
-5889.0,6828.0,25548.0,0.0
-5891.0,6509.0,25492.0,0.0
-5883.0,6183.0,25390.0,0.0
-5879.0,5866.0,25310.0,0.0
-5874.0,5550.0,25223.0,0.0
-5879.0,5247.0,25180.0,0.0
-5858.0,4926.0,25032.0,0.0
-5854.0,4621.0,24955.0,0.0
-5849.0,4320.0,24871.0,0.0
-5851.0,4025.0,24819.0,0.0
-5851.0,3733.0,24761.0,0.0
-5838.0,3433.0,24644.0,0.0
-5839.0,3146.0,24588.0,0.0
-5832.0,2857.0,24500.0,0.0
-5830.0,2572.0,24432.0,0.0
-5823.0,2287.0,24346.0,0.0
-5814.0,2006.0,24254.0,0.0
-5809.0,1727.0,24178.0,0.0
-5810.0,1452.0,24126.0,0.0
-5810.0,1178.0,24067.0,0.0
-5796.0,903.0,23955.0,0.0
-5805.0,634.0,23937.0,0.0
-5795.0,364.0,23840.0,0.0
-5795.0,96.0,23785.0,0.0
-5786.0,-168.0,23693.0,0.0
-5793.0,-433.0,23664.0,0.0
-5776.0,-696.0,23541.0,0.0
-5774.0,-958.0,23480.0,0.0
-5780.0,-1221.0,23449.0,0.0
-5773.0,-1480.0,23369.0,0.0
-5766.0,-1737.0,23285.0,0.0
-5759.0,-1993.0,23205.0,0.0
-5755.0,-2249.0,23136.0,0.0
-5763.0,-2509.0,23112.0,0.0
-5761.0,-2765.0,23052.0,0.0
-5761.0,-3022.0,23001.0,0.0
-5770.0,-3283.0,22983.0,0.0
-5762.0,-3534.0,22898.0,0.0
-5762.0,-3789.0,22848.0,0.0
-5770.0,-4050.0,22825.0,0.0
-5757.0,-4296.0,22722.0,0.0
-5764.0,-4556.0,22697.0,0.0
-5758.0,-4806.0,22622.0,0.0
-5758.0,-5060.0,22568.0,0.0
-5746.0,-5303.0,22467.0,0.0
-4810.0,-4653.0,18767.0,0.0
-5064.0,-5123.0,19712.0,0.0
-5065.0,-5349.0,19671.0,0.0
-5062.0,-5570.0,19613.0,0.0
-4091.0,-4683.0,15811.0,0.0
-3.0,-3.0,15.0,0.0
-5.0,-5.0,19.0,0.0
-3.0,-4.0,13.0,0.0
-5.0,-6.0,20.0,0.0
-5.0,-7.0,20.0,0.0
-5.0,-7.0,21.0,0.0
-6.0,-9.0,25.0,0.0
-6.0,-9.0,25.0,0.0
-2.0,-3.0,10.0,0.0
-6.0,-9.0,23.0,0.0
-8.0,-13.0,32.0,0.0
-7.0,-12.0,28.0,0.0
-6.0,-11.0,25.0,0.0
-11.0,-20.0,43.0,0.0
-11.0,-21.0,43.0,0.0
-9.0,-17.0,35.0,0.0
-12.0,-24.0,46.0,0.0
-11.0,-22.0,42.0,0.0
-14.0,-29.0,53.0,0.0
-12.0,-26.0,46.0,0.0
-14.0,-29.0,52.0,0.0
-11.0,-25.0,43.0,0.0
-14.0,-31.0,53.0,0.0
-15.0,-34.0,56.0,0.0
-13.0,-32.0,50.0,0.0
-17.0,-40.0,61.0,0.0
-18.0,-44.0,66.0,0.0
-17.0,-42.0,62.0,0.0
-18.0,-45.0,65.0,0.0
-20.0,-52.0,72.0,0.0
-22.0,-58.0,79.0,0.0
-22.0,-60.0,80.0,0.0
-20.0,-55.0,71.0,0.0
-21.0,-59.0,75.0,0.0
-26.0,-76.0,94.0,0.0
-24.0,-69.0,84.0,0.0
-21.0,-63.0,76.0,0.0
-21.0,-65.0,76.0,0.0
-25.0,-79.0,89.0,0.0
-24.0,-75.0,84.0,0.0
-23.0,-73.0,79.0,0.0
-27.0,-88.0,93.0,0.0
-27.0,-92.0,95.0,0.0
-28.0,-95.0,97.0,0.0
-27.0,-93.0,92.0,0.0
-26.0,-91.0,89.0,0.0
-29.0,-104.0,98.0,0.0
-28.0,-103.0,97.0,0.0
-29.0,-108.0,98.0,0.0
-28.0,-106.0,94.0,0.0
-26.0,-101.0,88.0,0.0
-27.0,-107.0,91.0,0.0
-29.0,-117.0,97.0,0.0
-28.0,-115.0,93.0,0.0
-30.0,-125.0,99.0,0.0
-28.0,-121.0,93.0,0.0
-27.0,-119.0,90.0,0.0
-29.0,-130.0,96.0,0.0
-31.0,-137.0,99.0,0.0
-29.0,-130.0,93.0,0.0
-31.0,-146.0,100.0,0.0
-29.0,-139.0,94.0,0.0
-30.0,-144.0,95.0,0.0
-29.0,-141.0,91.0,0.0
-29.0,-143.0,90.0,0.0
-30.0,-152.0,92.0,0.0
-27.0,-142.0,84.0,0.0
-29.0,-154.0,90.0,0.0
-30.0,-160.0,91.0,0.0
-29.0,-158.0,87.0,0.0
-28.0,-156.0,84.0,0.0
-27.0,-153.0,80.0,0.0
-28.0,-164.0,83.0,0.0
-26.0,-156.0,77.0,0.0
-26.0,-159.0,77.0,0.0
-26.0,-158.0,74.0,0.0
-25.0,-156.0,71.0,0.0
-24.0,-152.0,68.0,0.0
-23.0,-153.0,66.0,0.0
-23.0,-153.0,64.0,0.0
-23.0,-155.0,63.0,0.0
-22.0,-155.0,62.0,0.0
-27.0,-195.0,74.0,0.0
-37.0,-264.0,98.0,0.0
-37.0,-273.0,97.0,0.0
-37.0,-277.0,95.0,0.0
-36.0,-280.0,93.0,0.0
-36.0,-285.0,91.0,0.0
-36.0,-287.0,89.0,0.0
-34.0,-282.0,84.0,0.0
-35.0,-292.0,84.0,0.0
-3207.0,19280.0,18097.0,0.0
-3282.0,19182.0,18393.0,0.0
-3316.0,18851.0,18467.0,0.0
-3334.0,18429.0,18444.0,0.0
-3522.0,18937.0,19362.0,0.0
-3617.0,18922.0,19767.0,0.0
-3701.0,18837.0,20106.0,0.0
-3786.0,18752.0,20451.0,0.0
-3873.0,18665.0,20801.0,0.0
-3854.0,18077.0,20587.0,0.0
-4008.0,18293.0,21292.0,0.0
-4027.0,17886.0,21280.0,0.0
-4132.0,17867.0,21728.0,0.0
-4336.0,18243.0,22682.0,0.0
-4436.0,18163.0,23090.0,0.0
-4536.0,18080.0,23503.0,0.0
-4640.0,17996.0,23926.0,0.0
-4742.0,17899.0,24343.0,0.0
-4848.0,17806.0,24776.0,0.0
-4955.0,17708.0,25214.0,0.0
-5056.0,17577.0,25615.0,0.0
-5161.0,17449.0,26031.0,0.0
-5199.0,17095.0,26115.0,0.0
-5210.0,16662.0,26071.0,0.0
-5531.0,17194.0,27560.0,0.0
-5648.0,17064.0,28031.0,0.0
-5774.0,16957.0,28552.0,0.0
-5896.0,16821.0,29043.0,0.0
-6023.0,16687.0,29554.0,0.0
-6099.0,16409.0,29819.0,0.0
-6232.0,16275.0,30359.0,0.0
-6349.0,16090.0,30822.0,0.0
-6592.0,16203.0,31889.0,0.0
-6695.0,15954.0,32274.0,0.0
-6824.0,15760.0,32783.0,0.0
-6871.0,15371.0,32900.0,0.0
-6856.0,14850.0,32720.0,0.0
-6869.0,14398.0,32674.0,0.0
-5430.0,11006.0,25744.0,0.0
-5525.0,10824.0,26113.0,0.0
-5600.0,10596.0,26381.0,0.0
-5636.0,10293.0,26471.0,0.0
-5622.0,9904.0,26327.0,0.0
-5621.0,9541.0,26238.0,0.0
-5624.0,9191.0,26174.0,0.0
-5621.0,8836.0,26085.0,0.0
-5614.0,8480.0,25980.0,0.0
-5615.0,8140.0,25908.0,0.0
-5617.0,7806.0,25844.0,0.0
-5613.0,7468.0,25755.0,0.0
-5610.0,7133.0,25663.0,0.0
-5602.0,6799.0,25557.0,0.0
-5587.0,6462.0,25423.0,0.0
-5579.0,6136.0,25315.0,0.0
-5591.0,5836.0,25302.0,0.0
-5580.0,5514.0,25184.0,0.0
-5582.0,5209.0,25127.0,0.0
-5584.0,4907.0,25066.0,0.0
-5580.0,4602.0,24983.0,0.0
-5575.0,4300.0,24897.0,0.0
-5565.0,3997.0,24790.0,0.0
-5561.0,3702.0,24706.0,0.0
-5553.0,3408.0,24616.0,0.0
-5555.0,3121.0,24559.0,0.0
-5556.0,2837.0,24505.0,0.0
-5542.0,2548.0,24381.0,0.0
-5557.0,2273.0,24384.0,0.0
-5544.0,1989.0,24269.0,0.0
-5541.0,1711.0,24198.0,0.0
-5539.0,1435.0,24130.0,0.0
-5532.0,1161.0,24043.0,0.0
-5532.0,890.0,23982.0,0.0
-5531.0,620.0,23924.0,0.0
-5530.0,351.0,23861.0,0.0
-5523.0,83.0,23778.0,0.0
-5523.0,-180.0,23719.0,0.0
-5515.0,-445.0,23631.0,0.0
-5511.0,-707.0,23554.0,0.0
-5510.0,-969.0,23498.0,0.0
-5506.0,-1229.0,23427.0,0.0
-5503.0,-1488.0,23358.0,0.0
-5500.0,-1745.0,23292.0,0.0
-5497.0,-2003.0,23225.0,0.0
-5497.0,-2259.0,23171.0,0.0
-5493.0,-2514.0,23101.0,0.0
-5495.0,-2771.0,23056.0,0.0
-5495.0,-3027.0,23004.0,0.0
-5486.0,-3277.0,22916.0,0.0
-5490.0,-3534.0,22877.0,0.0
-5497.0,-3792.0,22855.0,0.0
-5499.0,-4049.0,22808.0,0.0
-5500.0,-4303.0,22758.0,0.0
-5494.0,-4554.0,22686.0,0.0
-5493.0,-4806.0,22627.0,0.0
-5496.0,-5063.0,22585.0,0.0
-5490.0,-5312.0,22509.0,0.0
-4591.0,-4654.0,18780.0,0.0
-4829.0,-5118.0,19708.0,0.0
-9.0,-9.0,36.0,0.0
-3.0,-3.0,15.0,0.0
0.0,0.0,1.0,0.0
-2.0,-2.0,11.0,0.0
-7.0,-9.0,30.0,0.0
-6.0,-8.0,24.0,0.0
-3.0,-4.0,14.0,0.0
-9.0,-12.0,37.0,0.0
-5.0,-6.0,19.0,0.0
-10.0,-15.0,39.0,0.0
-6.0,-9.0,25.0,0.0
-6.0,-10.0,26.0,0.0
-7.0,-11.0,28.0,0.0
-9.0,-15.0,36.0,0.0
-8.0,-14.0,33.0,0.0
-10.0,-18.0,40.0,0.0
-11.0,-19.0,42.0,0.0
-7.0,-12.0,26.0,0.0
-10.0,-18.0,37.0,0.0
-9.0,-16.0,33.0,0.0
-15.0,-29.0,56.0,0.0
-13.0,-25.0,48.0,0.0
-17.0,-35.0,64.0,0.0
-14.0,-29.0,51.0,0.0
-14.0,-32.0,54.0,0.0
-16.0,-37.0,61.0,0.0
-12.0,-28.0,46.0,0.0
-15.0,-36.0,57.0,0.0
-17.0,-40.0,61.0,0.0
-18.0,-44.0,67.0,0.0
-19.0,-47.0,69.0,0.0
-22.0,-58.0,84.0,0.0
-22.0,-57.0,81.0,0.0
-21.0,-56.0,77.0,0.0
-23.0,-65.0,86.0,0.0
-21.0,-59.0,78.0,0.0
-22.0,-65.0,82.0,0.0
-21.0,-64.0,80.0,0.0
-20.0,-60.0,73.0,0.0
-21.0,-66.0,79.0,0.0
-24.0,-77.0,90.0,0.0
-24.0,-79.0,89.0,0.0
-25.0,-83.0,92.0,0.0
-23.0,-79.0,86.0,0.0
-25.0,-85.0,90.0,0.0
-26.0,-92.0,95.0,0.0
-27.0,-97.0,99.0,0.0
-26.0,-95.0,94.0,0.0
-25.0,-94.0,90.0,0.0
-28.0,-104.0,99.0,0.0
-28.0,-109.0,101.0,0.0
-31.0,-120.0,109.0,0.0
-28.0,-112.0,100.0,0.0
-29.0,-115.0,100.0,0.0
-27.0,-112.0,96.0,0.0
-28.0,-116.0,97.0,0.0
-30.0,-127.0,103.0,0.0
-27.0,-116.0,92.0,0.0
-27.0,-121.0,93.0,0.0
-30.0,-134.0,101.0,0.0
-30.0,-135.0,101.0,0.0
-29.0,-134.0,97.0,0.0
-29.0,-139.0,98.0,0.0
-31.0,-151.0,104.0,0.0
-30.0,-146.0,98.0,0.0
-27.0,-137.0,90.0,0.0
-29.0,-149.0,96.0,0.0
-29.0,-153.0,96.0,0.0
-28.0,-151.0,92.0,0.0
-30.0,-159.0,95.0,0.0
-29.0,-158.0,91.0,0.0
-28.0,-159.0,90.0,0.0
-29.0,-164.0,91.0,0.0
-26.0,-150.0,81.0,0.0
-29.0,-170.0,89.0,0.0
-25.0,-153.0,79.0,0.0
-26.0,-158.0,79.0,0.0
-26.0,-163.0,79.0,0.0
-25.0,-161.0,75.0,0.0
-24.0,-157.0,72.0,0.0
-23.0,-153.0,68.0,0.0
-24.0,-164.0,71.0,0.0
-23.0,-164.0,69.0,0.0
-23.0,-161.0,66.0,0.0
-23.0,-167.0,66.0,0.0
-25.0,-181.0,69.0,0.0
-35.0,-268.0,100.0,0.0
-36.0,-278.0,99.0,0.0
-36.0,-284.0,98.0,0.0
-36.0,-289.0,97.0,0.0
-35.0,-290.0,93.0,0.0
-34.0,-295.0,91.0,0.0
-33.0,-288.0,86.0,0.0
-33.0,-300.0,86.0,0.0
-3220.0,20865.0,19655.0,0.0
-3232.0,20346.0,19579.0,0.0
-3298.0,20166.0,19825.0,0.0
-3119.0,18529.0,18610.0,0.0
-3156.0,18221.0,18696.0,0.0
-3363.0,18870.0,19781.0,0.0
-3447.0,18801.0,20136.0,0.0
-3528.0,18708.0,20475.0,0.0
-3593.0,18524.0,20717.0,0.0
-3694.0,18520.0,21166.0,0.0
-3788.0,18468.0,21571.0,0.0
-3809.0,18058.0,21559.0,0.0
-3816.0,17600.0,21478.0,0.0
-4063.0,18225.0,22738.0,0.0
-4162.0,18156.0,23160.0,0.0
-4258.0,18065.0,23567.0,0.0
-4356.0,17978.0,23986.0,0.0
-4455.0,17881.0,24402.0,0.0
-4557.0,17784.0,24832.0,0.0
-4657.0,17676.0,25255.0,0.0
-4754.0,17545.0,25659.0,0.0
-4858.0,17427.0,26090.0,0.0
-4945.0,17246.0,26438.0,0.0
-4961.0,16816.0,26403.0,0.0
-5204.0,17143.0,27575.0,0.0
-5332.0,17063.0,28126.0,0.0
-5447.0,16929.0,28606.0,0.0
-5561.0,16785.0,29084.0,0.0
-5693.0,16681.0,29649.0,0.0
-5756.0,16371.0,29858.0,0.0
-5908.0,16303.0,30520.0,0.0
-5994.0,16041.0,30842.0,0.0
-6312.0,16382.0,32357.0,0.0
-6408.0,16118.0,32724.0,0.0
-6479.0,15787.0,32961.0,0.0
-6475.0,15279.0,32822.0,0.0
-6490.0,14824.0,32781.0,0.0
-6500.0,14359.0,32709.0,0.0
-6508.0,13900.0,32635.0,0.0
-5292.0,10921.0,26446.0,0.0
-5318.0,10597.0,26484.0,0.0
-5330.0,10248.0,26456.0,0.0
-5327.0,9876.0,26353.0,0.0
-5323.0,9507.0,26249.0,0.0
-5319.0,9143.0,26143.0,0.0
-5321.0,8794.0,26069.0,0.0
-5313.0,8434.0,25947.0,0.0
-5316.0,8099.0,25883.0,0.0
-5315.0,7759.0,25798.0,0.0
-5305.0,7412.0,25669.0,0.0
-5308.0,7088.0,25607.0,0.0
-5307.0,6761.0,25527.0,0.0
-5306.0,6439.0,25449.0,0.0
-5304.0,6121.0,25368.0,0.0
-5306.0,5809.0,25303.0,0.0
-5296.0,5487.0,25179.0,0.0
-5302.0,5186.0,25139.0,0.0
-5289.0,4870.0,25009.0,0.0
-5291.0,4572.0,24949.0,0.0
-5292.0,4274.0,24883.0,0.0
-5279.0,3970.0,24761.0,0.0
-5281.0,3679.0,24700.0,0.0
-5286.0,3393.0,24662.0,0.0
-5274.0,3099.0,24539.0,0.0
-5276.0,2815.0,24485.0,0.0
-5276.0,2533.0,24423.0,0.0
-5266.0,2249.0,24315.0,0.0
-5267.0,1971.0,24255.0,0.0
-5269.0,1695.0,24204.0,0.0
-5261.0,1419.0,24105.0,0.0
-5262.0,1146.0,24049.0,0.0
-5244.0,873.0,23911.0,0.0
-5254.0,605.0,23896.0,0.0
-5254.0,338.0,23836.0,0.0
-5246.0,71.0,23740.0,0.0
-5254.0,-193.0,23718.0,0.0
-5241.0,-455.0,23608.0,0.0
-5237.0,-716.0,23533.0,0.0
-5236.0,-977.0,23471.0,0.0
-5230.0,-1236.0,23388.0,0.0
-5233.0,-1495.0,23349.0,0.0
-5226.0,-1750.0,23257.0,0.0
-5223.0,-2006.0,23192.0,0.0
-5224.0,-2262.0,23141.0,0.0
-5228.0,-2520.0,23106.0,0.0
-5226.0,-2774.0,23040.0,0.0
-5231.0,-3032.0,23012.0,0.0
-5224.0,-3282.0,22927.0,0.0
-5228.0,-3539.0,22894.0,0.0
-5233.0,-3796.0,22861.0,0.0
-5227.0,-4046.0,22785.0,0.0
-5224.0,-4297.0,22721.0,0.0
-5230.0,-4554.0,22689.0,0.0
-5231.0,-4809.0,22642.0,0.0
-5232.0,-5063.0,22594.0,0.0
-7.0,-7.0,31.0,0.0
-4374.0,-4659.0,18804.0,0.0
-4595.0,-5116.0,19708.0,0.0
-4593.0,-5338.0,19655.0,0.0
-4590.0,-5557.0,19596.0,0.0
-4.0,-4.0,15.0,0.0
-3736.0,-4888.0,15875.0,0.0
-4.0,-5.0,16.0,0.0
-3721.0,-5235.0,15743.0,0.0
-9.0,-12.0,37.0,0.0
-5.0,-7.0,20.0,0.0
-3684.0,-5731.0,15482.0,0.0
-3689.0,-5922.0,15465.0,0.0
-8.0,-12.0,32.0,0.0
-5.0,-8.0,20.0,0.0
-7.0,-12.0,29.0,0.0
-13.0,-23.0,56.0,0.0
-8.0,-14.0,32.0,0.0
-10.0,-19.0,43.0,0.0
-11.0,-22.0,48.0,0.0
-11.0,-21.0,45.0,0.0
-11.0,-23.0,48.0,0.0
-11.0,-22.0,45.0,0.0
-14.0,-30.0,57.0,0.0
-17.0,-37.0,69.0,0.0
-13.0,-30.0,54.0,0.0
-15.0,-35.0,61.0,0.0
-17.0,-39.0,66.0,0.0
-11.0,-28.0,47.0,0.0
-12.0,-29.0,48.0,0.0
-18.0,-44.0,71.0,0.0
-16.0,-41.0,63.0,0.0
-19.0,-49.0,73.0,0.0
-16.0,-42.0,62.0,0.0
-18.0,-48.0,70.0,0.0
-20.0,-54.0,76.0,0.0
-22.0,-63.0,86.0,0.0
-21.0,-63.0,85.0,0.0
-22.0,-66.0,87.0,0.0
-21.0,-65.0,84.0,0.0
-25.0,-78.0,97.0,0.0
-22.0,-70.0,86.0,0.0
-24.0,-76.0,92.0,0.0
-22.0,-73.0,85.0,0.0
-21.0,-72.0,82.0,0.0
-23.0,-80.0,89.0,0.0
-23.0,-82.0,88.0,0.0
-27.0,-95.0,101.0,0.0
-27.0,-97.0,101.0,0.0
-25.0,-93.0,95.0,0.0
-26.0,-97.0,97.0,0.0
-27.0,-102.0,99.0,0.0
-27.0,-103.0,98.0,0.0
-25.0,-98.0,91.0,0.0
-28.0,-117.0,107.0,0.0
-28.0,-117.0,104.0,0.0
-26.0,-111.0,96.0,0.0
-26.0,-115.0,99.0,0.0
-27.0,-120.0,99.0,0.0
-25.0,-112.0,91.0,0.0
-26.0,-120.0,95.0,0.0
-28.0,-130.0,102.0,0.0
-29.0,-136.0,104.0,0.0
-29.0,-139.0,103.0,0.0
-28.0,-137.0,100.0,0.0
-27.0,-138.0,98.0,0.0
-28.0,-146.0,101.0,0.0
-29.0,-150.0,102.0,0.0
-29.0,-153.0,101.0,0.0
-26.0,-141.0,92.0,0.0
-28.0,-155.0,97.0,0.0
-29.0,-161.0,99.0,0.0
-28.0,-161.0,96.0,0.0
-29.0,-167.0,98.0,0.0
-27.0,-160.0,91.0,0.0
-28.0,-171.0,95.0,0.0
-28.0,-175.0,95.0,0.0
-25.0,-159.0,84.0,0.0
-26.0,-170.0,88.0,0.0
-26.0,-171.0,86.0,0.0
-24.0,-165.0,81.0,0.0
-22.0,-152.0,72.0,0.0
-23.0,-164.0,75.0,0.0
-22.0,-161.0,72.0,0.0
-22.0,-161.0,70.0,0.0
-21.0,-161.0,68.0,0.0
-22.0,-166.0,69.0,0.0
-21.0,-167.0,66.0,0.0
-23.0,-181.0,70.0,0.0
-32.0,-259.0,97.0,0.0
-33.0,-282.0,101.0,0.0
-33.0,-287.0,100.0,0.0
-33.0,-290.0,98.0,0.0
-32.0,-294.0,95.0,0.0
-32.0,-296.0,93.0,0.0
-31.0,-293.0,88.0,0.0
-30.0,-295.0,85.0,0.0
-2704.0,19012.0,17969.0,0.0
-2974.0,20281.0,19582.0,0.0
-3045.0,20146.0,19872.0,0.0
-2909.0,18680.0,18824.0,0.0
-2927.0,18249.0,18787.0,0.0
-3104.0,18787.0,19761.0,0.0
-3499.0,20566.0,22103.0,0.0
-3487.0,19904.0,21856.0,0.0
-3555.0,19711.0,22119.0,0.0
-3623.0,19520.0,22383.0,0.0
-3464.0,18130.0,21247.0,0.0
-3504.0,17824.0,21351.0,0.0
-3551.0,17551.0,21490.0,0.0
-3608.0,17331.0,21695.0,0.0
-3878.0,18107.0,23176.0,0.0
-5266.0,23894.0,31275.0,0.0
-4096.0,18065.0,24183.0,0.0
-4178.0,17910.0,24524.0,0.0
-4257.0,17731.0,24840.0,0.0
-4360.0,17649.0,25301.0,0.0
-4465.0,17561.0,25768.0,0.0
-4561.0,17430.0,26183.0,0.0
-4619.0,17150.0,26380.0,0.0
-4683.0,16886.0,26603.0,0.0
-4710.0,16498.0,26629.0,0.0
-5007.0,17032.0,28171.0,0.0
-5118.0,16901.0,28657.0,0.0
-5218.0,16723.0,29075.0,0.0
-5352.0,16645.0,29685.0,0.0
-5421.0,16354.0,29929.0,0.0
-5553.0,16248.0,30524.0,0.0
-5635.0,15985.0,30840.0,0.0
-5945.0,16347.0,32403.0,0.0
-6058.0,16138.0,32878.0,0.0
-6091.0,15712.0,32920.0,0.0
-6102.0,15237.0,32847.0,0.0
-6102.0,14744.0,32721.0,0.0
-6116.0,14287.0,32660.0,0.0
-4882.0,11023.0,25973.0,0.0
-4987.0,10877.0,26434.0,0.0
-5020.0,10568.0,26509.0,0.0
-5015.0,10181.0,26381.0,0.0
-5021.0,9825.0,26315.0,0.0
-5020.0,9461.0,26220.0,0.0
-5018.0,9100.0,26119.0,0.0
-5014.0,8739.0,26003.0,0.0
-5019.0,8401.0,25943.0,0.0
-5024.0,8067.0,25883.0,0.0
-5027.0,7733.0,25813.0,0.0
-5023.0,7392.0,25708.0,0.0
-5016.0,7052.0,25588.0,0.0
-5014.0,6726.0,25503.0,0.0
-5020.0,6412.0,25449.0,0.0
-5010.0,6082.0,25318.0,0.0
-5014.0,5773.0,25263.0,0.0
-5015.0,5464.0,25192.0,0.0
-5018.0,5160.0,25133.0,0.0
-5008.0,4847.0,25009.0,0.0
-4995.0,4533.0,24869.0,0.0
-5001.0,4242.0,24825.0,0.0
-5000.0,3947.0,24751.0,0.0
-5008.0,3661.0,24720.0,0.0
-4999.0,3365.0,24605.0,0.0
-4996.0,3078.0,24526.0,0.0
-4987.0,2788.0,24415.0,0.0
-4994.0,2510.0,24380.0,0.0
-4992.0,2230.0,24307.0,0.0
-4988.0,1952.0,24223.0,0.0
-4991.0,1677.0,24175.0,0.0
-4992.0,1404.0,24113.0,0.0
-4985.0,1131.0,24016.0,0.0
-4985.0,861.0,23957.0,0.0
-4985.0,592.0,23899.0,0.0
-4978.0,325.0,23799.0,0.0
-4987.0,60.0,23782.0,0.0
-4973.0,-203.0,23659.0,0.0
-4974.0,-466.0,23610.0,0.0
-4976.0,-727.0,23556.0,0.0
-4969.0,-986.0,23467.0,0.0
-4965.0,-1244.0,23389.0,0.0
-4971.0,-1504.0,23359.0,0.0
-4962.0,-1758.0,23268.0,0.0
-4959.0,-2013.0,23193.0,0.0
-4960.0,-2269.0,23145.0,0.0
-4961.0,-2524.0,23090.0,0.0
-4953.0,-2775.0,23004.0,0.0
-4962.0,-3033.0,22992.0,0.0
-4963.0,-3287.0,22944.0,0.0
-4957.0,-3537.0,22861.0,0.0
-4965.0,-3796.0,22845.0,0.0
-4963.0,-4048.0,22788.0,0.0
-4960.0,-4298.0,22719.0,0.0
-4957.0,-4548.0,22656.0,0.0
-4967.0,-4810.0,22646.0,0.0
-4968.0,-5065.0,22603.0,0.0
-4466.0,-4779.0,20268.0,0.0
-4183.0,-4691.0,18944.0,0.0
-4361.0,-5113.0,19706.0,0.0
-4368.0,-5343.0,19689.0,0.0
-4371.0,-5573.0,19666.0,0.0
-3712.0,-4923.0,16662.0,0.0
-3.0,-3.0,13.0,0.0
-3679.0,-5259.0,16440.0,0.0
-3675.0,-5441.0,16380.0,0.0
-1.0,-1.0,7.0,0.0
-2.0,-3.0,10.0,0.0
-3674.0,-6018.0,16273.0,0.0
-4304.0,-7274.0,19016.0,0.0
-11.0,-18.0,47.0,0.0
-8.0,-14.0,36.0,0.0
-10.0,-18.0,43.0,0.0
