//X,Y,Z,Classification
0,0,0,0.0
118,-968,1825,0.0
2037,-16766,30798,1.0
2042,-16983,30413,1.0
0,0,0,0.0
0,0,0,0.0
2101,-17974,29880,1.0
98,-854,1386,0.0
2122,-18434,29200,1.0
144,-1269,1964,0.0
2161,-19032,28756,1.0
2173,-19244,28406,1.0
95,-859,1240,0.0
96,-859,1213,0.0
2221,-19953,27499,1.0
2228,-20090,27069,1.0
126,-1147,1512,0.0
2265,-20563,26493,1.0
1788,-16279,20514,0.0
1769,-16141,19896,0.0
1760,-16086,19396,0.0
1749,-16005,18882,0.0
1748,-16024,18496,0.0
1751,-16057,18136,0.0
1753,-16093,17787,0.0
1758,-16127,17443,0.0
1788,-16410,17369,0.0
1812,-16621,17218,0.0
1857,-17013,17248,0.0
1893,-17330,17194,0.0
1928,-17631,17120,0.0
1967,-17961,17068,0.0
2004,-18264,16985,0.0
2047,-18620,16946,0.0
2089,-18955,16880,0.0
2131,-19294,16813,0.0
2177,-19652,16757,0.0
2220,-19991,16677,0.0
2268,-20356,16613,0.0
2315,-20718,16539,0.0
10,-94,73,0.0
12,-113,86,0.0
2465,-21822,16295,0.0
2518,-22205,16212,0.0
2576,-22624,16147,0.0
2633,-23031,16065,0.0
2695,-23465,15997,0.0
231,-2004,1334,0.0
243,-2099,1365,0.0
231,-1985,1261,0.0
225,-1934,1200,0.0
14,-121,72,0.0
17,-149,87,0.0
17,-150,86,0.0
18,-159,89,0.0
20,-169,93,0.0
21,-178,95,0.0
20,-175,90,0.0
21,-177,90,0.0
24,-203,100,0.0
26,-217,104,0.0
27,-222,103,0.0
28,-228,103,0.0
28,-232,101,0.0
29,-240,103,0.0
30,-242,100,0.0
32,-254,102,0.0
34,-263,102,0.0
35,-278,105,0.0
39,-306,112,0.0
40,-309,109,0.0
40,-303,103,0.0
41,-315,104,0.0
41,-312,99,0.0
-3809,16042,14697,0.0
-3883,15963,14943,0.0
-3968,15923,15228,0.0
-4044,15849,15487,0.0
-4131,15807,15781,0.0
-4212,15732,16046,0.0
-4289,15639,16301,0.0
-4232,15067,16048,0.0
-4415,15347,16704,0.0
-4446,15088,16782,0.0
-4431,14678,16686,0.0
-4733,15302,17781,0.0
-4836,15263,18130,0.0
-4930,15185,18442,0.0
-5029,15120,18775,0.0
-5133,15056,19117,0.0
-5105,14610,18974,0.0
-5248,14653,19466,0.0
-5245,14281,19409,0.0
-5270,13995,19462,0.0
-5662,14660,20867,0.0
-5781,14591,21261,0.0
-5895,14505,21639,0.0
-5999,14380,21972,0.0
-6697,15637,24478,0.0
-6687,15211,24398,0.0
-6669,14770,24283,0.0
-6460,13925,23474,0.0
-6664,13977,24166,0.0
-6458,13177,23376,0.0
-6637,13165,23971,0.0
-6664,12849,24023,0.0
-9077,17005,32660,0.0
-9182,16706,32973,0.0
-9214,16274,33025,0.0
-9221,15801,32987,0.0
-9196,15280,32832,0.0
-8522,13723,30367,0.0
-8483,13232,30172,0.0
-562,850,1998,0.0
-8614,12580,30520,0.0
-8699,12278,30760,0.0
-8977,12239,31688,0.0
-9141,12025,32203,0.0
-439,558,1549,0.0
-9136,11161,32065,0.0
-9096,10691,31862,0.0
-9114,10295,31865,0.0
0,0,0,0.0
-9034,9391,31466,0.0
-6901,6867,23993,0.0
-9164,8715,31796,0.0
-6806,6176,23570,0.0
-6871,5937,23749,0.0
-7124,5851,24578,0.0
-7195,5603,24773,0.0
-7170,5281,24641,0.0
-7165,4977,24575,0.0
-7156,4675,24499,0.0
-7148,4375,24425,0.0
-7136,4076,24336,0.0
-7135,3785,24285,0.0
-7144,3501,24264,0.0
-7144,3216,24222,0.0
-7061,2896,23890,0.0
-6924,2566,23380,0.0
-7060,2338,23789,0.0
-6949,2030,23372,0.0
-6830,1729,22925,0.0
-6897,1479,23104,0.0
-6872,1209,22973,0.0
-6895,949,23003,0.0
-7015,698,23356,0.0
-6991,430,23229,0.0
-6892,162,22851,0.0
-6993,-98,23136,0.0
-7070,-363,23343,0.0
-7075,-629,23311,0.0
-7064,-891,23226,0.0
-7054,-1152,23142,0.0
-7056,-1414,23099,0.0
-7060,-1675,23060,0.0
-7032,-1928,22920,0.0
-6991,-2174,22736,0.0
-7036,-2446,22834,0.0
-7044,-2707,22810,0.0
-7045,-2965,22760,0.0
-7038,-3219,22687,0.0
-7035,-3473,22624,0.0
-7034,-3729,22568,0.0
-7039,-3987,22533,0.0
-7030,-4238,22452,0.0
-7025,-4489,22381,0.0
-7023,-4744,22323,0.0
-7031,-5004,22295,0.0
-7021,-5251,22208,0.0
-7016,-5502,22136,0.0
-7019,-5758,22091,0.0
-7017,-6012,22032,0.0
-7006,-6256,21942,0.0
-7015,-6519,21914,0.0
-7013,-6773,21852,0.0
-7011,-7027,21790,0.0
-7018,-7290,21751,0.0
-6938,-7461,21447,0.0
-6935,-7712,21381,0.0
-67,-77,209,0.0
-81,-97,254,0.0
-7028,-8592,21492,0.0
-7023,-8845,21414,0.0
-7031,-9118,21380,0.0
-7039,-9390,21341,0.0
-7040,-9655,21284,0.0
-7052,-9934,21255,0.0
-7042,-10185,21161,0.0
-7054,-10469,21135,0.0
-7047,-10727,21049,0.0
-7056,-11009,21010,0.0
-7072,-11304,20990,0.0
-7079,-11588,20944,0.0
-7094,-11886,20921,0.0
-7097,-12167,20861,0.0
-7110,-12468,20832,0.0
-7124,-12770,20800,0.0
-7125,-13056,20733,0.0
-7140,-13366,20704,0.0
-7150,-13670,20658,0.0
-7165,-13989,20629,0.0
-7170,-14289,20567,0.0
-7175,-14591,20505,0.0
-7189,-14914,20467,0.0
-7203,-15242,20428,0.0
-7217,-15575,20391,0.0
-7216,-15875,20307,0.0
-7238,-16231,20287,0.0
-7251,-16570,20238,0.0
-7257,-16898,20172,0.0
-7273,-17251,20131,0.0
-7292,-17616,20094,0.0
-7300,-17959,20027,0.0
-7307,-18304,19957,0.0
-7325,-18679,19913,0.0
-7277,-18889,19690,0.0
-7307,-19305,19679,0.0
-7172,-19283,19220,0.0
-7006,-19164,18681,0.0
-7383,-20552,19590,0.0
-7412,-20989,19564,0.0
-7417,-21363,19471,0.0
-15,-45,39,0.0
-18,-55,49,0.0
-18,-56,48,0.0
-19,-60,50,0.0
-15,-50,41,0.0
-23,-73,59,0.0
-24,-81,63,0.0
-20,-70,54,0.0
-24,-82,61,0.0
-28,-99,72,0.0
-31,-110,78,0.0
-25,-92,63,0.0
-26,-95,64,0.0
-24,-92,61,0.0
-27,-103,66,0.0
-28,-111,70,0.0
-27,-106,65,0.0
-31,-126,75,0.0
-31,-128,75,0.0
-31,-131,74,0.0
-34,-141,78,0.0
-35,-149,81,0.0
-37,-158,83,0.0
-33,-144,74,0.0
-38,-168,84,0.0
-38,-175,85,0.0
-40,-185,87,0.0
-42,-198,91,0.0
-44,-209,93,0.0
-43,-209,90,0.0
-46,-227,95,0.0
-46,-230,93,0.0
-47,-243,96,0.0
-50,-258,99,0.0
-59,-310,114,0.0
-63,-334,120,0.0
-60,-330,114,0.0
-59,-325,108,0.0
-59,-332,107,0.0
-58,-337,104,0.0
-56,-329,98,0.0
-56,-333,95,0.0
-55,-336,93,0.0
-2650,15930,14954,0.0
-2697,15767,15119,0.0
-4023,22867,22402,0.0
-4087,22597,22615,0.0
-3034,16314,16680,0.0
-3045,15933,16644,0.0
-3073,15641,16695,0.0
-3137,15536,16944,0.0
-3208,15459,17228,0.0
-3268,15329,17458,0.0
-3353,15303,17813,0.0
-3363,14937,17771,0.0
-3381,14617,17776,0.0
-3569,15018,18673,0.0
-3675,15047,19129,0.0
-3759,14982,19477,0.0
-3842,14902,19814,0.0
-3931,14837,20179,0.0
-3997,14681,20427,0.0
-4044,14451,20576,0.0
-4058,14105,20556,0.0
-4076,13783,20562,0.0
-4374,14382,21971,0.0
-4475,14311,22391,0.0
-4577,14228,22806,0.0
-4682,14148,23239,0.0
-4785,14051,23659,0.0
-4891,13953,24092,0.0
-4998,13849,24527,0.0
-5111,13750,24987,0.0
-5224,13641,25447,0.0
-5247,13297,25473,0.0
-5241,12883,25356,0.0
-5588,13316,26937,0.0
-5723,13217,27494,0.0
-5851,13090,28015,0.0
-160,346,762,0.0
-6091,12767,28972,0.0
-6176,12520,29284,0.0
-6314,12370,29841,0.0
-6548,12391,30849,0.0
-6711,12258,31522,0.0
-6818,12010,31925,0.0
-6905,11722,32238,0.0
-311,508,1448,0.0
-6900,10846,32020,0.0
-6866,10372,31775,0.0
0,0,0,0.0
-6856,9529,31547,0.0
-5215,6938,23926,0.0
-5327,6775,24371,0.0
-5463,6632,24925,0.0
-5466,6321,24867,0.0
-5459,6004,24770,0.0
-5468,5708,24745,0.0
-5460,5395,24641,0.0
-5465,5100,24601,0.0
-5454,4794,24489,0.0
-5459,4503,24444,0.0
-5442,4197,24306,0.0
-5373,3859,23937,0.0
-5380,3582,23907,0.0
-5379,3301,23841,0.0
-5407,3038,23908,0.0
-210,107,927,0.0
-5450,2506,23976,0.0
-5451,2229,23922,0.0
-5228,1876,22886,0.0
-5298,1636,23135,0.0
-5278,1368,22994,0.0
-5250,1101,22814,0.0
-5308,853,23016,0.0
-5384,603,23285,0.0
-5376,341,23197,0.0
-5384,82,23179,0.0
-5072,-166,21780,0.0
-5371,-433,23012,0.0
-4937,-633,21105,0.0
-5381,-946,22944,0.0
-5392,-1203,22942,0.0
-5356,-1448,22735,0.0
-5074,-1610,21487,0.0
-5222,-1902,22062,0.0
-5225,-2148,22023,0.0
-5116,-2341,21515,0.0
-5352,-2698,22455,0.0
-5410,-2979,22644,0.0
-5411,-3231,22596,0.0
-5415,-3486,22567,0.0
-5424,-3743,22551,0.0
-5414,-3986,22456,0.0
-5415,-4237,22407,0.0
-5416,-4489,22362,0.0
-5416,-4740,22313,0.0
-5414,-4988,22251,0.0
-5412,-5237,22191,0.0
-5412,-5487,22142,0.0
-5399,-5724,22036,0.0
-5403,-5978,21997,0.0
-5388,-6212,21887,0.0
-5396,-6473,21869,0.0
-5397,-6726,21824,0.0
-5398,-6979,21777,0.0
-5381,-7210,21659,0.0
-5387,-7471,21628,0.0
-5372,-7703,21518,0.0
-5212,-7720,20826,0.0
-5383,-8230,21462,0.0
-5074,-7999,20181,0.0
-5396,-8765,21409,0.0
-5392,-9017,21341,0.0
-5394,-9281,21298,0.0
-5078,-8980,19996,0.0
-5395,-9804,21193,0.0
-5399,-10077,21158,0.0
-5392,-10329,21077,0.0
-5398,-10609,21050,0.0
-5397,-10875,20992,0.0
-5404,-11159,20964,0.0
-5408,-11440,20926,0.0
-5413,-11727,20892,0.0
-5417,-12015,20856,0.0
-5421,-12303,20815,0.0
-5430,-12605,20794,0.0
-5425,-12876,20718,0.0
-5432,-13180,20689,0.0
-5433,-13473,20638,0.0
-5431,-13760,20573,0.0
-5438,-14073,20543,0.0
-5448,-14395,20520,0.0
-5447,-14695,20461,0.0
-5457,-15025,20436,0.0
-5261,-14783,19646,0.0
-5144,-14749,19155,0.0
-5131,-15007,19048,0.0
-5086,-15172,18824,0.0
-5468,-16634,20176,0.0
-5472,-16974,20129,0.0
-5469,-17293,20052,0.0
-5035,-16229,18402,0.0
-4963,-16303,18079,0.0
-5072,-16983,18418,0.0
-5083,-17339,18393,0.0
-5491,-19086,19802,0.0
-5489,-19441,19729,0.0
-14,-48,47,0.0
-15,-53,51,0.0
-21,-75,72,0.0
-20,-79,73,0.0
-21,-80,74,0.0
-22,-87,78,0.0
-21,-87,75,0.0
-22,-91,78,0.0
-20,-85,70,0.0
-19,-80,64,0.0
-22,-95,76,0.0
-20,-91,70,0.0
-25,-114,87,0.0
-23,-107,80,0.0
-25,-116,84,0.0
-21,-103,73,0.0
-24,-114,79,0.0
-25,-122,82,0.0
-20,-102,68,0.0
-22,-113,72,0.0
-24,-123,78,0.0
-23,-122,74,0.0
-24,-131,78,0.0
-25,-140,82,0.0
-26,-146,83,0.0
-26,-147,81,0.0
-28,-163,88,0.0
-27,-160,85,0.0
-27,-163,83,0.0
-28,-174,87,0.0
-32,-200,97,0.0
-31,-200,94,0.0
-31,-211,96,0.0
-32,-210,94,0.0
-32,-222,96,0.0
-31,-222,93,0.0
-33,-235,96,0.0
-33,-239,95,0.0
-35,-259,99,0.0
-42,-314,117,0.0
-43,-331,118,0.0
-42,-328,114,0.0
-40,-325,109,0.0
-39,-326,105,0.0
-40,-339,105,0.0
-38,-332,99,0.0
-38,-337,97,0.0
0,0,0,0.0
0,0,0,0.0
-909,14426,14517,0.0
-945,14264,14663,0.0
-982,14092,14798,0.0
-2193,30008,32196,0.0
0,0,0,0.0
0,0,0,0.0
-156,1864,2134,0.0
-2374,27134,31735,0.0
-2426,26572,31761,0.0
-2424,25462,31106,0.0
-1528,15411,19245,0.0
-1568,15183,19385,0.0
-1581,14713,19205,0.0
-1692,15142,20214,0.0
-1744,15015,20500,0.0
-1748,14484,20229,0.0
-1835,14633,20911,0.0
-1885,14476,21169,0.0
-1919,14194,21245,0.0
-93,664,1017,0.0
-82,559,877,0.0
-2888,19129,30744,0.0
-2930,18712,30814,0.0
-2959,18220,30748,0.0
-3257,19347,33472,0.0
-39,223,395,0.0
-36,202,367,0.0
-194,1034,1931,0.0
-2831,14536,27874,0.0
-2832,14022,27614,0.0
-2851,13606,27535,0.0
-2870,13198,27458,0.0
-2917,12929,27662,0.0
-2953,12607,27759,0.0
-2925,12028,27268,0.0
-2813,11133,26002,0.0
-2962,11278,27156,0.0
-3377,12367,30718,0.0
-3497,12313,31572,0.0
-157,532,1409,0.0
-3609,11722,32111,0.0
-3628,11301,32040,0.0
-3627,10834,31818,0.0
-3654,10456,31842,0.0
-195,532,1682,0.0
-2554,6686,21971,0.0
-2563,6407,21910,0.0
-2572,6132,21856,0.0
-2579,5855,21781,0.0
-2584,5580,21702,0.0
-2597,5323,21683,0.0
-2605,5059,21628,0.0
-2615,4802,21590,0.0
-2617,4536,21505,0.0
-2626,4281,21456,0.0
-2635,4032,21425,0.0
-2645,3787,21410,0.0
-2650,3535,21345,0.0
-2659,3290,21313,0.0
-2659,3037,21217,0.0
-2666,2796,21182,0.0
-2666,2548,21081,0.0
-2677,2314,21086,0.0
-2675,2070,20980,0.0
-2677,1832,20904,0.0
-2688,1601,20911,0.0
-2701,1372,20931,0.0
-2697,1135,20819,0.0
-2703,905,20787,0.0
-2705,675,20729,0.0
-2711,447,20699,0.0
-2716,219,20664,0.0
-2720,-6,20621,0.0
-2715,-232,20522,0.0
-2726,-457,20532,0.0
-2721,-680,20432,0.0
-2831,-938,21199,0.0
-3016,-1244,22511,0.0
-4273,-2108,31801,1.0
0,0,0,0.0
-4321,-2826,31971,1.0
-4355,-3197,32138,1.0
-4357,-3546,32068,1.0
-4396,-3927,32264,1.0
-293,-284,2142,0.0
-4394,-4623,32084,1.0
-4379,-4955,31902,1.0
-272,-330,1980,0.0
-4384,-5654,31785,1.0
-4411,-6040,31912,1.0
-4439,-6429,32043,1.0
-212,-324,1529,0.0
-4439,-7135,31906,1.0
-4440,-7492,31853,1.0
0,0,0,0.0
0,0,0,0.0
-4401,-8485,31397,1.0
-270,-540,1918,0.0
-185,-386,1317,0.0
0,0,0,0.0
-4406,-9925,31212,1.0
-4376,-10218,30953,1.0
0,0,0,0.0
-4356,-10895,30720,1.0
0,0,0,0.0
-361,-962,2537,0.0
-392,-1079,2753,0.0
-35,-98,245,0.0
-43,-125,301,0.0
-334,-1003,2332,0.0
-339,-1053,2375,0.0
-4204,-13417,29362,1.0
-4229,-13878,29511,1.0
-4241,-14305,29571,1.0
0,0,0,0.0
-238,-847,1658,0.0
-4214,-15390,29316,1.0
0,0,0,0.0
0,0,0,0.0
-4174,-16453,28985,1.0
0,0,0,0.0
0,0,0,0.0
0,0,0,0.0
-358,-1558,2485,0.0
-4057,-18069,28127,1.0
-4041,-18437,28020,1.0
-3989,-18632,27652,1.0
-3962,-18946,27466,1.0
-257,-1261,1787,0.0
-3875,-19416,26869,1.0
-3841,-19699,26643,1.0
-3811,-20004,26446,1.0
-363,-1949,2520,0.0
-2960,-16266,20556,0.0
-2874,-16162,19972,0.0
-2790,-16052,19399,0.0
-2717,-16000,18911,0.0
-2672,-16100,18615,0.0
-2596,-16004,18100,0.0
-2545,-16055,17764,0.0
-2504,-16163,17496,0.0
-2494,-16474,17447,0.0
-2478,-16751,17357,0.0
-2473,-17116,17353,0.0
-8,-61,61,0.0
-10,-68,67,0.0
-10,-74,71,0.0
-10,-76,71,0.0
-9,-69,62,0.0
-10,-78,69,0.0
-11,-88,76,0.0
-10,-87,73,0.0
-12,-97,80,0.0
-12,-107,87,0.0
-11,-100,80,0.0
-12,-108,84,0.0
-11,-108,82,0.0
-13,-125,93,0.0
-12,-121,88,0.0
-11,-112,80,0.0
-12,-129,90,0.0
-12,-136,92,0.0
-11,-123,81,0.0
-10,-121,79,0.0
-11,-138,87,0.0
-12,-148,92,0.0
-11,-143,86,0.0
-12,-153,90,0.0
-13,-171,98,0.0
-12,-165,93,0.0
-12,-171,93,0.0
-13,-190,100,0.0
-13,-205,106,0.0
-14,-212,107,0.0
-13,-217,107,0.0
-13,-222,106,0.0
-13,-236,109,0.0
-12,-233,105,0.0
-12,-246,107,0.0
-11,-246,104,0.0
-12,-247,101,0.0
-12,-263,105,0.0
-11,-267,103,0.0
-12,-299,112,0.0
-12,-331,120,0.0
-12,-326,115,0.0
-11,-333,113,0.0
-10,-338,110,0.0
-10,-332,105,0.0
-9,-337,102,0.0
844,15116,14817,0.0
800,14723,14741,0.0
756,14326,14652,0.0
690,13462,14064,0.0
673,13526,14436,0.0
635,13182,14375,0.0
611,13131,14629,0.0
584,13018,14819,0.0
561,12938,15050,0.0
535,12843,15267,0.0
505,12622,15334,0.0
631,16477,20460,0.0
594,16235,20608,0.0
556,15966,20719,0.0
509,15418,20457,0.0
481,15392,20886,0.0
421,14319,19873,0.0
392,14250,20232,0.0
381,14851,21573,0.0
335,14080,20932,0.0
305,14003,21309,0.0
319,16098,25079,0.0
281,15818,25239,0.0
243,15514,25355,0.0
207,15250,25537,0.0
170,14977,25705,0.0
134,14722,25904,0.0
99,14475,26122,0.0
63,14151,26199,0.0
28,13721,26072,0.0
-4,13377,26096,0.0
-36,12682,25414,0.0
-72,12946,26659,0.0
-105,12672,26828,0.0
-135,12210,26591,0.0
-168,12048,27003,0.0
-200,11754,27128,0.0
-226,11219,26680,0.0
-257,10994,26957,0.0
-14,539,1363,0.0
-16,528,1379,0.0
-405,11909,32146,0.0
-434,11466,32008,0.0
-464,11054,31943,0.0
-489,10578,31670,0.0
-519,10215,31723,0.0
-376,6768,21827,0.0
-394,6500,21796,0.0
-412,6240,21778,0.0
-429,5969,21720,0.0
-445,5703,21665,0.0
-461,5447,21642,0.0
-476,5181,21571,0.0
-492,4932,21556,0.0
-506,4671,21483,0.0
-519,4417,21434,0.0
-532,4167,21391,0.0
-545,3916,21330,0.0
-558,3675,21312,0.0
-570,3428,21259,0.0
-582,3187,21223,0.0
-593,2947,21181,0.0
-602,2701,21089,0.0
-611,2462,21020,0.0
-622,2230,21008,0.0
-631,1993,20946,0.0
-638,1757,20854,0.0
-648,1529,20840,0.0
-654,1297,20759,0.0
-664,1071,20766,0.0
-670,843,20684,0.0
-681,620,20732,0.0
-685,393,20614,0.0
-691,169,20565,0.0
-698,-53,20576,0.0
-700,-274,20434,0.0
-65,-45,1859,0.0
-712,-716,20413,0.0
-749,-979,21306,0.0
-799,-1279,22511,0.0
0,0,0,0.0
-1220,-2663,33890,1.0
-1229,-3039,33952,1.0
-1237,-3411,33951,1.0
0,0,0,0.0
-58,-195,1594,0.0
0,0,0,0.0
-57,-221,1531,0.0
0,0,0,0.0
0,0,0,0.0
-72,-341,1917,0.0
0,0,0,0.0
0,0,0,0.0
0,0,0,0.0
-71,-420,1881,0.0
0,0,0,0.0
0,0,0,0.0
-85,-574,2235,0.0
0,0,0,0.0
-75,-560,1999,0.0
0,0,0,0.0
0,0,0,0.0
0,0,0,0.0
0,0,0,0.0
0,0,0,0.0
0,0,0,0.0
-1203,-11917,32711,1.0
0,0,0,0.0
-1168,-12495,32118,1.0
0,0,0,0.0
-1142,-13182,31823,1.0
0,0,0,0.0
0,0,0,0.0
0,0,0,0.0
-1089,-14623,31384,1.0
-1076,-15003,31309,1.0
0,0,0,0.0
-1044,-15747,31115,1.0
0,0,0,0.0
0,0,0,0.0
-980,-16664,30431,1.0
0,0,0,0.0
0,0,0,0.0
-914,-17596,29797,1.0
0,0,0,0.0
0,0,0,0.0
-66,-1455,2290,0.0
-816,-18798,28898,1.0
-788,-19035,28580,1.0
-760,-19305,28317,1.0
-732,-19561,28036,1.0
-704,-19849,27804,1.0
-672,-19993,27373,1.0
-641,-20226,27073,1.0
-36,-1222,1600,0.0
-580,-20684,26472,1.0
-426,-16245,20334,0.0
-396,-16176,19804,0.0
-365,-16050,19221,0.0
-335,-15962,18701,0.0
-311,-16105,18460,0.0
-281,-15991,17935,0.0
-255,-16029,17590,0.0
-232,-16244,17444,0.0
-209,-16540,17383,0.0
-185,-16848,17326,0.0
-161,-17152,17263,0.0
-135,-17464,17200,0.0
0,-55,54,0.0
0,-62,58,0.0
0,-72,66,0.0
0,-62,56,0.0
0,-70,62,0.0
0,-82,71,0.0
0,-84,72,0.0
0,-87,72,0.0
0,-86,70,0.0
0,-91,72,0.0
0,-98,77,0.0
0,-95,72,0.0
0,-92,68,0.0
1,-99,71,0.0
1,-118,84,0.0
1,-100,69,0.0
426,-23518,15895,0.0
39,-2021,1335,0.0
41,-1997,1288,0.0
2,-128,80,0.0
3,-135,82,0.0
2,-128,76,0.0
3,-131,77,0.0
4,-152,86,0.0
4,-157,87,0.0
4,-165,90,0.0
5,-172,90,0.0
6,-187,96,0.0
7,-203,102,0.0
6,-191,93,0.0
7,-206,98,0.0
8,-222,103,0.0
9,-225,101,0.0
9,-225,98,0.0
10,-230,97,0.0
9,-230,94,0.0
10,-230,92,0.0
11,-240,93,0.0
14,-295,110,0.0
15,-319,115,0.0
16,-321,112,0.0
16,-319,107,0.0
17,-320,105,0.0
18,-324,101,0.0
1764,13340,13143,0.0
1748,13268,13353,0.0
1757,13368,13741,0.0
1740,13278,13943,0.0
1710,13082,14034,0.0
1708,13103,14361,0.0
1691,12997,14553,0.0
1668,12848,14700,0.0
1616,12478,14590,0.0
1579,12210,14589,0.0
1554,12036,14698,0.0
1630,12648,15788,0.0
1620,12586,16060,0.0
1612,12542,16361,0.0
1602,12470,16635,0.0
1592,12401,16917,0.0
1582,12334,17210,0.0
1572,12258,17499,0.0
1562,12178,17787,0.0
1555,12118,18114,0.0
1547,12047,18433,0.0
1537,11965,18745,0.0
1530,11890,19077,0.0
1521,11798,19391,0.0
1514,11729,19751,0.0
1504,11625,20064,0.0
1500,11555,20450,0.0
1493,11474,20825,0.0
1488,11390,21209,0.0
1482,11298,21592,0.0
1477,11210,21998,0.0
1472,11117,22409,0.0
1469,11036,22861,0.0
1465,10935,23290,0.0
1463,10851,23773,0.0
1457,10723,24179,0.0
1460,10665,24765,0.0
1526,11046,26432,0.0
1456,10448,25776,0.0
1453,10312,26250,0.0
1658,11645,30610,0.0
1697,11774,31984,0.0
1660,11370,31942,0.0
1622,10949,31844,0.0
1585,10541,31767,0.0
1551,10147,31720,0.0
1046,6729,21846,0.0
1025,6464,21823,0.0
1000,6183,21728,0.0
980,5919,21689,0.0
957,5648,21609,0.0
937,5390,21570,0.0
919,5136,21541,0.0
901,4884,21512,0.0
882,4631,21466,0.0
863,4370,21376,0.0
846,4121,21324,0.0
832,3881,21316,0.0
816,3637,21276,0.0
799,3387,21184,0.0
787,3157,21211,0.0
769,2907,21092,0.0
757,2673,21077,0.0
744,2435,21007,0.0
732,2204,20998,0.0
719,1967,20899,0.0
708,1739,20894,0.0
695,1505,20795,0.0
687,1281,20810,0.0
677,1054,20784,0.0
666,825,20673,0.0
658,602,20662,0.0
649,378,20609,0.0
641,155,20581,0.0
633,-65,20498,0.0
627,-286,20473,0.0
618,-505,20373,0.0
615,-727,20450,0.0
640,-992,21395,0.0
671,-1292,22593,0.0
0,0,0,0.0
995,-2669,33862,1.0
997,-3057,34083,1.0
998,-3445,34252,1.0
0,0,0,0.0
0,0,0,0.0
0,0,0,0.0
1009,-5037,34898,1.0
1010,-5422,34897,1.0
1011,-5816,34947,1.0
0,0,0,0.0
0,0,0,0.0
0,0,0,0.0
0,0,0,0.0
989,-7495,33705,1.0
0,0,0,0.0
68,-571,2332,0.0
48,-421,1643,0.0
0,0,0,0.0
1056,-9732,34802,1.0
49,-470,1615,0.0
0,0,0,0.0
0,0,0,0.0
0,0,0,0.0
0,0,0,0.0
0,0,0,0.0
1090,-12081,33289,1.0
1083,-12236,32615,1.0
48,-568,1469,0.0
64,-751,1881,0.0
31,-373,907,0.0
0,0,0,0.0
0,0,0,0.0
0,0,0,0.0
0,0,0,0.0
1193,-15097,31647,1.0
0,0,0,0.0
122,-1588,3152,0.0
0,0,0,0.0
0,0,0,0.0
1283,-16837,30893,1.0
1293,-17053,30502,1.0
1312,-17374,30306,1.0
1322,-17573,29902,1.0
0,0,0,0.0
1367,-18251,29577,1.0
72,-975,1543,0.0
58,-790,1222,0.0
67,-912,1376,0.0
1439,-19278,28423,1.0
1460,-19559,28179,1.0
1478,-19766,27830,1.0
1496,-19984,27506,1.0
1513,-20158,27126,1.0
1534,-20396,26837,1.0
91,-1215,1564,0.0
1231,-16288,20499,0.0
1228,-16186,19926,0.0
1228,-16125,19419,0.0
1225,-16018,18873,0.0
1234,-16063,18518,0.0
1241,-16082,18141,0.0
1247,-16082,17751,0.0
12,-156,168,0.0
1282,-16346,17279,0.0
1312,-16642,17216,0.0
1352,-17039,17251,0.0
1385,-17353,17193,0.0
1419,-17670,17135,0.0
1455,-18003,17085,0.0
1491,-18329,17022,0.0
1527,-18645,16945,0.0
1567,-18987,16886,0.0
1606,-19338,16827,0.0
1647,-19672,16750,0.0
1690,-20043,16696,0.0
7,-95,77,0.0
7,-99,78,0.0
1823,-21137,16480,0.0
9,-112,85,0.0
9,-114,85,0.0
9,-110,80,0.0
2020,-22680,16163,0.0
2073,-23091,16084,0.0
2124,-23469,15976,0.0
184,-2028,1349,0.0
191,-2080,1351,0.0
192,-2076,1317,0.0
13,-140,86,0.0
13,-145,87,0.0
15,-161,94,0.0
15,-166,95,0.0
16,-170,96,0.0
17,-186,101,0.0
17,-174,93,0.0
20,-202,104,0.0
20,-203,103,0.0
21,-216,107,0.0
21,-213,102,0.0
22,-227,105,0.0
25,-245,111,0.0
24,-235,103,0.0
26,-250,107,0.0
26,-250,103,0.0
27,-260,104,0.0
28,-271,105,0.0
31,-297,112,0.0
34,-309,113,0.0
36,-330,116,0.0
36,-328,112,0.0
35,-315,103,0.0
37,-323,103,0.0
-4002,16059,14647,0.0
-4082,15999,14908,0.0
-4163,15938,15174,0.0
-4246,15880,15447,0.0
-4330,15814,15717,0.0
-4384,15640,15884,0.0
-4488,15636,16226,0.0
-4555,15499,16434,0.0
-4496,14944,16192,0.0
-4598,14927,16531,0.0
-4642,14715,16655,0.0
-4957,15342,17749,0.0
-5057,15283,18074,0.0
-5158,15217,18398,0.0
-5221,15039,18593,0.0
-5344,15026,18996,0.0
-5401,14819,19161,0.0
-5345,14309,18926,0.0
-5409,14131,19121,0.0
-5784,14739,20407,0.0
-8651,21499,30466,0.0
-600,1455,2111,0.0
-6886,16270,24168,0.0
-7006,16133,24542,0.0
-7004,15715,24490,0.0
-6999,15299,24431,0.0
-6986,14872,24341,0.0
-6975,14456,24260,0.0
-6962,14043,24171,0.0
-6954,13647,24102,0.0
-6946,13259,24033,0.0
-6955,12905,24019,0.0
-9525,17177,32840,0.0
-688,1206,2372,0.0
-9641,16396,33123,0.0
-248,410,854,0.0
-9614,15390,32917,0.0
0,0,0,0.0
-8837,13284,30149,0.0
-8860,12893,30172,0.0
-8929,12572,30357,0.0
-9015,12270,30594,0.0
0,0,0,0.0
-9440,11980,31926,0.0
-9535,11668,32188,0.0
-9471,11164,31913,0.0
-417,474,1408,0.0
-654,713,2196,0.0
-6733,7051,22571,0.0
-417,419,1398,0.0
-7175,6897,23964,0.0
-7097,6521,23660,0.0
-7092,6219,23603,0.0
-7094,5926,23564,0.0
-7216,5729,23925,0.0
-7456,5615,24677,0.0
-7477,5327,24704,0.0
-7465,5018,24615,0.0
-7453,4712,24532,0.0
-6522,3863,21425,0.0
-7440,4114,24396,0.0
-7437,3822,24341,0.0
-7437,3532,24295,0.0
-7435,3244,24243,0.0
-7361,2929,23956,0.0
-7106,2556,23081,0.0
-7067,2274,22909,0.0
-7056,2004,22832,0.0
-7066,1742,22818,0.0
-7061,1476,22755,0.0
-7058,1214,22703,0.0
-7050,951,22630,0.0
-7059,692,22616,0.0
-7072,434,22610,0.0
-7147,178,22806,0.0
-7286,-83,23201,0.0
-7349,-350,23354,0.0
-7357,-616,23329,0.0
-7350,-880,23257,0.0
-7347,-1144,23198,0.0
-7345,-1405,23144,0.0
-7343,-1668,23088,0.0
-7324,-1924,22975,0.0
-7327,-2185,22935,0.0
-7335,-2447,22910,0.0
-7333,-2706,22854,0.0
-7318,-2958,22755,0.0
-7302,-3209,22656,0.0
-7308,-3469,22622,0.0
-7309,-3726,22572,0.0
-326,-178,1007,0.0
-7304,-4236,22452,0.0
-7300,-4490,22388,0.0
-7303,-4747,22342,0.0
-7296,-4998,22265,0.0
-7296,-5254,22213,0.0
-7298,-5511,22164,0.0
-7291,-5760,22090,0.0
-7292,-6017,22037,0.0
-7289,-6270,21972,0.0
-7286,-6523,21905,0.0
-7283,-6776,21837,0.0
-7285,-7035,21787,0.0
-7281,-7287,21717,0.0
-7295,-7558,21699,0.0
-7303,-7825,21666,0.0
-93,-103,280,0.0
-89,-102,265,0.0
-7310,-8611,21504,0.0
-7309,-8871,21441,0.0
-7321,-9146,21412,0.0
-7312,-9399,21324,0.0
-7322,-9675,21291,0.0
-7325,-9943,21235,0.0
-7321,-10202,21158,0.0
-7330,-10482,21119,0.0
-7332,-10753,21059,0.0
-7345,-11041,21027,0.0
-7356,-11329,20993,0.0
-7367,-11616,20952,0.0
-7369,-11894,20890,0.0
-7384,-12195,20863,0.0
-7406,-12511,20854,0.0
-7410,-12796,20791,0.0
-7424,-13102,20759,0.0
-7434,-13403,20710,0.0
-172,-317,479,0.0
-7463,-14030,20639,0.0
-7467,-14330,20574,0.0
-7473,-14633,20509,0.0
-7488,-14957,20470,0.0
-7500,-15279,20422,0.0
-7514,-15609,20380,0.0
-7523,-15930,20320,0.0
-7540,-16273,20281,0.0
-7551,-16605,20223,0.0
-7553,-16922,20142,0.0
-7577,-17292,20117,0.0
-7595,-17651,20074,0.0
-7602,-17991,20001,0.0
-7623,-18367,19963,0.0
-7629,-18708,19882,0.0
-7579,-18918,19657,0.0
-7568,-19223,19531,0.0
-7482,-19336,19210,0.0
-7496,-19714,19151,0.0
-7704,-20609,19577,0.0
-7730,-21032,19536,0.0
-7742,-21424,19458,0.0
-7763,-21848,19402,0.0
-7783,-22274,19341,0.0
-20,-61,52,0.0
-24,-73,61,0.0
-25,-77,63,0.0
-26,-83,66,0.0
-29,-92,71,0.0
-29,-94,71,0.0
-25,-83,62,0.0
-28,-94,68,0.0
-32,-110,78,0.0
-28,-97,66,0.0
-28,-98,65,0.0
-32,-116,76,0.0
-28,-101,65,0.0
-31,-112,70,0.0
-548,-2007,1227,0.0
-516,-1922,1146,0.0
-31,-123,72,0.0
-35,-139,79,0.0
-40,-158,87,0.0
-40,-158,85,0.0
-37,-154,80,0.0
-41,-172,88,0.0
-42,-179,88,0.0
-42,-178,86,0.0
-46,-200,93,0.0
-43,-191,87,0.0
-51,-230,101,0.0
-49,-224,96,0.0
-51,-237,99,0.0
-50,-239,96,0.0
-57,-271,107,0.0
-58,-287,109,0.0
-64,-319,117,0.0
-65,-328,116,0.0
-65,-334,114,0.0
-62,-330,109,0.0
-61,-324,104,0.0
-62,-336,103,0.0
-60,-332,98,0.0
-59,-337,96,0.0
-59,-340,92,0.0
119,-315,63,0.0
116,-301,64,0.0
115,-296,65,0.0
111,-283,66,0.0
114,-283,70,0.0
111,-274,70,0.0
109,-265,71,0.0
112,-269,75,0.0
108,-259,75,0.0
109,-255,78,0.0
108,-249,79,0.0
108,-247,81,0.0
110,-249,85,0.0
111,-246,87,0.0
111,-243,89,0.0
115,-250,95,0.0
117,-252,98,0.0
117,-247,99,0.0
119,-249,103,0.0
119,-244,106,0.0
119,-242,108,0.0
116,-233,107,0.0
123,-242,114,0.0
120,-235,114,0.0
122,-234,117,0.0
123,-232,120,0.0
123,-229,120,0.0
135,-247,134,0.0
145,-263,147,0.0
146,-261,149,0.0
149,-263,155,0.0
143,-248,150,0.0
139,-238,148,0.0
139,-234,149,0.0
140,-234,153,0.0
125,-204,137,0.0
127,-205,142,0.0
120,-192,136,0.0
109,-171,123,0.0
105,-163,121,0.0
15935,-24208,18400,0.0
15873,-23749,18500,0.0
15831,-23328,18620,0.0
15929,-23111,18902,0.0
15841,-22625,18960,0.0
15765,-22166,19030,0.0
15675,-21690,19077,0.0
15613,-21259,19155,0.0
15529,-20803,19202,0.0
15495,-20418,19307,0.0
15400,-19959,19335,0.0
15351,-19562,19414,0.0
15286,-19150,19472,0.0
14590,-17964,18716,0.0
14833,-17948,19159,0.0
15034,-17871,19549,0.0
14982,-17492,19610,0.0
14987,-17183,19743,0.0
14964,-16842,19837,0.0
14906,-16465,19882,0.0
14855,-16099,19933,0.0
14829,-15763,20017,0.0
14771,-15396,20053,0.0
14711,-15030,20084,0.0
14677,-14693,20150,0.0
14628,-14345,20192,0.0
14573,-13992,20222,0.0
14523,-13649,20258,0.0
14496,-13329,20324,0.0
14460,-13004,20376,0.0
14429,-12685,20432,0.0
14409,-12375,20501,0.0
14372,-12055,20545,0.0
14352,-11749,20610,0.0
14297,-11417,20625,0.0
14262,-11105,20666,0.0
14243,-10805,20726,0.0
14225,-10508,20789,0.0
14179,-10191,20808,0.0
14193,-9920,20913,0.0
14166,-9619,20958,0.0
14160,-9334,21032,0.0
14153,-9049,21102,0.0
14110,-8742,21117,0.0
14102,-8458,21184,0.0
14072,-8161,21215,0.0
14085,-7890,21310,0.0
14082,-7610,21380,0.0
14062,-7321,21423,0.0
14044,-7034,21467,0.0
14040,-6754,21532,0.0
14024,-6470,21576,0.0
14029,-6195,21652,0.0
14045,-5925,21743,0.0
14038,-5644,21799,0.0
14040,-5366,21866,0.0
14023,-5082,21903,0.0
939,-321,1471,0.0
14020,-4526,22022,0.0
14043,-4254,22119,0.0
14047,-3975,22183,0.0
14083,-3705,22299,0.0
14076,-3423,22345,0.0
14099,-3147,22436,0.0
14082,-2861,22466,0.0
13575,-2486,21708,0.0
13740,-2240,22022,0.0
13668,-1953,21958,0.0
14095,-1730,22694,0.0
14047,-1441,22665,0.0
14129,-1163,22848,0.0
12684,-786,20553,0.0
12737,-530,20680,0.0
14164,-300,23042,0.0
14018,-11,22849,0.0
13915,275,22725,0.0
13985,564,22880,0.0
13847,845,22694,0.0
13864,1133,22762,0.0
13975,1433,22983,0.0
13703,1691,22573,0.0
1146,164,1891,0.0
14383,2379,23765,0.0
14347,2676,23742,0.0
1161,241,1925,0.0
14383,3294,23869,0.0
14481,3626,24063,0.0
14469,3934,24073,0.0
14497,4254,24150,0.0
14480,4564,24152,0.0
14536,4898,24272,0.0
14560,5225,24341,0.0
14,5,25,0.0
1106,445,1853,0.0
19,7,33,0.0
19,8,34,0.0
21,10,37,0.0
26,13,45,0.0
26,13,44,0.0
31,16,54,0.0
30,17,52,0.0
33,20,57,0.0
33,20,55,0.0
45,28,76,0.0
45,30,78,0.0
38,26,66,0.0
52,36,89,0.0
48,35,83,0.0
58,43,99,0.0
52,40,89,0.0
55,43,93,0.0
55,45,94,0.0
58,49,97,0.0
56,49,96,0.0
58,52,98,0.0
61,56,104,0.0
58,54,98,0.0
57,56,97,0.0
60,61,102,0.0
61,63,104,0.0
60,64,102,0.0
60,66,103,0.0
63,71,108,0.0
66,75,111,0.0
66,77,111,0.0
66,80,112,0.0
69,84,116,0.0
65,82,111,0.0
70,89,118,0.0
68,90,115,0.0
70,95,119,0.0
69,95,117,0.0
71,99,119,0.0
67,97,114,0.0
72,105,120,0.0
68,102,114,0.0
71,109,119,0.0
71,111,118,0.0
71,115,119,0.0
72,118,120,0.0
71,120,119,0.0
74,126,122,0.0
73,127,121,0.0
74,132,123,0.0
73,132,121,0.0
76,140,125,0.0
78,146,128,0.0
77,148,125,0.0
75,147,122,0.0
81,162,132,0.0
77,158,126,0.0
78,163,126,0.0
119,-320,65,0.0
114,-304,66,0.0
113,-298,68,0.0
112,-290,69,0.0
108,-276,69,0.0
110,-279,73,0.0
107,-268,73,0.0
111,-275,78,0.0
105,-257,77,0.0
111,-267,83,0.0
108,-255,82,0.0
107,-248,82,0.0
109,-250,86,0.0
108,-245,88,0.0
113,-253,94,0.0
113,-250,95,0.0
113,-247,98,0.0
114,-247,101,0.0
113,-241,102,0.0
117,-244,106,0.0
119,-246,110,0.0
116,-237,109,0.0
121,-244,116,0.0
115,-230,113,0.0
119,-235,118,0.0
123,-238,124,0.0
123,-235,125,0.0
135,-254,139,0.0
141,-262,147,0.0
145,-266,154,0.0
142,-257,153,0.0
146,-260,159,0.0
145,-254,160,0.0
137,-236,152,0.0
142,-240,158,0.0
127,-214,144,0.0
134,-222,154,0.0
123,-201,143,0.0
107,-172,126,0.0
15601,-24582,18361,0.0
15603,-24215,18535,0.0
15544,-23759,18635,0.0
15473,-23291,18717,0.0
15517,-22998,18935,0.0
15423,-22502,18980,0.0
15343,-22036,19040,0.0
15273,-21588,19109,0.0
15239,-21194,19216,0.0
15153,-20734,19256,0.0
15076,-20292,19304,0.0
15030,-19896,19388,0.0
14966,-19479,19445,0.0
14913,-19083,19515,0.0
14850,-18677,19567,0.0
14791,-18278,19620,0.0
14746,-17904,19691,0.0
14674,-17499,19723,0.0
14632,-17134,19790,0.0
14563,-16740,19819,0.0
14510,-16370,19867,0.0
14455,-16001,19911,0.0
13469,-14623,18659,0.0
14383,-15313,20041,0.0
14342,-14966,20095,0.0
14316,-14639,20169,0.0
14251,-14275,20185,0.0
14238,-13966,20272,0.0
14190,-13623,20308,0.0
14171,-13311,20383,0.0
14142,-12991,20441,0.0
14096,-12658,20473,0.0
14024,-12305,20465,0.0
13987,-11986,20507,0.0
13940,-11659,20531,0.0
13901,-11343,20565,0.0
13881,-11043,20625,0.0
13868,-10750,20693,0.0
13800,-10417,20680,0.0
873,-641,1313,0.0
13790,-9849,20834,0.0
13752,-9543,20859,0.0
13733,-9253,20911,0.0
13718,-8965,20968,0.0
13705,-8680,21027,0.0
13677,-8386,21059,0.0
13581,-8054,20988,0.0
13669,-7830,21198,0.0
13708,-7576,21331,0.0
13706,-7300,21402,0.0
13696,-7018,21457,0.0
13714,-6751,21555,0.0
13700,-6468,21602,0.0
13674,-6180,21628,0.0
13709,-5920,21749,0.0
13686,-5633,21778,0.0
13687,-5358,21844,0.0
13689,-5082,21910,0.0
13644,-4791,21900,0.0
13702,-4534,22056,0.0
12820,-3983,20691,0.0
1065,-310,1725,0.0
12831,-3467,20818,0.0
12828,-3204,20866,0.0
13736,-3152,22399,0.0
13767,-2878,22505,0.0
13058,-2463,21396,0.0
13318,-2240,21873,0.0
13387,-1977,22036,0.0
13778,-1752,22731,0.0
13847,-1475,22894,0.0
13762,-1182,22801,0.0
12168,-794,20203,0.0
12173,-542,20252,0.0
12197,-289,20332,0.0
12218,-34,20407,0.0
12180,220,20383,0.0
12242,478,20524,0.0
12218,734,20518,0.0
1200,97,2020,0.0
12276,1257,20688,0.0
12252,1515,20681,0.0
12295,1784,20787,0.0
12301,2048,20829,0.0
12306,2314,20870,0.0
12356,2591,20984,0.0
12263,2837,20856,0.0
12320,3119,20980,0.0
12332,3392,21030,0.0
12343,3667,21076,0.0
12398,3957,21195,0.0
12437,4246,21286,0.0
14230,5176,24382,0.0
14,5,25,0.0
18,7,31,0.0
22,8,38,0.0
31,13,53,0.0
31,14,55,0.0
24,12,42,0.0
36,18,63,0.0
29,16,52,0.0
39,22,68,0.0
41,24,71,0.0
39,24,69,0.0
43,28,75,0.0
49,33,86,0.0
42,29,75,0.0
48,34,84,0.0
56,41,98,0.0
54,41,94,0.0
58,46,101,0.0
54,45,96,0.0
58,49,101,0.0
54,47,96,0.0
55,49,96,0.0
57,52,100,0.0
57,53,99,0.0
52,51,91,0.0
60,59,104,0.0
65,67,115,0.0
65,69,115,0.0
59,64,102,0.0
61,68,108,0.0
62,71,108,0.0
61,71,107,0.0
62,75,109,0.0
64,79,112,0.0
62,78,109,0.0
68,88,119,0.0
66,86,114,0.0
64,87,112,0.0
63,87,110,0.0
63,89,110,0.0
65,95,114,0.0
65,97,114,0.0
69,104,119,0.0
68,105,117,0.0
69,108,119,0.0
70,112,120,0.0
69,112,119,0.0
68,114,116,0.0
71,121,121,0.0
69,121,118,0.0
69,123,118,0.0
72,130,122,0.0
73,134,123,0.0
71,135,121,0.0
72,139,123,0.0
75,146,126,0.0
75,151,127,0.0
75,153,126,0.0
76,157,127,0.0
72,152,119,0.0
115,-319,67,0.0
112,-306,67,0.0
110,-296,69,0.0
113,-300,73,0.0
108,-284,72,0.0
106,-275,73,0.0
108,-275,76,0.0
108,-272,78,0.0
109,-270,81,0.0
105,-258,81,0.0
108,-261,85,0.0
108,-259,87,0.0
109,-256,90,0.0
108,-253,92,0.0
110,-254,95,0.0
109,-249,96,0.0
112,-251,100,0.0
112,-248,102,0.0
116,-252,108,0.0
117,-252,110,0.0
116,-245,111,0.0
120,-250,117,0.0
119,-245,118,0.0
118,-240,118,0.0
121,-243,124,0.0
122,-242,127,0.0
127,-247,133,0.0
135,-260,144,0.0
142,-270,154,0.0
143,-268,156,0.0
146,-269,160,0.0
140,-256,157,0.0
140,-252,159,0.0
134,-237,154,0.0
125,-218,144,0.0
126,-215,147,0.0
123,-208,145,0.0
111,-184,132,0.0
120,-196,144,0.0
1098,-1769,1330,0.0
15247,-24186,18639,0.0
15180,-23716,18725,0.0
15088,-23212,18777,0.0
14608,-22128,18336,0.0
14948,-22289,18919,0.0
14936,-21922,19060,0.0
14880,-21493,19141,0.0
14806,-21044,19195,0.0
14751,-20626,19270,0.0
14681,-20193,19322,0.0
14633,-19793,19400,0.0
14584,-19397,19472,0.0
14518,-18981,19520,0.0
14471,-18596,19590,0.0
14403,-18187,19626,0.0
14354,-17807,19689,0.0
14314,-17442,19760,0.0
14234,-17030,19772,0.0
14209,-16690,19858,0.0
14167,-16331,19919,0.0
13701,-15495,19375,0.0
13685,-15181,19466,0.0
13735,-14941,19646,0.0
13991,-14919,20123,0.0
13948,-14574,20168,0.0
13925,-14252,20242,0.0
13878,-13909,20278,0.0
13849,-13586,20340,0.0
13770,-13217,20323,0.0
13744,-12902,20384,0.0
13647,-12524,20338,0.0
13572,-12170,20320,0.0
13588,-11900,20438,0.0
13584,-11612,20524,0.0
13571,-11317,20593,0.0
12776,-10388,19472,0.0
12771,-10119,19546,0.0
13483,-10403,20723,0.0
13437,-10090,20736,0.0
13440,-9814,20824,0.0
12713,-9020,19774,0.0
13401,-9232,20925,0.0
12638,-8446,19808,0.0
13400,-8679,21081,0.0
12621,-7915,19928,0.0
12659,-7678,20059,0.0
12638,-7405,20094,0.0
12615,-7133,20126,0.0
12623,-6878,20208,0.0
12586,-6599,20214,0.0
12569,-6332,20253,0.0
12550,-6065,20286,0.0
12572,-5817,20384,0.0
12574,-5561,20451,0.0
12566,-5299,20498,0.0
12583,-5047,20585,0.0
12561,-4779,20608,0.0
12554,-4519,20654,0.0
882,-300,1455,0.0
12564,-4004,20783,0.0
12551,-3741,20817,0.0
12509,-3470,20802,0.0
12521,-3214,20874,0.0
12552,-2961,20979,0.0
1214,-262,2035,0.0
12503,-2430,20997,0.0
12484,-2165,21014,0.0
12571,-1918,21210,0.0
12509,-1646,21150,0.0
1194,-132,2024,0.0
0,0,0,0.0
11944,-818,20326,0.0
11834,-561,20181,0.0
11879,-311,20297,0.0
11909,-58,20387,0.0
11917,194,20439,0.0
11953,452,20540,0.0
11912,705,20505,0.0
11963,967,20629,0.0
1207,123,2085,0.0
1118,138,1935,0.0
12022,1754,20835,0.0
12041,2019,20900,0.0
1132,214,1968,0.0
1147,242,1998,0.0
11966,2799,20862,0.0
12018,3077,20981,0.0
12094,3367,21141,0.0
1076,323,1884,0.0
12132,3923,21264,0.0
12108,4190,21246,0.0
12135,4476,21321,0.0
1111,434,1954,0.0
30,12,53,0.0
24,9,43,0.0
27,12,48,0.0
32,15,58,0.0
72,36,128,0.0
46,24,83,0.0
29,16,52,0.0
32,18,57,0.0
38,22,67,0.0
41,26,74,0.0
40,26,73,0.0
48,32,87,0.0
36,26,66,0.0
54,39,96,0.0
54,41,96,0.0
52,40,94,0.0
55,44,99,0.0
57,47,103,0.0
55,48,101,0.0
60,53,108,0.0
57,52,102,0.0
58,55,106,0.0
54,53,98,0.0
58,58,105,0.0
64,65,115,0.0
59,62,107,0.0
58,62,104,0.0
59,65,106,0.0
60,69,108,0.0
60,70,108,0.0
60,72,108,0.0
62,76,112,0.0
58,73,106,0.0
61,78,108,0.0
64,85,115,0.0
64,85,113,0.0
63,86,113,0.0
67,93,118,0.0
67,97,120,0.0
63,92,112,0.0
66,99,118,0.0
66,101,116,0.0
67,105,119,0.0
65,105,116,0.0
65,106,115,0.0
67,113,118,0.0
68,117,121,0.0
68,117,119,0.0
69,123,122,0.0
70,127,123,0.0
70,131,124,0.0
71,135,125,0.0
70,135,122,0.0
72,143,127,0.0
73,146,127,0.0
71,144,122,0.0
74,154,128,0.0
72,153,124,0.0
75,162,128,0.0
113,-322,69,0.0
108,-302,68,0.0
106,-291,69,0.0
106,-291,71,0.0
104,-281,73,0.0
106,-281,76,0.0
106,-277,77,0.0
103,-267,78,0.0
103,-263,80,0.0
103,-259,82,0.0
103,-256,84,0.0
106,-259,89,0.0
104,-252,89,0.0
106,-252,92,0.0
110,-259,98,0.0
108,-251,98,0.0
108,-248,100,0.0
110,-248,104,0.0
111,-248,107,0.0
115,-253,112,0.0
111,-241,110,0.0
114,-244,115,0.0
116,-245,119,0.0
118,-247,123,0.0
118,-242,125,0.0
124,-251,132,0.0
123,-245,134,0.0
133,-262,146,0.0
140,-272,156,0.0
144,-275,162,0.0
149,-282,170,0.0
141,-261,162,0.0
138,-253,161,0.0
129,-234,153,0.0
127,-227,152,0.0
119,-208,143,0.0
118,-205,144,0.0
115,-196,142,0.0
115,-193,142,0.0
1061,-1748,1323,0.0
14888,-24150,18734,0.0
14823,-23678,18818,0.0
14705,-23131,18830,0.0
14434,-22355,18641,0.0
14511,-22124,18896,0.0
14553,-21838,19102,0.0
14479,-21383,19156,0.0
14433,-20973,19243,0.0
14358,-20525,19286,0.0
14302,-20109,19352,0.0
14257,-19716,19431,0.0
14192,-19296,19478,0.0
14137,-18896,19537,0.0
14081,-18497,19590,0.0
12676,-16362,17750,0.0
13983,-17733,19707,0.0
13963,-17391,19803,0.0
13888,-16985,19817,0.0
13835,-16611,19862,0.0
13072,-15403,18877,0.0
13366,-15453,19413,0.0
13130,-14889,19179,0.0
13610,-15133,19990,0.0
13656,-14884,20167,0.0
12702,-13567,18858,0.0
12696,-13283,18947,0.0
13548,-13880,20322,0.0
13490,-13529,20337,0.0
13473,-13219,20410,0.0
12580,-12073,19150,0.0
12566,-11789,19218,0.0
12545,-11500,19275,0.0
12531,-11219,19341,0.0
12516,-10938,19403,0.0
12495,-10654,19456,0.0
12482,-10378,19519,0.0
12472,-10105,19585,0.0
12432,-9809,19604,0.0
12420,-9536,19662,0.0
12414,-9271,19731,0.0
12381,-8984,19754,0.0
12370,-8717,19813,0.0
12353,-8444,19860,0.0
12348,-8181,19923,0.0
12318,-7904,19948,0.0
12355,-7668,20079,0.0
12320,-7387,20090,0.0
12311,-7125,20144,0.0
12265,-6840,20135,0.0
12283,-6594,20232,0.0
12252,-6320,20244,0.0
12265,-6070,20329,0.0
12246,-5804,20360,0.0
12259,-5553,20444,0.0
12241,-5289,20474,0.0
12244,-5033,20540,0.0
12235,-4773,20582,0.0
12227,-4513,20627,0.0
12234,-4259,20694,0.0
12240,-4003,20761,0.0
12235,-3744,20806,0.0
12228,-3484,20848,0.0
12223,-3225,20894,0.0
12224,-2965,20945,0.0
939,-208,1615,0.0
12226,-2448,21050,0.0
12245,-2191,21131,0.0
12234,-1928,21160,0.0
12234,-1668,21208,0.0
12223,-1404,21236,0.0
12223,-1142,21280,0.0
11738,-844,20480,0.0
11511,-580,20123,0.0
11541,-331,20217,0.0
11578,-81,20322,0.0
11628,170,20448,0.0
1091,39,1924,0.0
11612,678,20494,0.0
11638,935,20577,0.0
11656,1193,20645,0.0
11668,1452,20701,0.0
11740,1722,20861,0.0
11709,1979,20839,0.0
11728,2245,20907,0.0
1133,242,2022,0.0
11704,2767,20924,0.0
11751,3045,21038,0.0
1134,319,2034,0.0
11794,3595,21173,0.0
11774,3860,21162,0.0
874,306,1573,0.0
1028,385,1854,0.0
11883,4724,21437,0.0
20,8,37,0.0
23,9,43,0.0
19,8,35,0.0
30,14,54,0.0
34,17,63,0.0
32,17,58,0.0
35,20,65,0.0
33,20,61,0.0
34,20,63,0.0
35,23,66,0.0
33,22,62,0.0
42,28,77,0.0
48,34,88,0.0
49,36,89,0.0
55,42,101,0.0
48,38,89,0.0
55,45,102,0.0
55,47,102,0.0
53,46,98,0.0
61,54,112,0.0
54,50,100,0.0
61,59,112,0.0
57,55,104,0.0
59,60,111,0.0
57,58,104,0.0
57,60,104,0.0
58,64,107,0.0
53,60,99,0.0
53,61,99,0.0
58,69,108,0.0
58,70,107,0.0
56,70,103,0.0
60,76,110,0.0
59,78,110,0.0
59,78,108,0.0
60,83,112,0.0
61,85,112,0.0
60,86,111,0.0
61,90,113,0.0
61,92,111,0.0
59,91,109,0.0
61,96,112,0.0
62,100,115,0.0
63,103,115,0.0
65,108,118,0.0
66,112,120,0.0
63,109,115,0.0
67,120,122,0.0
65,119,118,0.0
66,123,120,0.0
65,123,117,0.0
67,130,121,0.0
69,135,123,0.0
69,139,124,0.0
70,142,124,0.0
71,149,126,0.0
73,156,130,0.0
70,152,124,0.0
68,152,121,0.0
105,-305,66,0.0
101,-291,66,0.0
99,-281,67,0.0
100,-279,70,0.0
101,-279,73,0.0
99,-271,74,0.0
95,-256,73,0.0
96,-255,76,0.0
98,-258,80,0.0
99,-256,82,0.0
94,-238,80,0.0
101,-256,89,0.0
98,-242,87,0.0
100,-246,91,0.0
104,-251,96,0.0
103,-248,98,0.0
104,-244,100,0.0
107,-248,105,0.0
109,-249,108,0.0
108,-245,110,0.0
107,-237,109,0.0
110,-242,115,0.0
115,-247,121,0.0
112,-240,121,0.0
116,-244,127,0.0
118,-244,130,0.0
120,-244,134,0.0
133,-269,151,0.0
131,-260,150,0.0
136,-266,158,0.0
134,-257,157,0.0
133,-254,159,0.0
126,-237,152,0.0
126,-232,153,0.0
125,-229,155,0.0
114,-205,141,0.0
108,-191,136,0.0
100,-175,127,0.0
14486,-24781,18434,0.0
1135,-1913,1458,0.0
14478,-24026,18759,0.0
14403,-23537,18824,0.0
14346,-23085,18910,0.0
14284,-22628,18985,0.0
14226,-22184,19062,0.0
14165,-21742,19132,0.0
14091,-21283,19179,0.0
14040,-20866,19255,0.0
12250,-17910,16925,0.0
12229,-17586,17018,0.0
12183,-17230,17074,0.0
12123,-16857,17108,0.0
12111,-16555,17207,0.0
12072,-16217,17264,0.0
12188,-16088,17542,0.0
12599,-16339,18250,0.0
12617,-16071,18390,0.0
13529,-16921,19839,0.0
13493,-16566,19903,0.0
12485,-15045,18524,0.0
12468,-14740,18604,0.0
12459,-14447,18695,0.0
12487,-14199,18840,0.0
12400,-13821,18808,0.0
12376,-13517,18870,0.0
12348,-13212,18924,0.0
12345,-12933,19014,0.0
12317,-12632,19066,0.0
12266,-12308,19079,0.0
12277,-12049,19186,0.0
12269,-11771,19264,0.0
12191,-11430,19228,0.0
12206,-11178,19340,0.0
12181,-10888,19384,0.0
12176,-10619,19458,0.0
12185,-10362,19556,0.0
12175,-10091,19621,0.0
12175,-9827,19701,0.0
12168,-9559,19768,0.0
12188,-9312,19879,0.0
12191,-9051,19959,0.0
12176,-8779,20011,0.0
12207,-8539,20135,0.0
12211,-8280,20214,0.0
12201,-8012,20270,0.0
12210,-7757,20357,0.0
12186,-7481,20387,0.0
12210,-7234,20494,0.0
12214,-6975,20570,0.0
12185,-6698,20587,0.0
12226,-6459,20722,0.0
12233,-6201,20798,0.0
12250,-5948,20891,0.0
12247,-5684,20948,0.0
12234,-5417,20989,0.0
12233,-5155,21046,0.0
12234,-4894,21109,0.0
12230,-4630,21160,0.0
12245,-4374,21245,0.0
12232,-4106,21278,0.0
12236,-3845,21341,0.0
12238,-3582,21399,0.0
12252,-3322,21478,0.0
12229,-3052,21490,0.0
12240,-2791,21562,0.0
12245,-2526,21622,0.0
12244,-2261,21671,0.0
12231,-1992,21697,0.0
12257,-1729,21792,0.0
12231,-1459,21792,0.0
12049,-1173,21514,0.0
941,-71,1686,0.0
11323,-606,20303,0.0
11344,-356,20381,0.0
11310,-105,20359,0.0
11358,146,20486,0.0
11401,401,20600,0.0
11325,651,20500,0.0
11334,905,20554,0.0
11405,1168,20718,0.0
1150,143,2093,0.0
11422,1686,20817,0.0
11457,1952,20914,0.0
0,0,0,0.0
1163,250,2132,0.0
11432,2735,20966,0.0
11470,3009,21065,0.0
1055,301,1943,0.0
11451,3538,21089,0.0
11482,3817,21173,0.0
1012,360,1869,0.0
11516,4373,21288,0.0
1022,413,1893,0.0
1024,438,1899,0.0
13,5,25,0.0
23,10,43,0.0
14,7,27,0.0
21,11,41,0.0
27,15,52,0.0
33,18,62,0.0
27,16,51,0.0
33,20,63,0.0
38,24,71,0.0
36,25,70,0.0
44,30,83,0.0
41,29,77,0.0
47,35,89,0.0
47,36,89,0.0
47,38,90,0.0
49,40,93,0.0
52,45,100,0.0
47,41,89,0.0
52,47,97,0.0
54,51,103,0.0
56,55,106,0.0
53,52,99,0.0
56,58,107,0.0
55,58,105,0.0
54,59,104,0.0
50,57,96,0.0
52,60,100,0.0
54,64,105,0.0
52,63,99,0.0
57,70,107,0.0
55,71,106,0.0
57,73,107,0.0
58,78,110,0.0
54,74,103,0.0
56,79,107,0.0
56,80,106,0.0
57,83,107,0.0
57,86,109,0.0
55,85,105,0.0
60,95,114,0.0
57,92,108,0.0
60,97,113,0.0
60,100,112,0.0
60,102,113,0.0
62,109,117,0.0
62,110,116,0.0
62,114,117,0.0
61,114,115,0.0
61,115,113,0.0
61,119,114,0.0
64,127,120,0.0
65,130,121,0.0
63,131,118,0.0
66,138,121,0.0
66,141,122,0.0
68,149,125,0.0
65,145,120,0.0
65,148,119,0.0
100,-303,67,0.0
101,-298,69,0.0
100,-293,71,0.0
94,-271,68,0.0
95,-271,72,0.0
95,-268,75,0.0
97,-268,78,0.0
96,-262,78,0.0
96,-258,81,0.0
97,-258,84,0.0
98,-255,87,0.0
98,-253,88,0.0
100,-253,92,0.0
97,-246,92,0.0
101,-253,98,0.0
102,-249,100,0.0
102,-245,101,0.0
101,-242,103,0.0
105,-246,108,0.0
105,-243,110,0.0
106,-242,113,0.0
108,-241,116,0.0
112,-249,123,0.0
107,-236,120,0.0
113,-245,128,0.0
115,-245,131,0.0
125,-262,144,0.0
128,-265,150,0.0
131,-268,156,0.0
130,-260,156,0.0
127,-252,155,0.0
126,-246,154,0.0
118,-225,146,0.0
107,-203,135,0.0
104,-194,131,0.0
110,-202,141,0.0
94,-171,121,0.0
13892,-24693,18045,0.0
12304,-21545,16131,0.0
14092,-24305,18642,0.0
12339,-20958,16466,0.0
12202,-20410,16424,0.0
12174,-20048,16523,0.0
12122,-19653,16587,0.0
12106,-19321,16699,0.0
12049,-18925,16749,0.0
12013,-18569,16828,0.0
11988,-18231,16918,0.0
11933,-17854,16964,0.0
11900,-17511,17037,0.0
11868,-17173,17108,0.0
11840,-16845,17185,0.0
11763,-16451,17187,0.0
11760,-16165,17295,0.0
11932,-16117,17661,0.0
12126,-16089,18060,0.0
12286,-16009,18408,0.0
12264,-15693,18486,0.0
12175,-15294,18460,0.0
12173,-15007,18563,0.0
12128,-14668,18596,0.0
12150,-14415,18735,0.0
12125,-14104,18796,0.0
12125,-13826,18896,0.0
12146,-13572,19026,0.0
12156,-13307,19139,0.0
12160,-13034,19240,0.0
12161,-12759,19334,0.0
12143,-12467,19399,0.0
12150,-12199,19500,0.0
12183,-11960,19645,0.0
12142,-11647,19667,0.0
12144,-11378,19755,0.0
12185,-11146,19910,0.0
12175,-10865,19977,0.0
12185,-10605,20078,0.0
12178,-10328,20149,0.0
12168,-10052,20214,0.0
12199,-9809,20345,0.0
12200,-9540,20424,0.0
12213,-9282,20524,0.0
12196,-9002,20572,0.0
12201,-8737,20655,0.0
12196,-8468,20723,0.0
12201,-8203,20805,0.0
12221,-7949,20909,0.0
12179,-7655,20909,0.0
12234,-7423,21072,0.0
12231,-7154,21138,0.0
12209,-6875,21168,0.0
12233,-6621,21276,0.0
12242,-6360,21357,0.0
12232,-6088,21405,0.0
12222,-5815,21449,0.0
12244,-5559,21552,0.0
12241,-5290,21608,0.0
12239,-5022,21666,0.0
12243,-4756,21733,0.0
12241,-4488,21790,0.0
12222,-4214,21814,0.0
12246,-3953,21913,0.0
12243,-3683,21964,0.0
12249,-3415,22029,0.0
12244,-3144,22074,0.0
12235,-2872,22113,0.0
12231,-2601,22156,0.0
12219,-2328,22187,0.0
12253,-2063,22298,0.0
12239,-1788,22323,0.0
775,-96,1418,0.0
11737,-1191,21501,0.0
11367,-898,20867,0.0
11051,-626,20329,0.0
11034,-376,20337,0.0
11046,-127,20400,0.0
11038,122,20426,0.0
11051,373,20488,0.0
11060,626,20541,0.0
985,77,1835,0.0
11109,1138,20707,0.0
11061,1388,20651,0.0
11122,1653,20801,0.0
11080,1904,20755,0.0
864,168,1621,0.0
11119,2430,20894,0.0
977,236,1840,0.0
1079,286,2035,0.0
1077,311,2034,0.0
11210,3513,21188,0.0
11187,3774,21171,0.0
11194,4046,21211,0.0
11204,4322,21259,0.0
11267,4621,21404,0.0
18,7,34,0.0
13,6,26,0.0
15,7,30,0.0
26,13,50,0.0
35,19,69,0.0
45,25,88,0.0
36,21,71,0.0
27,16,54,0.0
27,17,53,0.0
33,22,64,0.0
36,25,70,0.0
39,28,76,0.0
41,31,81,0.0
42,32,83,0.0
43,34,84,0.0
44,36,85,0.0
45,38,88,0.0
48,41,93,0.0
51,45,98,0.0
60,56,116,0.0
49,48,96,0.0
47,47,93,0.0
58,59,112,0.0
51,53,99,0.0
52,56,100,0.0
55,62,107,0.0
54,62,106,0.0
53,62,103,0.0
46,56,91,0.0
51,63,100,0.0
53,67,105,0.0
51,66,100,0.0
55,73,108,0.0
52,72,103,0.0
54,75,104,0.0
54,77,104,0.0
57,83,110,0.0
57,86,113,0.0
57,87,110,0.0
55,87,108,0.0
56,89,108,0.0
54,89,106,0.0
56,93,109,0.0
59,101,115,0.0
59,101,113,0.0
60,106,115,0.0
60,110,116,0.0
61,114,117,0.0
58,110,112,0.0
61,120,118,0.0
60,118,115,0.0
63,127,120,0.0
63,131,122,0.0
62,131,118,0.0
63,136,120,0.0
65,142,123,0.0
67,150,127,0.0
62,141,118,0.0
64,149,121,0.0
92,-283,64,0.0
93,-284,67,0.0
92,-276,68,0.0
89,-263,68,0.0
90,-263,71,0.0
89,-257,73,0.0
91,-260,77,0.0
91,-254,77,0.0
90,-250,79,0.0
92,-250,83,0.0
93,-251,86,0.0
93,-245,87,0.0
96,-249,92,0.0
94,-241,92,0.0
96,-244,95,0.0
98,-246,99,0.0
99,-247,103,0.0
101,-247,106,0.0
103,-248,110,0.0
102,-243,111,0.0
104,-243,115,0.0
103,-239,116,0.0
107,-245,122,0.0
106,-239,122,0.0
109,-241,127,0.0
114,-248,134,0.0
122,-264,147,0.0
125,-264,151,0.0
121,-252,148,0.0
127,-262,158,0.0
122,-247,153,0.0
118,-236,150,0.0
119,-235,153,0.0
116,-224,150,0.0
104,-199,136,0.0
103,-196,137,0.0
99,-185,133,0.0
12093,-22017,16193,0.0
12043,-21597,16274,0.0
11979,-21158,16330,0.0
11955,-20795,16438,0.0
11905,-20391,16508,0.0
1134,-1914,1587,0.0
11796,-19584,16626,0.0
11786,-19261,16743,0.0
11708,-18830,16760,0.0
11692,-18502,16861,0.0
11655,-18147,16932,0.0
11612,-17785,16990,0.0
11568,-17427,17044,0.0
11540,-17095,17120,0.0
11507,-16758,17184,0.0
11475,-16429,17249,0.0
11432,-16085,17296,0.0
11658,-16118,17748,0.0
11852,-16097,18155,0.0
12000,-16007,18492,0.0
12117,-15870,18781,0.0
12117,-15580,18891,0.0
12121,-15294,19003,0.0
12125,-15009,19113,0.0
12129,-14728,19225,0.0
12143,-14458,19348,0.0
12154,-14185,19467,0.0
12145,-13891,19552,0.0
12131,-13592,19628,0.0
12156,-13336,19764,0.0
12140,-13037,19832,0.0
12162,-12780,19962,0.0
12141,-12479,20021,0.0
12167,-12225,20154,0.0
12181,-11962,20267,0.0
12164,-11667,20327,0.0
12186,-11410,20451,0.0
12184,-11132,20534,0.0
12186,-10858,20624,0.0
12204,-10597,20736,0.0
12207,-10324,20824,0.0
12208,-10050,20907,0.0
12193,-9763,20962,0.0
12221,-9511,21089,0.0
12191,-9214,21114,0.0
12200,-8948,21208,0.0
12191,-8668,21267,0.0
12205,-8405,21365,0.0
12217,-8140,21458,0.0
12193,-7853,21490,0.0
12236,-7606,21636,0.0
12228,-7329,21692,0.0
12221,-7053,21748,0.0
12229,-6784,21831,0.0
12223,-6509,21888,0.0
12232,-6241,21969,0.0
12226,-5966,22024,0.0
12225,-5692,22085,0.0
12226,-5420,22151,0.0
12246,-5156,22250,0.0
12233,-4879,22288,0.0
12251,-4611,22380,0.0
12234,-4331,22409,0.0
12234,-4058,22469,0.0
12263,-3792,22577,0.0
12252,-3514,22613,0.0
12226,-3231,22622,0.0
12239,-2959,22700,0.0
12253,-2685,22780,0.0
12244,-2407,22816,0.0
12232,-2128,22846,0.0
12229,-1850,22893,0.0
0,0,0,0.0
11553,-1220,21721,0.0
11037,-914,20792,0.0
1142,-68,2156,0.0
1158,-42,2191,0.0
10767,-149,20409,0.0
10770,99,20454,0.0
10788,350,20525,0.0
10778,600,20545,0.0
10798,854,20620,0.0
10802,1107,20665,0.0
942,118,1807,0.0
10803,1618,20738,0.0
10836,1880,20835,0.0
10820,2134,20838,0.0
10833,2396,20895,0.0
10854,2662,20968,0.0
10855,2924,21002,0.0
10842,3184,21007,0.0
10917,3472,21182,0.0
10873,3725,21125,0.0
10932,4014,21270,0.0
10917,4280,21270,0.0
14,6,28,0.0
12,5,25,0.0
15,7,31,0.0
20,10,42,0.0
18,9,37,0.0
24,13,47,0.0
20,12,42,0.0
18,10,38,0.0
24,15,49,0.0
32,20,63,0.0
36,24,71,0.0
37,26,73,0.0
42,31,85,0.0
39,30,79,0.0
43,34,86,0.0
46,37,93,0.0
39,33,80,0.0
43,38,87,0.0
47,42,94,0.0
51,47,103,0.0
47,45,94,0.0
50,49,99,0.0
45,45,90,0.0
48,51,97,0.0
50,54,101,0.0
46,51,94,0.0
51,58,102,0.0
47,55,95,0.0
46,56,93,0.0
45,56,92,0.0
45,58,92,0.0
51,66,102,0.0
50,66,100,0.0
47,64,95,0.0
49,68,99,0.0
48,69,97,0.0
