//X,Y,Z,Classification
1277,-26164,27021,1.0
1314,-26470,26754,1.0
1353,-26781,26491,1.0
1388,-27017,26154,1.0
1431,-27365,25924,1.0
954,-17955,16646,0.0
968,-17922,16260,0.0
980,-17844,15842,0.0
992,-17778,15444,0.0
1005,-17699,15043,0.0
1016,-17616,14648,0.0
1034,-17639,14350,0.0
5,-92,74,0.0
7,-121,94,0.0
6,-120,92,0.0
7,-127,95,0.0
7,-113,82,0.0
1201,-18674,13283,0.0
1240,-18983,13198,0.0
1279,-19304,13114,0.0
1323,-19661,13051,0.0
1365,-19991,12962,0.0
1411,-20359,12892,0.0
1455,-20701,12799,0.0
11,-157,94,0.0
11,-155,92,0.0
11,-152,87,0.0
11,-163,91,0.0
13,-175,96,0.0
14,-186,98,0.0
14,-189,98,0.0
16,-220,111,0.0
16,-211,103,0.0
17,-219,105,0.0
17,-219,102,0.0
19,-239,108,0.0
21,-252,110,0.0
21,-252,107,0.0
22,-268,111,0.0
22,-262,105,0.0
23,-271,105,0.0
28,-312,117,0.0
30,-333,121,0.0
31,-345,121,0.0
31,-342,117,0.0
32,-344,113,0.0
32,-345,109,0.0
2290,14515,14311,0.0
1700,10775,10850,0.0
1683,10661,10967,0.0
2076,13154,13823,0.0
1745,11052,11864,0.0
1938,12260,13446,0.0
1862,11776,13195,0.0
1767,11167,12785,0.0
1708,10774,12606,0.0
1697,10692,12786,0.0
1707,10739,13124,0.0
1701,10679,13340,0.0
1679,10521,13435,0.0
1682,10514,13727,0.0
1665,10378,13854,0.0
1650,10249,13992,0.0
1647,10194,14237,0.0
1650,10179,14542,0.0
1630,10016,14642,0.0
1542,9437,14118,0.0
1641,9993,15304,0.0
1640,9938,15582,0.0
1638,9877,15861,0.0
1638,9811,16138,0.0
1636,9742,16419,0.0
1635,9666,16699,0.0
1633,9589,16986,0.0
1635,9528,17309,0.0
1635,9450,17614,0.0
1636,9377,17937,0.0
1638,9306,18277,0.0
1640,9222,18606,0.0
1641,9133,18937,0.0
1644,9050,19293,0.0
1648,8966,19661,0.0
1649,8861,20001,0.0
1656,8784,20418,0.0
1664,8699,20833,0.0
1670,8605,21253,0.0
1675,8500,21661,0.0
1684,8401,22107,0.0
1692,8299,22567,0.0
1705,8202,23069,0.0
1714,8085,23539,0.0
1725,7970,24047,0.0
1739,7854,24582,0.0
1750,7727,25111,0.0
1765,7600,25681,0.0
2127,8918,31374,0.0
1254,5111,18747,0.0
1237,4895,18755,0.0
1220,4675,18730,0.0
1197,4434,18617,0.0
1180,4214,18583,0.0
1163,3997,18550,0.0
1146,3778,18500,0.0
1130,3563,18457,0.0
1112,3342,18375,0.0
1099,3132,18341,0.0
1082,2915,18261,0.0
1070,2714,18255,0.0
1056,2504,18198,0.0
1044,2300,18163,0.0
1030,2093,18088,0.0
1019,1894,18068,0.0
1008,1693,18029,0.0
996,1493,17972,0.0
986,1295,17926,0.0
975,1097,17863,0.0
965,903,17829,0.0
956,707,17773,0.0
948,515,17755,0.0
940,323,17693,0.0
933,133,17679,0.0
925,-57,17606,0.0
917,-246,17539,0.0
913,-435,17544,0.0
905,-621,17470,0.0
899,-807,17425,0.0
893,-992,17358,0.0
889,-1178,17331,0.0
884,-1362,17280,0.0
883,-1548,17270,0.0
881,-1734,17257,0.0
877,-1915,17198,0.0
871,-2092,17102,0.0
868,-2273,17056,0.0
890,-2519,17465,0.0
919,-2795,18007,0.0
0,0,0,0.0
1739,-6032,34006,1.0
0,0,0,0.0
1721,-6683,33468,1.0
1720,-7036,33365,1.0
1741,-7473,33636,1.0
1748,-7856,33649,1.0
1749,-8208,33521,1.0
1753,-8569,33435,1.0
1765,-8963,33468,1.0
1781,-9381,33579,1.0
0,0,0,0.0
1786,-10061,33235,1.0
0,0,0,0.0
1805,-10807,33111,1.0
1817,-11178,33039,1.0
1830,-11568,33017,1.0
1847,-11973,33028,1.0
1855,-12312,32855,1.0
1871,-12702,32817,1.0
1885,-13073,32722,1.0
0,0,0,0.0
1915,-13819,32539,1.0
1932,-14193,32445,1.0
1952,-14597,32412,1.0
1964,-14917,32193,1.0
1985,-15318,32147,1.0
0,0,0,0.0
2025,-16065,31926,1.0
2043,-16426,31787,1.0
2078,-16913,31882,1.0
0,0,0,0.0
2113,-17574,31471,1.0
2147,-18042,31510,1.0
2170,-18399,31344,1.0
2196,-18787,31231,1.0
2231,-19233,31206,1.0
2255,-19587,31028,1.0
2293,-20056,31025,1.0
2320,-20419,30853,1.0
2367,-20963,30945,1.0
2396,-21330,30768,1.0
2431,-21746,30658,1.0
2457,-22068,30412,1.0
2498,-22530,30354,1.0
2525,-22853,30108,1.0
2565,-23289,30005,1.0
2611,-23769,29951,1.0
2635,-24045,29638,1.0
2656,-24273,29269,1.0
2680,-24532,28941,1.0
2704,-24783,28606,1.0
2738,-25114,28364,1.0
2764,-25361,28029,1.0
2798,-25670,27764,1.0
2835,-26007,27527,1.0
2865,-26275,27216,1.0
2902,-26589,26955,1.0
2934,-26852,26642,1.0
2971,-27171,26383,1.0
3006,-27448,26083,1.0
1968,-17938,16682,0.0
1971,-17925,16313,0.0
1966,-17838,15886,0.0
1962,-17770,15486,0.0
1957,-17670,15066,0.0
1955,-17599,14681,0.0
1976,-17741,14479,0.0
1963,-17564,14022,0.0
1970,-17567,13718,0.0
1988,-17663,13488,0.0
13,-120,89,0.0
2069,-18249,13323,0.0
2113,-18562,13248,0.0
2159,-18882,13172,0.0
2207,-19220,13103,0.0
2255,-19549,13021,0.0
2304,-19884,12937,0.0
2356,-20232,12856,0.0
2409,-20587,12773,0.0
18,-154,93,0.0
16,-141,83,0.0
17,-149,85,0.0
18,-156,88,0.0
20,-174,95,0.0
21,-180,96,0.0
21,-178,93,0.0
22,-189,96,0.0
24,-201,99,0.0
26,-215,103,0.0
27,-228,106,0.0
30,-241,109,0.0
30,-240,106,0.0
31,-251,107,0.0
32,-255,106,0.0
34,-269,108,0.0
36,-285,111,0.0
38,-300,113,0.0
42,-325,118,0.0
42,-326,115,0.0
43,-325,111,0.0
43,-325,107,0.0
44,-334,106,0.0
-3264,13747,12595,0.0
-3332,13699,12824,0.0
-3403,13659,13063,0.0
-3471,13602,13291,0.0
-3541,13549,13526,0.0
-3615,13505,13776,0.0
-3689,13452,14021,0.0
-3764,13400,14271,0.0
-3837,13339,14519,0.0
-3912,13277,14769,0.0
-3990,13215,15024,0.0
-4070,13163,15296,0.0
-4150,13098,15558,0.0
-4231,13032,15826,0.0
-4299,12923,16046,0.0
-4358,12782,16230,0.0
-4293,12287,15956,0.0
-4352,12149,16140,0.0
-4407,12000,16309,0.0
-4761,12644,17585,0.0
-4857,12578,17903,0.0
-4955,12507,18224,0.0
-5057,12440,18560,0.0
-5140,12322,18827,0.0
-5172,12077,18904,0.0
-5143,11699,18764,0.0
-5163,11436,18802,0.0
-5586,12042,20299,0.0
-5699,11954,20669,0.0
-5817,11867,21052,0.0
-6644,13180,24000,0.0
-6634,12792,23916,0.0
-6616,12394,23803,0.0
-6612,12031,23747,0.0
-6511,11499,23336,0.0
-6614,11334,23661,0.0
-6421,10669,22926,0.0
-6588,10609,23477,0.0
-6602,10298,23483,0.0
-9164,13836,32534,0.0
-9205,13443,32615,0.0
-9175,12950,32445,0.0
-9197,12538,32462,0.0
-8476,11151,29862,0.0
-8418,10678,29603,0.0
-8543,10436,29982,0.0
-8447,9928,29588,0.0
-8592,9705,30040,0.0
-8934,9688,31176,0.0
-9105,9464,31711,0.0
0,0,0,0.0
0,0,0,0.0
-9084,8242,31456,0.0
0,0,0,0.0
-6081,4993,20977,0.0
-6266,4880,21576,0.0
-6387,4704,21951,0.0
-6372,4428,21859,0.0
-6370,4161,21807,0.0
-6372,3899,21770,0.0
-6368,3637,21715,0.0
-6349,3367,21607,0.0
-6342,3109,21543,0.0
-6332,2850,21464,0.0
-6325,2595,21402,0.0
-5907,2190,19949,0.0
-5916,1960,19936,0.0
-5796,1693,19494,0.0
-5914,1497,19849,0.0
-5907,1267,19789,0.0
-5929,1043,19819,0.0
-5896,811,19667,0.0
-5910,588,19675,0.0
-5923,364,19681,0.0
-5944,141,19706,0.0
-5957,-83,19709,0.0
-5935,-306,19597,0.0
-5984,-532,19714,0.0
-5946,-750,19549,0.0
-5984,-977,19632,0.0
-6101,-1223,19971,0.0
-5976,-1418,19521,0.0
-5961,-1634,19427,0.0
-5966,-1855,19404,0.0
-5963,-2072,19351,0.0
-5967,-2293,19320,0.0
-5961,-2508,19255,0.0
-5961,-2726,19215,0.0
-5969,-2947,19195,0.0
-5967,-3163,19145,0.0
-5971,-3382,19114,0.0
-5908,-3561,18868,0.0
-5912,-3778,18835,0.0
-5908,-3991,18781,0.0
-5625,-4003,17836,0.0
-5989,-4480,18946,0.0
-5997,-4703,18924,0.0
-6002,-4924,18894,0.0
-5983,-5126,18786,0.0
-6006,-5363,18810,0.0
-5996,-5573,18731,0.0
-6011,-5806,18729,0.0
-5998,-6011,18640,0.0
-6027,-6262,18684,0.0
-6029,-6483,18636,0.0
-6024,-6699,18572,0.0
-6029,-6926,18539,0.0
-6034,-7154,18503,0.0
-6037,-7380,18459,0.0
-6038,-7605,18411,0.0
-6045,-7839,18383,0.0
-6032,-8046,18290,0.0
-6047,-8292,18280,0.0
-6031,-8498,18181,0.0
-6036,-8730,18138,0.0
-6037,-8960,18087,0.0
-5913,-9001,17662,0.0
-5624,-8775,16747,0.0
-5583,-8924,16572,0.0
-5573,-9124,16492,0.0
-5581,-9350,16457,0.0
-6057,-10384,17803,0.0
-6064,-10631,17764,0.0
-6064,-10872,17708,0.0
-5956,-10913,17332,0.0
-5959,-11156,17281,0.0
-5959,-11393,17218,0.0
-5971,-11657,17191,0.0
-5961,-11880,17102,0.0
-5970,-12142,17063,0.0
-5983,-12413,17035,0.0
-5982,-12658,16966,0.0
-5989,-12923,16919,0.0
-5997,-13195,16878,0.0
-5995,-13444,16804,0.0
-5969,-13640,16660,0.0
-5986,-13938,16638,0.0
-5999,-14228,16602,0.0
-5990,-14471,16507,0.0
-5994,-14748,16447,0.0
-5995,-15015,16372,0.0
-5986,-15265,16274,0.0
-6009,-15599,16260,0.0
-6020,-15905,16212,0.0
-6031,-16216,16165,0.0
-6001,-16419,16004,0.0
-5925,-16493,15721,0.0
-5760,-16309,15201,0.0
-6012,-17318,15784,0.0
-6024,-17649,15729,0.0
-6034,-17979,15668,0.0
-19,-61,52,0.0
-6038,-18609,15502,0.0
-6034,-18910,15400,0.0
-25,-83,66,0.0
-24,-80,62,0.0
-27,-89,68,0.0
-28,-94,70,0.0
-27,-93,68,0.0
-24,-85,60,0.0
-28,-101,70,0.0
-28,-103,70,0.0
-6072,-22079,14587,0.0
-6014,-22228,14336,0.0
-6025,-22641,14252,0.0
-6461,-24679,15160,0.0
-32,-131,78,0.0
-26,-106,61,0.0
-33,-137,77,0.0
-36,-152,84,0.0
-36,-153,82,0.0
-35,-152,80,0.0
-41,-176,90,0.0
-42,-186,93,0.0
-42,-191,92,0.0
-40,-180,85,0.0
-44,-205,94,0.0
-47,-221,98,0.0
-47,-224,96,0.0
-48,-237,99,0.0
-50,-251,102,0.0
-50,-256,101,0.0
-56,-290,110,0.0
-61,-324,120,0.0
-64,-342,122,0.0
-63,-340,117,0.0
-60,-333,111,0.0
-61,-340,109,0.0
-60,-343,106,0.0
-57,-337,100,0.0
-57,-340,98,0.0
-56,-343,95,0.0
-2153,12944,12149,0.0
-2115,12362,11855,0.0
-2142,12173,11925,0.0
-2443,13508,13519,0.0
-2542,13670,13977,0.0
-2630,13761,14376,0.0
-2645,13464,14371,0.0
-2702,13379,14591,0.0
-2794,13464,15005,0.0
-2813,13193,15025,0.0
-2879,13139,15294,0.0
-2949,13100,15586,0.0
-3015,13035,15851,0.0
-3083,12972,16128,0.0
-3151,12905,16405,0.0
-3221,12837,16687,0.0
-3285,12739,16937,0.0
-3319,12530,17041,0.0
-3368,12369,17211,0.0
-3377,12067,17183,0.0
-3402,11824,17232,0.0
-3671,12411,18516,0.0
-3761,12367,18894,0.0
-3838,12272,19201,0.0
-3907,12147,19470,0.0
-3982,12033,19766,0.0
-4023,11812,19889,0.0
-4008,11433,19740,0.0
-4051,11225,19880,0.0
-4374,11768,21386,0.0
-4473,11681,21791,0.0
-4579,11602,22226,0.0
-4685,11515,22663,0.0
-4786,11405,23072,0.0
-4896,11308,23523,0.0
-5010,11209,23991,0.0
-5122,11093,24442,0.0
-5235,10973,24903,0.0
-5226,10593,24777,0.0
-5232,10252,24729,0.0
-5626,10646,26507,0.0
-5760,10521,27055,0.0
-5898,10390,27617,0.0
-6025,10227,28125,0.0
-6121,10004,28492,0.0
-6237,9805,28945,0.0
-6351,9594,29390,0.0
-6690,9698,30867,0.0
-6784,9428,31212,0.0
-6877,9149,31549,0.0
-6874,8742,31448,0.0
-4167,5058,19010,0.0
-4174,4828,18994,0.0
-4173,4589,18934,0.0
-4174,4356,18888,0.0
-4169,4120,18818,0.0
-4176,3897,18797,0.0
-4170,3665,18723,0.0
-4169,3438,18667,0.0
-4159,3208,18577,0.0
-4164,2991,18551,0.0
-4165,2773,18508,0.0
-4166,2557,18466,0.0
-4165,2340,18411,0.0
-4161,2124,18350,0.0
-4159,1912,18296,0.0
-4161,1702,18262,0.0
-4154,1491,18184,0.0
-4159,1285,18162,0.0
-4148,1075,18070,0.0
-4148,871,18029,0.0
-4156,669,18019,0.0
-4155,466,17971,0.0
-4152,264,17916,0.0
-4153,63,17877,0.0
-4147,-136,17813,0.0
-4149,-334,17776,0.0
-4145,-531,17716,0.0
-4143,-728,17669,0.0
-4144,-925,17631,0.0
-4142,-1119,17581,0.0
-4141,-1314,17535,0.0
-4137,-1507,17481,0.0
-4140,-1702,17449,0.0
-4134,-1892,17386,0.0
-4131,-2083,17331,0.0
-4115,-2267,17229,0.0
-4211,-2516,17589,0.0
-4385,-2822,18272,0.0
-4386,-3027,18236,0.0
-4381,-3226,18172,0.0
-4380,-3428,18126,0.0
-4380,-3630,18086,0.0
-4375,-3827,18018,0.0
-4378,-4034,17994,0.0
-4384,-4242,17976,0.0
-4388,-4448,17948,0.0
-4374,-4636,17851,0.0
-4373,-4838,17805,0.0
-4369,-5038,17750,0.0
-4372,-5245,17720,0.0
-4372,-5447,17676,0.0
-4375,-5656,17645,0.0
-4356,-5837,17533,0.0
-4366,-6054,17528,0.0
-4366,-6261,17490,0.0
-4365,-6466,17445,0.0
-4364,-6671,17397,0.0
-4359,-6870,17333,0.0
-4364,-7088,17315,0.0
-4361,-7292,17259,0.0
-4360,-7500,17212,0.0
-4357,-7706,17159,0.0
-4351,-7906,17091,0.0
-4348,-8117,17043,0.0
-4346,-8326,16991,0.0
-4351,-8551,16967,0.0
-4344,-8754,16899,0.0
-4344,-8970,16853,0.0
-4346,-9196,16820,0.0
-4342,-9408,16760,0.0
-4335,-9612,16687,0.0
-4332,-9832,16636,0.0
-4329,-10049,16579,0.0
-4327,-10271,16526,0.0
-4316,-10471,16437,0.0
-4324,-10720,16422,0.0
-4328,-10965,16395,0.0
-4321,-11179,16319,0.0
-4325,-11427,16289,0.0
-4319,-11651,16223,0.0
-4323,-11905,16192,0.0
-4311,-12115,16100,0.0
-4309,-12351,16040,0.0
-4312,-12611,16007,0.0
-4306,-12843,15935,0.0
-4302,-13086,15873,0.0
-4302,-13340,15821,0.0
-4295,-13580,15747,0.0
-4302,-13866,15723,0.0
-4298,-14122,15659,0.0
-4291,-14369,15584,0.0
-4285,-14618,15505,0.0
-4288,-14906,15466,0.0
-4277,-15147,15372,0.0
-21,-75,75,0.0
-23,-84,82,0.0
-24,-89,84,0.0
-25,-95,89,0.0
-24,-94,85,0.0
-25,-98,87,0.0
-24,-95,83,0.0
-24,-98,84,0.0
-22,-93,77,0.0
-21,-91,74,0.0
-19,-84,67,0.0
-23,-101,78,0.0
-20,-92,70,0.0
-22,-100,75,0.0
-25,-116,84,0.0
-22,-104,74,0.0
-25,-120,83,0.0
-23,-112,76,0.0
-25,-124,82,0.0
-24,-125,80,0.0
-24,-125,79,0.0
-26,-139,85,0.0
-26,-140,84,0.0
-25,-136,80,0.0
-30,-166,94,0.0
-28,-160,89,0.0
-28,-162,87,0.0
-26,-158,82,0.0
-29,-174,89,0.0
-29,-175,88,0.0
-28,-176,86,0.0
-31,-198,93,0.0
-32,-214,98,0.0
-34,-231,102,0.0
-33,-231,100,0.0
-36,-252,106,0.0
-34,-245,100,0.0
-35,-258,101,0.0
-39,-287,110,0.0
-44,-335,124,0.0
-43,-339,122,0.0
-43,-337,117,0.0
-42,-340,113,0.0
-41,-344,111,0.0
-41,-346,107,0.0
-39,-341,102,0.0
-39,-344,99,0.0
-765,13509,13028,0.0
-802,13421,13220,0.0
-838,13297,13380,0.0
-2381,35910,36915,0.0
-2124,30499,32029,0.0
-2190,29973,32159,0.0
-2205,28798,31567,0.0
-2322,28987,32467,0.0
-2360,28183,32255,0.0
-1050,12002,14036,0.0
-1083,11860,14175,0.0
-1111,11671,14258,0.0
0,0,0,0.0
0,0,0,0.0
-2567,23883,31178,0.0
-2560,22903,30573,0.0
-2607,22435,30632,0.0
-2642,21879,30558,0.0
-1615,12874,18396,0.0
-1652,12685,18550,0.0
-2773,20511,30700,0.0
-1689,12041,18450,0.0
-1825,12540,19676,0.0
-2807,18592,29882,0.0
-1860,11879,19563,0.0
-1996,12292,20746,0.0
-2018,11986,20737,0.0
-2036,11662,20692,0.0
-2930,16181,29451,0.0
-3017,16073,30021,0.0
-3082,15831,30358,0.0
-3393,16798,33083,0.0
-3410,16275,32935,0.0
-3433,15791,32851,0.0
-3461,15338,32818,0.0
-2847,12156,26764,0.0
-2989,12288,27858,0.0
-2940,11637,27179,0.0
-2954,11248,27084,0.0
-2968,10869,26996,0.0
-2989,10523,26983,0.0
-3029,10245,27141,0.0
-3063,9947,27247,0.0
-3025,9424,26720,0.0
-3040,9081,26669,0.0
-3017,8633,26291,0.0
-3064,8390,26526,0.0
-3317,8682,28530,0.0
-3701,9250,31636,0.0
-3709,8841,31512,0.0
-2243,5093,18943,0.0
-2244,4845,18843,0.0
-2256,4626,18843,0.0
-2262,4394,18783,0.0
-2270,4170,18750,0.0
-2279,3949,18718,0.0
-2285,3726,18675,0.0
-2290,3504,18621,0.0
-2295,3284,18571,0.0
-2298,3063,18499,0.0
-2301,2847,18448,0.0
-2308,2636,18410,0.0
-2312,2424,18367,0.0
-2315,2213,18311,0.0
-2320,2005,18269,0.0
-2323,1797,18218,0.0
-2324,1590,18146,0.0
-2330,1387,18122,0.0
-2335,1186,18087,0.0
-2335,983,18026,0.0
-2340,783,17992,0.0
-2339,584,17925,0.0
-2339,385,17858,0.0
-2339,188,17796,0.0
-2341,-6,17749,0.0
-2350,-201,17757,0.0
-2350,-395,17707,0.0
-2348,-587,17639,0.0
-2350,-778,17593,0.0
-2352,-970,17557,0.0
-2354,-1161,17516,0.0
-2356,-1352,17482,0.0
-2357,-1542,17437,0.0
-2354,-1728,17370,0.0
-2357,-1918,17344,0.0
-2351,-2100,17257,0.0
-2298,-2236,16822,0.0
-2413,-2539,17621,0.0
-2526,-2858,18398,0.0
-4681,-5667,34018,1.0
0,0,0,0.0
-4718,-6459,34130,1.0
-4739,-6865,34209,1.0
-4724,-7218,34028,1.0
0,0,0,0.0
-4733,-7985,33948,1.0
0,0,0,0.0
-4730,-8737,33803,1.0
-4742,-9141,33829,1.0
-4738,-9515,33736,1.0
-4718,-9858,33536,1.0
-4732,-10272,33578,1.0
0,0,0,0.0
0,0,0,0.0
-4701,-11366,33200,1.0
-4735,-11844,33397,1.0
-4723,-12210,33263,1.0
-4712,-12581,33146,1.0
-4715,-12987,33114,1.0
-4716,-13395,33080,1.0
-4696,-13743,32901,1.0
-4702,-14171,32906,1.0
-4681,-14523,32728,1.0
0,0,0,0.0
-4673,-15333,32607,1.0
-4669,-15746,32551,1.0
0,0,0,0.0
-4652,-16550,32383,1.0
-4660,-17016,32414,1.0
0,0,0,0.0
-4643,-17846,32257,1.0
-4634,-18267,32180,1.0
0,0,0,0.0
-4637,-19207,32175,1.0
-4599,-19519,31898,1.0
-4572,-19877,31699,1.0
-4562,-20322,31633,1.0
-4552,-20766,31560,1.0
0,0,0,0.0
-4447,-21267,30831,1.0
-4418,-21627,30631,1.0
-4365,-21871,30267,1.0
-4316,-22134,29937,1.0
-4262,-22367,29571,1.0
-4223,-22680,29314,1.0
-4177,-22959,29014,1.0
-4139,-23274,28761,1.0
-4095,-23565,28478,1.0
-4051,-23853,28193,1.0
-4007,-24141,27911,1.0
-3965,-24441,27642,1.0
-3918,-24720,27351,1.0
-3879,-25040,27105,1.0
-3833,-25326,26822,1.0
-3783,-25585,26511,1.0
-3743,-25909,26267,1.0
-3694,-26178,25967,1.0
-11,-80,77,0.0
-11,-81,76,0.0
-11,-83,76,0.0
-11,-89,81,0.0
-13,-100,89,0.0
-12,-94,82,0.0
-13,-108,92,0.0
-13,-112,93,0.0
-11,-98,79,0.0
-13,-117,94,0.0
-11,-105,82,0.0
-12,-108,83,0.0
-12,-116,86,0.0
-11,-114,83,0.0
-13,-140,100,0.0
-12,-133,92,0.0
-12,-136,92,0.0
-11,-129,86,0.0
-1745,-20148,13058,0.0
-13,-144,91,0.0
-12,-137,85,0.0
-12,-146,88,0.0
-14,-175,102,0.0
-12,-165,95,0.0
-12,-173,97,0.0
-12,-182,99,0.0
-13,-188,99,0.0
-13,-198,102,0.0
-13,-202,101,0.0
-13,-213,105,0.0
-13,-225,107,0.0
-13,-229,106,0.0
-13,-239,108,0.0
-13,-255,111,0.0
-12,-251,106,0.0
-12,-262,108,0.0
-12,-273,109,0.0
-12,-287,112,0.0
-13,-319,120,0.0
-13,-337,122,0.0
-12,-334,117,0.0
-12,-341,115,0.0
-11,-343,113,0.0
-10,-337,106,0.0
-9,-341,103,0.0
848,15181,14880,0.0
804,14788,14806,0.0
760,14384,14711,0.0
719,14031,14660,0.0
679,13645,14564,0.0
640,13287,14489,0.0
603,12947,14424,0.0
570,12707,14465,0.0
533,12292,14297,0.0
505,12135,14425,0.0
465,11643,14144,0.0
427,11147,13843,0.0
390,10652,13521,0.0
368,10573,13720,0.0
346,10496,13927,0.0
327,10464,14198,0.0
303,10303,14299,0.0
386,14012,19894,0.0
354,13810,20061,0.0
323,13622,20251,0.0
292,13408,20403,0.0
261,13194,20556,0.0
230,12992,20730,0.0
184,11748,19199,0.0
170,12544,21007,0.0
131,11542,19809,0.0
105,11532,20293,0.0
79,11496,20745,0.0
51,11290,20902,0.0
26,12717,24163,0.0
-4,12478,24345,0.0
-36,12228,24504,0.0
-88,15953,32850,0.0
-97,11758,24892,0.0
-130,11793,25682,0.0
-160,11492,25757,0.0
-189,11109,25640,0.0
-218,10865,25837,0.0
-249,10657,26130,0.0
-270,10079,25498,0.0
-299,9874,25793,0.0
-327,9599,25910,0.0
-358,9454,26389,0.0
-387,9205,26600,0.0
-397,8582,25696,0.0
-429,8427,26171,0.0
-529,9504,30648,0.0
-569,9369,31413,0.0
-597,9039,31547,0.0
-374,5199,18917,0.0
-387,4947,18795,0.0
-401,4724,18769,0.0
-413,4492,18705,0.0
-427,4274,18686,0.0
-439,4048,18625,0.0
-451,3835,18611,0.0
-463,3618,18576,0.0
-473,3399,18515,0.0
-483,3179,18443,0.0
-493,2969,18410,0.0
-503,2757,18364,0.0
-512,2547,18310,0.0
-521,2337,18249,0.0
-529,2131,18198,0.0
-538,1927,18156,0.0
-546,1723,18108,0.0
-553,1522,18056,0.0
-561,1323,18026,0.0
-567,1122,17970,0.0
-574,925,17931,0.0
-578,727,17859,0.0
-584,533,17816,0.0
-591,339,17796,0.0
-596,146,17747,0.0
-601,-46,17712,0.0
-606,-237,17662,0.0
-607,-426,17565,0.0
-614,-617,17574,0.0
-616,-805,17512,0.0
-618,-991,17435,0.0
-622,-1179,17403,0.0
-624,-1365,17366,0.0
-627,-1550,17313,0.0
-629,-1735,17280,0.0
-632,-1920,17239,0.0
-633,-2108,17220,0.0
-632,-2282,17105,0.0
-650,-2532,17530,0.0
-675,-2821,18137,0.0
-1280,-5712,34275,1.0
-1276,-6060,34077,1.0
0,0,0,0.0
-1270,-6766,33784,1.0
0,0,0,0.0
-1271,-7513,33703,1.0
-1268,-7876,33613,1.0
-1262,-8223,33452,1.0
-1262,-8611,33467,1.0
-1259,-8991,33437,1.0
-1257,-9376,33421,1.0
-1255,-9770,33428,1.0
0,0,0,0.0
0,0,0,0.0
0,0,0,0.0
0,0,0,0.0
0,0,0,0.0
0,0,0,0.0
-1216,-12519,33238,1.0
-1215,-12990,33389,1.0
-1200,-13330,33195,1.0
-1190,-13730,33147,1.0
-1181,-14159,33162,1.0
0,0,0,0.0
-1156,-14943,33001,1.0
-1136,-15262,32754,1.0
-1122,-15662,32685,1.0
-1108,-16062,32607,1.0
-1089,-16423,32451,1.0
-1069,-16755,32236,1.0
-1048,-17107,32061,1.0
-1031,-17509,31975,1.0
0,0,0,0.0
0,0,0,0.0
-960,-18488,31305,1.0
0,0,0,0.0
-931,-19553,31530,1.0
-908,-19965,31429,1.0
-887,-20453,31440,1.0
0,0,0,0.0
-837,-21242,31158,1.0
-809,-21615,30978,1.0
-783,-22077,30922,1.0
-749,-22293,30522,1.0
-715,-22547,30178,1.0
-682,-22842,29893,1.0
-649,-23139,29613,1.0
-615,-23428,29324,1.0
-581,-23696,29011,1.0
-546,-24006,28750,1.0
-511,-24311,28483,1.0
-475,-24603,28202,1.0
-439,-24915,27943,1.0
-401,-25202,27657,1.0
-363,-25490,27373,1.0
-325,-25767,27078,1.0
-286,-26080,26820,1.0
-247,-26367,26535,1.0
-207,-26664,26261,1.0
-166,-26964,25989,1.0
0,-67,63,0.0
0,-78,72,0.0
0,-66,59,0.0
0,-79,70,0.0
0,-80,69,0.0
0,-81,68,0.0
0,-85,71,0.0
0,-102,82,0.0
0,-96,76,0.0
0,-102,79,0.0
1,-116,88,0.0
0,-113,84,0.0
1,-113,82,0.0
0,-111,79,0.0
318,-19098,13210,0.0
352,-19435,13136,0.0
387,-19767,13052,0.0
424,-20121,12977,0.0
461,-20476,12896,0.0
3,-128,78,0.0
3,-156,93,0.0
3,-147,85,0.0
4,-168,95,0.0
4,-162,90,0.0
5,-176,94,0.0
5,-176,93,0.0
5,-184,95,0.0
6,-195,97,0.0
7,-194,95,0.0
7,-209,99,0.0
8,-232,107,0.0
9,-232,104,0.0
9,-227,100,0.0
10,-240,101,0.0
10,-239,98,0.0
11,-250,100,0.0
12,-276,106,0.0
15,-319,118,0.0
16,-328,118,0.0
17,-330,116,0.0
18,-336,113,0.0
19,-338,110,0.0
18,-333,104,0.0
1461,11052,10889,0.0
1584,12027,12104,0.0
1592,12114,12452,0.0
1501,11450,12024,0.0
1472,11259,12079,0.0
1433,10987,12043,0.0
1452,11156,12493,0.0
1455,11216,12833,0.0
1414,10915,12761,0.0
1390,10750,12844,0.0
1387,10748,13124,0.0
1387,10767,13441,0.0
1694,13164,16797,0.0
1375,10698,13957,0.0
1350,10511,14021,0.0
1341,10446,14251,0.0
1596,12436,17353,0.0
1578,12300,17558,0.0
1671,13028,19029,0.0
1437,11203,16746,0.0
1792,13958,21357,0.0
1288,10023,15702,0.0
1280,9950,15964,0.0
1506,11690,19211,0.0
1817,14069,23692,0.0
1560,12052,20801,0.0
1488,11463,20285,0.0
1482,11386,20667,0.0
1685,12895,24013,0.0
1765,13460,25725,0.0
1741,13218,25939,0.0
1714,12943,26089,0.0
1719,12908,26738,0.0
1551,11578,24659,0.0
1760,13051,28592,0.0
1544,11371,25640,0.0
1520,11107,25792,0.0
1479,10711,25629,0.0
1440,10330,25486,0.0
1407,9984,25417,0.0
1482,10410,27364,0.0
1464,10159,27597,0.0
1478,10124,28445,0.0
1542,10409,30274,0.0
1461,9717,29284,0.0
1501,9820,30702,0.0
1486,9551,31007,0.0
1481,9337,31520,0.0
1451,8964,31502,0.0
850,5135,18813,0.0
832,4909,18780,0.0
814,4680,18731,0.0
797,4457,18695,0.0
779,4229,18627,0.0
764,4006,18569,0.0
747,3785,18515,0.0
733,3571,18479,0.0
719,3357,18434,0.0
705,3144,18388,0.0
692,2936,18361,0.0
678,2723,18296,0.0
663,2506,18185,0.0
652,2304,18161,0.0
642,2103,18148,0.0
631,1899,18094,0.0
620,1695,18020,0.0
610,1499,18010,0.0
599,1298,17933,0.0
591,1101,17897,0.0
581,905,17833,0.0
574,712,17836,0.0
566,517,17779,0.0
558,325,17724,0.0
552,133,17703,0.0
545,-56,17664,0.0
538,-246,17608,0.0
533,-434,17545,0.0
528,-623,17523,0.0
522,-809,17457,0.0
517,-996,17424,0.0
513,-1181,17379,0.0
510,-1368,17356,0.0
505,-1549,17280,0.0
502,-1733,17226,0.0
498,-1915,17181,0.0
496,-2099,17143,0.0
495,-2283,17121,0.0
503,-2514,17417,0.0
521,-2806,18062,0.0
985,-5668,34057,1.0
980,-6001,33805,1.0
975,-6339,33605,1.0
0,0,0,0.0
974,-7038,33343,1.0
982,-7436,33438,1.0
995,-7875,33694,1.0
992,-8191,33416,1.0
994,-8539,33287,1.0
1010,-8999,33568,1.0
1010,-9303,33270,1.0
1015,-9657,33149,1.0
1031,-10116,33382,1.0
0,0,0,0.0
1041,-10781,32996,1.0
0,0,0,0.0
1064,-11543,32908,1.0
0,0,0,0.0
1096,-12392,33032,1.0
1111,-12795,33018,1.0
1121,-13136,32844,1.0
1139,-13554,32858,1.0
1154,-13930,32763,1.0
1175,-14373,32818,1.0
1182,-14643,32478,1.0
1196,-14989,32313,1.0
0,0,0,0.0
0,0,0,0.0
1255,-16163,32083,1.0
1282,-16632,32147,1.0
1301,-16982,31976,1.0
0,0,0,0.0
1340,-17679,31621,1.0
0,0,0,0.0
1389,-18471,31429,1.0
1414,-18845,31288,1.0
1437,-19190,31097,1.0
0,0,0,0.0
1504,-20137,31111,1.0
0,0,0,0.0
1570,-21025,30999,1.0
0,0,0,0.0
1628,-21777,30663,1.0
1651,-22049,30348,1.0
1698,-22634,30456,1.0
0,0,0,0.0
0,0,0,0.0
1792,-23692,29817,1.0
1820,-23977,29517,1.0
1844,-24202,29146,1.0
1869,-24430,28783,1.0
1902,-24744,28525,1.0
1934,-25051,28257,1.0
1965,-25327,27956,1.0
2000,-25651,27708,1.0
2034,-25934,27413,1.0
2068,-26224,27128,1.0
2105,-26527,26855,1.0
2143,-26839,26592,1.0
2179,-27136,26313,1.0
2218,-27426,26026,1.0
1462,-17968,16687,0.0
1471,-17947,16311,0.0
1474,-17857,15881,0.0
1476,-17765,15459,0.0
1481,-17696,15067,0.0
1484,-17598,14660,0.0
1505,-17717,14439,0.0
1502,-17552,13993,0.0
8,-99,77,0.0
8,-110,84,0.0
9,-113,85,0.0
1608,-18206,13273,0.0
1658,-18617,13268,0.0
1700,-18935,13189,0.0
1745,-19275,13120,0.0
1790,-19617,13047,0.0
1835,-19934,12950,0.0
1883,-20297,12878,0.0
1932,-20643,12789,0.0
13,-151,91,0.0
14,-157,92,0.0
14,-152,87,0.0
16,-180,101,0.0
17,-183,100,0.0
16,-177,94,0.0
19,-195,101,0.0
21,-212,106,0.0
21,-215,105,0.0
21,-221,105,0.0
23,-234,108,0.0
25,-247,111,0.0
25,-244,107,0.0
26,-250,107,0.0
27,-261,107,0.0
29,-275,111,0.0
31,-283,110,0.0
34,-315,119,0.0
35,-324,118,0.0
37,-338,119,0.0
39,-343,116,0.0
38,-344,113,0.0
38,-337,107,0.0
-3425,13744,12535,0.0
-3498,13712,12777,0.0
-3569,13666,13011,0.0
-3641,13616,13245,0.0
-3714,13566,13483,0.0
-3790,13521,13731,0.0
-3866,13470,13977,0.0
-3940,13407,14217,0.0
-4016,13349,14465,0.0
-4096,13297,14726,0.0
-4176,13237,14982,0.0
-4259,13183,15251,0.0
-4314,13040,15422,0.0
-4378,12918,15620,0.0
-4487,12924,15977,0.0
-4445,12497,15799,0.0
-4484,12304,15909,0.0
-4538,12149,16070,0.0
-4800,12537,16965,0.0
-4971,12667,17539,0.0
-5069,12599,17854,0.0
-5163,12511,18150,0.0
-5269,12447,18488,0.0
-5323,12258,18649,0.0
-5375,12063,18799,0.0
-5322,11634,18579,0.0
-5379,11449,18741,0.0
-6615,13711,23010,0.0
-6767,13650,23496,0.0
-6900,13543,23916,0.0
-6934,13235,23991,0.0
-6944,12885,23981,0.0
-6943,12520,23936,0.0
-6932,12143,23858,0.0
-6918,11766,23768,0.0
-6906,11399,23686,0.0
-6890,11029,23589,0.0
-6838,10610,23370,0.0
-6869,10326,23437,0.0
-9598,13969,32689,0.0
-9565,13467,32518,0.0
-9580,13039,32510,0.0
0,0,0,0.0
-8990,11409,30401,0.0
-8803,10772,29716,0.0
-8895,10485,29971,0.0
-8726,9899,29351,0.0
-8928,9736,29978,0.0
-9197,9629,30827,0.0
-9255,9291,30966,0.0
0,0,0,0.0
-9509,8738,31703,0.0
0,0,0,0.0
-9464,7906,31439,0.0
-6334,5029,21000,0.0
-6529,4916,21608,0.0
-6662,4746,22008,0.0
-6637,4461,21886,0.0
-6580,4160,21659,0.0
-6631,3929,21786,0.0
-6627,3665,21731,0.0
-6613,3399,21646,0.0
-6607,3138,21583,0.0
-6598,2879,21513,0.0
-6587,2621,21438,0.0
-6567,2363,21332,0.0
-6371,2050,20654,0.0
-6033,1713,19520,0.0
-6081,1499,19639,0.0
-6138,1284,19782,0.0
-6330,1088,20361,0.0
-6429,868,20637,0.0
-6131,602,19643,0.0
-6133,376,19609,0.0
-6180,153,19719,0.0
-6164,-70,19629,0.0
-6125,-291,19463,0.0
-6132,-513,19444,0.0
-6137,-735,19419,0.0
-6145,-956,19404,0.0
-6106,-1168,19241,0.0
-6142,-1394,19310,0.0
-6433,-1689,20182,0.0
-6436,-1919,20148,0.0
-6426,-2144,20074,0.0
-6421,-2369,20012,0.0
-6396,-2586,19889,0.0
-6400,-2812,19856,0.0
-6381,-3029,19752,0.0
-6378,-3251,19698,0.0
-6361,-3466,19598,0.0
-6145,-3564,18887,0.0
-6142,-3777,18836,0.0
-6140,-3991,18784,0.0
-5865,-4018,17902,0.0
-6293,-4532,19159,0.0
-6279,-4742,19071,0.0
-6257,-4944,18957,0.0
-6250,-5157,18887,0.0
-6242,-5369,18816,0.0
-6224,-5571,18710,0.0
-6231,-5799,18686,0.0
-6207,-5993,18562,0.0
-6236,-6241,18600,0.0
-6227,-6452,18524,0.0
-6233,-6679,18492,0.0
-6220,-6885,18402,0.0
-6220,-7104,18348,0.0
-6218,-7324,18290,0.0
-6224,-7553,18256,0.0
-6227,-7780,18214,0.0
-6219,-7994,18136,0.0
-6221,-8220,18090,0.0
-6217,-8440,18024,0.0
-6207,-8650,17938,0.0
-6192,-8854,17840,0.0
-6139,-9004,17633,0.0
-6138,-9227,17572,0.0
-6139,-9453,17517,0.0
-6146,-9693,17483,0.0
-6209,-10021,17600,0.0
-6217,-10267,17565,0.0
-6222,-10511,17521,0.0
-6207,-10718,17414,0.0
-6225,-10985,17403,0.0
-6228,-11228,17349,0.0
-6100,-11234,16934,0.0
-6137,-11537,16970,0.0
-6150,-11803,16946,0.0
-6156,-12053,16894,0.0
-6153,-12292,16824,0.0
-6112,-12452,16644,0.0
-6160,-12796,16707,0.0
-6188,-13103,16714,0.0
-6149,-13270,16539,0.0
-6173,-13575,16532,0.0
-6097,-13660,16259,0.0
-6168,-14075,16374,0.0
-6247,-14519,16512,0.0
-6323,-14965,16637,0.0
-6338,-15269,16596,0.0
-6275,-15391,16357,0.0
-6427,-16043,16670,0.0
-6442,-16362,16624,0.0
-6449,-16668,16559,0.0
-6248,-16430,15961,0.0
-6199,-16583,15753,0.0
-6015,-16368,15203,0.0
-6429,-17791,16159,0.0
-6426,-18085,16060,0.0
-6532,-18695,16233,0.0
-6569,-19120,16230,0.0
-6579,-19469,16157,0.0
-27,-83,68,0.0
-30,-95,76,0.0
-31,-99,77,0.0
-6625,-20934,15856,0.0
-33,-107,80,0.0
-33,-109,79,0.0
-29,-98,69,0.0
-32,-110,76,0.0
-35,-124,83,0.0
-6303,-21957,14442,0.0
-6550,-23191,14890,0.0
-6736,-24239,15188,0.0
-6760,-24719,15114,0.0
-6781,-25203,15031,0.0
-6794,-25662,14925,0.0
-6648,-25523,14471,0.0
-40,-157,87,0.0
-40,-164,88,0.0
-37,-154,81,0.0
-43,-182,92,0.0
-41,-177,88,0.0
-44,-191,92,0.0
-47,-208,97,0.0
-50,-224,102,0.0
-50,-229,102,0.0
-53,-242,104,0.0
-55,-258,108,0.0
-55,-264,107,0.0
-60,-288,113,0.0
-61,-303,115,0.0
-66,-329,120,0.0
-68,-346,123,0.0
-66,-341,117,0.0
-64,-336,111,0.0
-63,-333,106,0.0
-63,-344,106,0.0
-62,-340,101,0.0
-61,-343,97,0.0
-60,-346,94,0.0
124,-326,66,0.0
122,-316,66,0.0
117,-299,66,0.0
113,-288,68,0.0
114,-284,70,0.0
114,-284,72,0.0
110,-267,71,0.0
114,-276,77,0.0
110,-261,77,0.0
112,-263,80,0.0
108,-251,79,0.0
109,-249,82,0.0
112,-251,86,0.0
112,-249,88,0.0
114,-251,91,0.0
116,-251,95,0.0
116,-248,97,0.0
116,-244,99,0.0
121,-250,105,0.0
120,-245,105,0.0
120,-243,108,0.0
121,-241,110,0.0
125,-246,116,0.0
123,-239,116,0.0
125,-241,120,0.0
127,-240,123,0.0
130,-242,128,0.0
146,-268,146,0.0
150,-273,152,0.0
154,-276,159,0.0
148,-261,154,0.0
141,-245,149,0.0
132,-227,141,0.0
129,-219,140,0.0
133,-221,145,0.0
116,-190,128,0.0
3720,-5998,4129,0.0
3796,-6031,4257,0.0
4194,-6565,4750,0.0
4201,-6479,4805,0.0
4369,-6638,5044,0.0
4503,-6739,5249,0.0
4504,-6638,5299,0.0
4509,-6542,5350,0.0
4484,-6406,5367,0.0
3719,-5229,4489,0.0
3740,-5176,4552,0.0
3751,-5107,4602,0.0
3740,-5011,4626,0.0
3724,-4908,4642,0.0
3718,-4819,4669,0.0
3722,-4743,4708,0.0
3720,-4662,4740,0.0
3701,-4558,4748,0.0
3725,-4506,4811,0.0
3714,-4415,4831,0.0
4601,-5372,6022,0.0
4593,-5265,6051,0.0
4603,-5180,6102,0.0
4593,-5073,6126,0.0
4616,-5002,6194,0.0
4610,-4901,6223,0.0
4614,-4810,6265,0.0
4597,-4697,6276,0.0
4594,-4599,6308,0.0
4606,-4516,6358,0.0
4579,-4396,6354,0.0
3740,-3514,5217,0.0
3742,-3441,5247,0.0
3815,-3430,5376,0.0
4063,-3571,5753,0.0
4094,-3517,5826,0.0
4122,-3457,5893,0.0
4223,-3457,6064,0.0
4694,-3748,6772,0.0
5041,-3924,7305,0.0
12542,-9515,18252,0.0
12542,-9265,18330,0.0
12538,-9012,18400,0.0
12552,-8772,18497,0.0
12539,-8514,18552,0.0
12551,-8273,18642,0.0
12551,-8025,18715,0.0
12548,-7774,18779,0.0
12550,-7527,18852,0.0
12567,-7289,18947,0.0
12572,-7043,19020,0.0
12581,-6798,19102,0.0
12575,-6548,19157,0.0
12587,-6305,19241,0.0
12562,-6044,19265,0.0
12590,-5808,19370,0.0
12569,-5550,19400,0.0
12594,-5312,19498,0.0
12579,-5056,19533,0.0
12573,-4805,19583,0.0
12573,-4557,19639,0.0
12559,-4304,19672,0.0
12582,-4062,19764,0.0
12582,-3811,19817,0.0
12561,-3555,19836,0.0
11965,-3148,18945,0.0
11197,-2723,17774,0.0
10512,-2346,16729,0.0
10488,-2131,16731,0.0
10547,-1932,16865,0.0
10544,-1719,16901,0.0
10572,-1511,16984,0.0
10583,-1299,17041,0.0
10587,-1086,17083,0.0
10587,-871,17119,0.0
10621,-658,17211,0.0
10603,-441,17216,0.0
10628,-225,17291,0.0
10646,-8,17355,0.0
10662,210,17410,0.0
10594,427,17333,0.0
10665,650,17479,0.0
10693,874,17556,0.0
10707,1097,17609,0.0
10728,1324,17672,0.0
10735,1549,17711,0.0
10749,1778,17761,0.0
10780,2010,17839,0.0
10771,2237,17850,0.0
10795,2472,17914,0.0
10805,2706,17956,0.0
10856,2951,18063,0.0
10874,3192,18116,0.0
10894,3434,18169,0.0
10896,3672,18195,0.0
10928,3922,18268,0.0
10941,4167,18309,0.0
10950,4412,18343,0.0
30,13,51,0.0
19,8,32,0.0
28,13,49,0.0
24,12,42,0.0
33,16,57,0.0
39,21,67,0.0
35,19,59,0.0
44,26,76,0.0
42,25,72,0.0
40,25,69,0.0
45,29,77,0.0
46,31,78,0.0
52,35,87,0.0
53,38,90,0.0
55,41,94,0.0
58,45,99,0.0
58,46,99,0.0
60,49,101,0.0
60,52,103,0.0
60,53,102,0.0
61,55,105,0.0
65,60,111,0.0
63,60,107,0.0
59,58,101,0.0
64,65,111,0.0
67,70,115,0.0
62,66,104,0.0
62,67,105,0.0
63,71,108,0.0
66,76,113,0.0
66,78,113,0.0
67,81,113,0.0
67,83,114,0.0
69,86,116,0.0
67,87,114,0.0
67,89,114,0.0
70,95,119,0.0
70,96,118,0.0
71,101,120,0.0
66,95,110,0.0
72,105,120,0.0
70,106,117,0.0
73,112,122,0.0
74,117,125,0.0
73,117,122,0.0
73,121,123,0.0
75,125,124,0.0
71,123,119,0.0
72,126,120,0.0
74,131,123,0.0
75,134,122,0.0
75,137,123,0.0
73,138,120,0.0
76,146,124,0.0
74,144,120,0.0
79,158,128,0.0
76,155,124,0.0
80,165,128,0.0
120,-327,67,0.0
116,-310,67,0.0
117,-308,70,0.0
115,-298,71,0.0
112,-287,71,0.0
114,-288,75,0.0
109,-272,74,0.0
112,-276,79,0.0
108,-264,79,0.0
112,-270,83,0.0
111,-263,84,0.0
110,-256,85,0.0
110,-253,87,0.0
111,-253,91,0.0
113,-255,94,0.0
113,-251,96,0.0
116,-253,100,0.0
116,-249,102,0.0
115,-245,103,0.0
119,-250,108,0.0
119,-246,110,0.0
121,-247,115,0.0
122,-246,117,0.0
122,-243,120,0.0
124,-245,124,0.0
126,-245,127,0.0
130,-248,133,0.0
144,-271,149,0.0
149,-277,156,0.0
150,-274,159,0.0
147,-264,157,0.0
140,-249,151,0.0
138,-241,151,0.0
135,-233,150,0.0
123,-211,139,0.0
113,-191,129,0.0
3674,-6053,4197,0.0
3748,-6086,4326,0.0
4119,-6588,4801,0.0
4118,-6489,4846,0.0
4198,-6516,4987,0.0
4414,-6748,5293,0.0
4423,-6658,5351,0.0
4418,-6549,5392,0.0
4405,-6429,5422,0.0
4416,-6343,5481,0.0
3663,-5178,4583,0.0
3667,-5102,4625,0.0
3672,-5024,4667,0.0
3736,-5029,4784,0.0
4438,-5876,5725,0.0
4454,-5797,5787,0.0
4478,-5730,5860,0.0
4482,-5637,5906,0.0
3665,-4529,4861,0.0
3725,-4522,4974,0.0
4476,-5338,6017,0.0
4496,-5265,6083,0.0
4520,-5197,6153,0.0
4517,-5096,6186,0.0
4520,-5003,6227,0.0
4548,-4938,6301,0.0
4537,-4831,6323,0.0
4528,-4725,6345,0.0
4542,-4645,6400,0.0
4512,-4520,6392,0.0
4493,-4407,6398,0.0
3683,-3536,5272,0.0
3711,-3486,5339,0.0
3719,-3415,5375,0.0
3801,-3413,5521,0.0
4004,-3513,5844,0.0
4044,-3465,5931,0.0
4129,-3454,6081,0.0
4576,-3734,6771,0.0
4939,-3929,7339,0.0
16944,-13134,25283,0.0
16943,-12790,25389,0.0
17078,-12544,25697,0.0
17867,-12761,26993,0.0
17868,-12400,27101,0.0
17896,-12058,27249,0.0
16976,-11094,25948,0.0
16989,-10760,26065,0.0
17000,-10424,26177,0.0
15830,-9387,24464,0.0
15270,-8747,23681,0.0
15297,-8455,23805,0.0
15272,-8134,23848,0.0
15283,-7831,23943,0.0
15510,-7635,24378,0.0
15918,-7515,25099,0.0
17006,-7686,26898,0.0
17022,-7351,27007,0.0
17022,-7007,27088,0.0
16998,-6655,27129,0.0
12538,-4655,20070,0.0
12568,-4414,20174,0.0
12537,-4148,20178,0.0
12568,-3905,20285,0.0
12578,-3653,20354,0.0
11792,-3185,19133,0.0
10906,-2724,17740,0.0
10288,-2360,16775,0.0
10291,-2152,16823,0.0
10297,-1942,16871,0.0
10308,-1734,16931,0.0
10311,-1522,16973,0.0
10327,-1313,17037,0.0
10335,-1101,17088,0.0
10348,-889,17146,0.0
10372,-676,17221,0.0
10358,-460,17233,0.0
10385,-245,17312,0.0
10379,-29,17335,0.0
10380,187,17371,0.0
10416,407,17461,0.0
10413,625,17487,0.0
10437,848,17559,0.0
10461,1071,17629,0.0
10477,1296,17686,0.0
10472,1519,17704,0.0
10492,1747,17766,0.0
10506,1975,17816,0.0
10527,2207,17880,0.0
10546,2440,17938,0.0
10557,2673,17979,0.0
10570,2907,18025,0.0
10589,3146,18080,0.0
10617,3389,18149,0.0
10639,3633,18210,0.0
10660,3877,18265,0.0
10677,4123,18315,0.0
25,9,42,0.0
10720,4625,18425,0.0
34,15,60,0.0
39,18,68,0.0
39,20,69,0.0
34,18,61,0.0
38,20,67,0.0
48,28,85,0.0
39,22,68,0.0
42,26,74,0.0
46,29,80,0.0
44,29,78,0.0
51,36,91,0.0
49,35,86,0.0
51,37,88,0.0
53,41,94,0.0
58,46,102,0.0
61,49,107,0.0
58,48,102,0.0
64,55,111,0.0
64,57,111,0.0
71,66,125,0.0
60,57,106,0.0
62,60,108,0.0
69,69,121,0.0
72,73,124,0.0
63,67,111,0.0
63,69,112,0.0
63,69,110,0.0
64,73,112,0.0
64,75,112,0.0
64,76,110,0.0
64,77,110,0.0
65,81,113,0.0
63,82,111,0.0
66,87,116,0.0
67,90,116,0.0
66,91,115,0.0
67,95,118,0.0
68,98,118,0.0
68,99,117,0.0
71,107,123,0.0
70,108,121,0.0
69,107,119,0.0
70,112,120,0.0
70,116,121,0.0
70,116,119,0.0
72,124,123,0.0
72,125,123,0.0
69,122,117,0.0
72,129,122,0.0
73,134,123,0.0
73,137,123,0.0
74,142,124,0.0
72,141,121,0.0
75,150,125,0.0
74,152,125,0.0
74,154,124,0.0
74,157,124,0.0
118,-325,68,0.0
111,-302,66,0.0
113,-306,71,0.0
112,-300,73,0.0
110,-289,74,0.0
110,-283,75,0.0
108,-276,76,0.0
108,-273,79,0.0
107,-267,80,0.0
108,-266,83,0.0
108,-262,85,0.0
110,-265,89,0.0
111,-263,92,0.0
111,-259,94,0.0
112,-256,96,0.0
115,-260,101,0.0
116,-258,103,0.0
118,-260,108,0.0
115,-252,107,0.0
116,-250,110,0.0
116,-248,112,0.0
122,-255,119,0.0
122,-250,120,0.0
120,-244,121,0.0
123,-245,125,0.0
124,-244,129,0.0
134,-260,140,0.0
143,-275,152,0.0
146,-277,158,0.0
142,-266,156,0.0
143,-265,159,0.0
136,-246,151,0.0
130,-234,147,0.0
125,-221,143,0.0
113,-196,130,0.0
112,-191,131,0.0
109,-185,129,0.0
3685,-6115,4379,0.0
4008,-6553,4810,0.0
4045,-6514,4899,0.0
4085,-6481,4994,0.0
4324,-6756,5334,0.0
4357,-6704,5423,0.0
4356,-6599,5469,0.0
4349,-6484,5504,0.0
4338,-6367,5536,0.0
4337,-6266,5580,0.0
3621,-5147,4695,0.0
3641,-5091,4756,0.0
3720,-5117,4897,0.0
3753,-5076,4976,0.0
4371,-5814,5837,0.0
4394,-5746,5909,0.0
4408,-5665,5968,0.0
3629,-4583,4947,0.0
3683,-4569,5052,0.0
4430,-5398,6116,0.0
4434,-5305,6158,0.0
4447,-5223,6215,0.0
4482,-5168,6303,0.0
4465,-5049,6313,0.0
4461,-4950,6347,0.0
4481,-4874,6410,0.0
4469,-4765,6428,0.0
4470,-4671,6465,0.0
4440,-4545,6456,0.0
4436,-4445,6482,0.0
4401,-4318,6464,0.0
3658,-3511,5400,0.0
3672,-3448,5447,0.0
3702,-3398,5518,0.0
3913,-3509,5860,0.0
3975,-3481,5980,0.0
4047,-3459,6116,0.0
4492,-3746,6817,0.0
4795,-3899,7308,0.0
16965,-13443,25966,0.0
16949,-13078,26048,0.0
16949,-12727,26156,0.0
17857,-13039,27668,0.0
17894,-12696,27831,0.0
17906,-12336,27959,0.0
17318,-11574,27143,0.0
16998,-11009,26740,0.0
16985,-10652,26817,0.0
16045,-9732,25422,0.0
15290,-8959,24310,0.0
15279,-8639,24378,0.0
15275,-8323,24452,0.0
15277,-8011,24537,0.0
15467,-7793,24922,0.0
15940,-7703,25765,0.0
17019,-7875,27594,0.0
17016,-7525,27674,0.0
17010,-7172,27746,0.0
17067,-6845,27921,0.0
17642,-6713,28944,0.0
17934,-6456,29507,0.0
17954,-6093,29621,0.0
17945,-5720,29687,0.0
17694,-5274,29347,0.0
17191,-4768,28587,0.0
10662,-2736,17776,0.0
10053,-2372,16803,0.0
10047,-2161,16832,0.0
10053,-1953,16883,0.0
10079,-1748,16966,0.0
10066,-1536,16984,0.0
10075,-1327,17036,0.0
10081,-1116,17083,0.0
10083,-904,17124,0.0
10097,-692,17182,0.0
10105,-478,17231,0.0
10116,-264,17285,0.0
10142,-50,17363,0.0
10159,166,17425,0.0
10142,383,17429,0.0
10158,601,17486,0.0
10194,823,17579,0.0
10191,1043,17604,0.0
10198,1265,17644,0.0
10233,1492,17735,0.0
10241,1718,17776,0.0
10254,1944,17826,0.0
10265,2173,17871,0.0
10274,2402,17913,0.0
10300,2637,17982,0.0
10321,2873,18044,0.0
10315,3103,18056,0.0
10371,3354,18177,0.0
10379,3591,18214,0.0
10394,3833,18259,0.0
10412,4078,18312,0.0
10447,4333,18394,0.0
10438,4571,18397,0.0
36,16,64,0.0
35,16,62,0.0
31,16,56,0.0
33,17,60,0.0
40,22,71,0.0
43,24,77,0.0
40,24,73,0.0
45,28,80,0.0
43,27,77,0.0
50,34,91,0.0
50,35,90,0.0
52,38,93,0.0
63,47,113,0.0
55,43,100,0.0
57,46,103,0.0
61,50,109,0.0
60,51,109,0.0
57,51,102,0.0
65,60,117,0.0
64,60,115,0.0
64,62,115,0.0
66,65,119,0.0
65,66,118,0.0
67,70,121,0.0
61,66,109,0.0
61,67,110,0.0
62,71,112,0.0
62,72,112,0.0
63,75,113,0.0
63,76,112,0.0
60,74,107,0.0
61,78,110,0.0
64,84,114,0.0
64,87,115,0.0
64,87,114,0.0
65,91,116,0.0
63,92,114,0.0
65,95,115,0.0
64,97,114,0.0
69,106,124,0.0
69,109,122,0.0
67,107,118,0.0
67,109,118,0.0
67,112,118,0.0
70,120,123,0.0
69,120,121,0.0
70,125,123,0.0
70,128,124,0.0
70,129,122,0.0
72,136,126,0.0
71,136,123,0.0
72,142,125,0.0
72,144,125,0.0
71,144,122,0.0
72,151,125,0.0
72,154,125,0.0
75,162,129,0.0
116,-330,70,0.0
110,-309,69,0.0
108,-299,70,0.0
108,-295,73,0.0
106,-285,73,0.0
103,-275,74,0.0
103,-269,76,0.0
105,-272,80,0.0
102,-261,80,0.0
103,-261,83,0.0
106,-263,87,0.0
109,-267,92,0.0
106,-257,91,0.0
107,-256,93,0.0
114,-267,101,0.0
111,-257,101,0.0
113,-259,105,0.0
111,-251,105,0.0
116,-260,111,0.0
116,-256,114,0.0
116,-251,115,0.0
117,-252,119,0.0
119,-251,122,0.0
118,-247,123,0.0
120,-246,126,0.0
123,-249,132,0.0
133,-266,145,0.0
139,-273,153,0.0
146,-283,162,0.0
145,-277,163,0.0
140,-264,159,0.0
134,-248,154,0.0
124,-227,145,0.0
117,-212,138,0.0
114,-203,136,0.0
114,-200,137,0.0
3575,-6159,4333,0.0
3624,-6151,4435,0.0
3904,-6529,4824,0.0
3954,-6512,4931,0.0
3966,-6433,4990,0.0
4090,-6534,5192,0.0
4293,-6753,5498,0.0
4290,-6645,5541,0.0
4280,-6526,5574,0.0
4272,-6411,5607,0.0
4275,-6314,5656,0.0
4281,-6220,5708,0.0
3572,-5107,4798,0.0
3596,-5056,4867,0.0
3660,-5061,4989,0.0
3698,-5028,5076,0.0
4135,-5526,5714,0.0
3610,-4742,5022,0.0
3588,-4632,5025,0.0
4346,-5510,6124,0.0
4354,-5424,6176,0.0
4358,-5329,6218,0.0
4382,-5261,6291,0.0
4410,-5196,6368,0.0
4382,-5066,6365,0.0
4393,-4981,6417,0.0
4390,-4881,6448,0.0
4411,-4808,6514,0.0
4394,-4693,6524,0.0
4391,-4594,6553,0.0
4344,-4450,6516,0.0
4296,-4308,6477,0.0
3609,-3540,5468,0.0
3609,-3463,5495,0.0
3619,-3396,5537,0.0
3713,-3403,5706,0.0
3889,-3482,6004,0.0
3955,-3457,6133,0.0
4373,-3728,6809,0.0
4678,-3889,7315,0.0
16949,-13732,26614,0.0
16994,-13408,26795,0.0
16988,-13045,26894,0.0
17564,-13116,27916,0.0
17921,-13005,28594,0.0
17914,-12622,28690,0.0
17833,-12191,28670,0.0
16997,-11262,27425,0.0
17041,-10933,27594,0.0
17050,-10581,27706,0.0
15388,-9228,25093,0.0
15279,-8842,25000,0.0
15317,-8543,25145,0.0
15307,-8216,25211,0.0
15428,-7959,25491,0.0
15873,-7856,26309,0.0
17021,-8067,28298,0.0
17032,-7715,28403,0.0
17046,-7364,28511,0.0
17039,-7004,28580,0.0
17630,-6877,29658,0.0
17933,-6620,30251,0.0
17963,-6253,30385,0.0
17919,-5861,30393,0.0
17610,-5388,29946,0.0
17100,-4871,29155,0.0
10383,-2738,17747,0.0
9803,-2378,16798,0.0
9803,-2171,16838,0.0
9816,-1966,16901,0.0
9808,-1755,16926,0.0
9812,-1547,16971,0.0
9835,-1340,17050,0.0
9826,-1128,17071,0.0
9840,-919,17132,0.0
9841,-708,17170,0.0
9867,-497,17250,0.0
9865,-283,17282,0.0
9872,-70,17327,0.0
9875,144,17365,0.0
9888,360,17422,0.0
9892,577,17459,0.0
9930,797,17557,0.0
9948,1018,17621,0.0
9965,1241,17677,0.0
9976,1463,17726,0.0
9973,1685,17751,0.0
9996,1913,17817,0.0
10002,2138,17855,0.0
10034,2373,17939,0.0
10040,2601,17975,0.0
10044,2832,18007,0.0
10086,3074,18106,0.0
10071,3301,18103,0.0
10107,3546,18189,0.0
10147,3796,18282,0.0
10158,4039,18325,0.0
10182,4287,18388,0.0
33,15,60,0.0
30,14,56,0.0
32,16,60,0.0
28,14,52,0.0
32,17,58,0.0
35,19,64,0.0
37,21,67,0.0
39,24,73,0.0
46,29,84,0.0
35,24,66,0.0
54,37,99,0.0
53,37,97,0.0
54,40,100,0.0
53,40,98,0.0
51,40,94,0.0
56,46,103,0.0
59,50,109,0.0
61,53,113,0.0
62,56,116,0.0
61,57,112,0.0
65,62,120,0.0
61,60,114,0.0
68,68,124,0.0
66,69,122,0.0
67,72,123,0.0
64,70,118,0.0
61,69,112,0.0
58,67,107,0.0
63,74,115,0.0
60,73,111,0.0
58,73,108,0.0
62,80,114,0.0
60,78,110,0.0
61,81,112,0.0
61,83,112,0.0
62,87,114,0.0
61,88,112,0.0
65,94,118,0.0
61,92,111,0.0
62,95,114,0.0
62,97,114,0.0
67,107,122,0.0
65,106,119,0.0
65,109,118,0.0
66,112,120,0.0
66,115,120,0.0
67,120,122,0.0
68,125,124,0.0
67,124,121,0.0
66,126,119,0.0
69,133,124,0.0
69,138,125,0.0
68,137,122,0.0
68,139,122,0.0
70,147,125,0.0
72,156,131,0.0
70,154,126,0.0
69,154,122,0.0
101,-296,64,0.0
102,-296,68,0.0
103,-294,70,0.0
103,-288,73,0.0
102,-283,75,0.0
98,-267,73,0.0
100,-269,76,0.0
98,-260,77,0.0
103,-269,83,0.0
102,-263,85,0.0
99,-252,84,0.0
101,-255,88,0.0
98,-244,88,0.0
103,-253,93,0.0
104,-252,97,0.0
108,-259,103,0.0
105,-246,101,0.0
107,-247,104,0.0
110,-251,110,0.0
112,-252,113,0.0
110,-244,113,0.0
115,-253,121,0.0
115,-249,121,0.0
113,-240,122,0.0
116,-243,126,0.0
122,-253,135,0.0
128,-262,144,0.0
135,-272,153,0.0
132,-261,151,0.0
134,-264,156,0.0
132,-256,155,0.0
122,-232,144,0.0
114,-214,137,0.0
114,-212,139,0.0
100,-181,123,0.0
104,-187,130,0.0
3522,-6208,4398,0.0
3561,-6183,4489,0.0
3694,-6319,4700,0.0
3828,-6450,4915,0.0
3873,-6427,5018,0.0
3954,-6461,5169,0.0
4214,-6780,5555,0.0
4222,-6688,5612,0.0
4222,-6584,5658,0.0
4210,-6461,5686,0.0
4185,-6322,5697,0.0
4207,-6254,5771,0.0
4228,-6181,5841,0.0
3525,-5070,4906,0.0
3533,-4998,4953,0.0
3611,-5021,5096,0.0
3652,-4991,5188,0.0
3553,-4773,5081,0.0
3625,-4785,5218,0.0
4170,-5408,6041,0.0
4273,-5442,6228,0.0
4286,-5362,6286,0.0
4305,-5285,6350,0.0
4330,-5217,6425,0.0
3652,-4318,5450,0.0
3646,-4228,5472,0.0
3650,-4150,5508,0.0
3653,-4073,5542,0.0
3633,-3968,5539,0.0
3665,-3922,5617,0.0
3690,-3866,5684,0.0
3693,-3788,5718,0.0
3612,-3624,5619,0.0
3558,-3493,5562,0.0
3552,-3408,5578,0.0
3613,-3387,5699,0.0
3774,-3456,5980,0.0
3866,-3456,6152,0.0
4291,-3742,6859,0.0
4562,-3879,7322,0.0
16969,-14064,27347,0.0
17013,-13732,27529,0.0
16986,-13344,27596,0.0
17050,-13026,27807,0.0
17924,-13308,29345,0.0
17924,-12923,29457,0.0
17950,-12556,29608,0.0
17026,-11545,28186,0.0
17023,-11179,28281,0.0
17034,-10820,28397,0.0
15552,-9547,26017,0.0
15310,-9069,25697,0.0
15306,-8741,25775,0.0
15317,-8419,25877,0.0
15349,-8109,26013,0.0
15819,-8019,26895,0.0
16987,-8248,28968,0.0
17083,-7930,29222,0.0
17073,-7560,29291,0.0
17064,-7191,29359,0.0
17698,-7079,30535,0.0
17991,-6811,31126,0.0
17990,-6425,31209,0.0
17959,-6029,31242,0.0
17629,-5540,30747,0.0
17099,-5005,29899,0.0
10155,-2754,17801,0.0
9555,-2385,16790,0.0
9536,-2174,16800,0.0
9577,-1976,16912,0.0
9561,-1765,16923,0.0
9581,-1561,16997,0.0
9582,-1352,17036,0.0
9554,-1140,17024,0.0
9588,-934,17121,0.0
9608,-724,17193,0.0
9618,-514,17246,0.0
9627,-302,17297,0.0
9624,-89,17326,0.0
9635,124,17377,0.0
9656,339,17447,0.0
9650,554,17468,0.0
9684,773,17561,0.0
9689,992,17601,0.0
9691,1211,17635,0.0
9722,1435,17722,0.0
9743,1660,17786,0.0
9750,1884,17827,0.0
9749,2107,17852,0.0
9783,2340,17941,0.0
9805,2572,18006,0.0
9816,2803,18053,0.0
9816,3033,18079,0.0
9850,3275,18164,0.0
9863,3513,18212,0.0
9864,3747,18237,0.0
9896,3994,18316,0.0
9924,4244,18388,0.0
9934,4487,18427,0.0
23,11,44,0.0
32,16,61,0.0
27,14,51,0.0
40,21,74,0.0
34,19,63,0.0
42,24,78,0.0
38,23,73,0.0
36,23,69,0.0
40,26,75,0.0
41,28,78,0.0
49,36,91,0.0
45,34,85,0.0
49,37,92,0.0
52,42,99,0.0
58,49,111,0.0
54,46,102,0.0
50,44,94,0.0
53,49,101,0.0
58,54,110,0.0
62,60,118,0.0
62,62,117,0.0
61,62,115,0.0
64,68,121,0.0
60,66,115,0.0
60,67,114,0.0
58,66,110,0.0
59,70,113,0.0
56,67,106,0.0
56,70,107,0.0
55,70,104,0.0
57,75,108,0.0
56,75,107,0.0
56,77,107,0.0
59,83,112,0.0
56,81,108,0.0
59,87,113,0.0
61,90,114,0.0
57,87,108,0.0
62,97,116,0.0
60,95,112,0.0
62,102,116,0.0
60,101,112,0.0
61,106,116,0.0
62,109,117,0.0
63,113,118,0.0
63,116,119,0.0
61,114,114,0.0
61,117,116,0.0
62,121,116,0.0
64,126,119,0.0
67,134,123,0.0
65,133,119,0.0
65,136,120,0.0
67,144,124,0.0
67,147,124,0.0
64,143,119,0.0
68,154,124,0.0
102,-308,68,0.0
102,-303,70,0.0
100,-292,71,0.0
99,-284,73,0.0
96,-275,73,0.0
95,-265,74,0.0
95,-263,76,0.0
98,-268,80,0.0
97,-261,82,0.0
94,-250,81,0.0
99,-259,88,0.0
99,-256,89,0.0
100,-257,93,0.0
101,-253,95,0.0
105,-259,101,0.0
105,-256,102,0.0
106,-253,105,0.0
104,-248,105,0.0
108,-254,112,0.0
108,-250,112,0.0
107,-245,114,0.0
111,-249,119,0.0
116,-257,127,0.0
116,-253,129,0.0
115,-248,130,0.0
120,-256,137,0.0
131,-274,152,0.0
135,-278,158,0.0
135,-273,159,0.0
130,-260,155,0.0
126,-248,152,0.0
118,-229,144,0.0
114,-219,141,0.0
108,-205,135,0.0
106,-196,134,0.0
10201,-18681,12999,0.0
3463,-6248,4456,0.0
3488,-6202,4533,0.0
3601,-6305,4721,0.0
3768,-6498,4984,0.0
3783,-6427,5049,0.0
3829,-6404,5153,0.0
4111,-6772,5581,0.0
4156,-6738,5687,0.0
4169,-6654,5751,0.0
4135,-6496,5749,0.0
4122,-6372,5775,0.0
4137,-6292,5838,0.0
4149,-6208,5899,0.0
3521,-5181,5041,0.0
3477,-5031,5013,0.0
3482,-4955,5055,0.0
3476,-4862,5080,0.0
3469,-4769,5103,0.0
3573,-4827,5289,0.0
3568,-4735,5315,0.0
3583,-4669,5369,0.0
3608,-4617,5439,0.0
3606,-4529,5467,0.0
3569,-4399,5442,0.0
3519,-4256,5397,0.0
3519,-4174,5426,0.0
3527,-4104,5470,0.0
3510,-4003,5470,0.0
3516,-3930,5509,0.0
3507,-3839,5523,0.0
3512,-3765,5558,0.0
3498,-3670,5562,0.0
3501,-3594,5593,0.0
3513,-3527,5638,0.0
3518,-3454,5673,0.0
3540,-3396,5734,0.0
3670,-3439,5971,0.0
3775,-3453,6169,0.0
4149,-3702,6808,0.0
4402,-3831,7254,0.0
17000,-14419,28126,0.0
17019,-14058,28271,0.0
17037,-13698,28412,0.0
17030,-13318,28512,0.0
17815,-13539,29937,0.0
17927,-13230,30237,0.0
17962,-12863,30409,0.0
17106,-11875,29064,0.0
17055,-11467,29079,0.0
17050,-11091,29172,0.0
0,0,0,0.0
15293,-9279,26342,0.0
15317,-8960,26469,0.0
15320,-8627,26560,0.0
15386,-8329,26759,0.0
15801,-8209,27565,0.0
16981,-8451,29714,0.0
17081,-8128,29979,0.0
17073,-7751,30052,0.0
17062,-7374,30119,0.0
17679,-7254,31296,0.0
18011,-6997,31970,0.0
18007,-6602,32052,0.0
18007,-6206,32136,0.0
17553,-5666,31408,0.0
17104,-5145,30684,0.0
9880,-2755,17770,0.0
9347,-2401,16852,0.0
9322,-2188,16848,0.0
9324,-1982,16891,0.0
9329,-1777,16940,0.0
9340,-1572,16999,0.0
9355,-1367,17064,0.0
9346,-1157,17086,0.0
9353,-949,17135,0.0
9376,-742,17214,0.0
9363,-530,17224,0.0
9388,-320,17305,0.0
9391,-108,17344,0.0
9394,104,17382,0.0
9400,317,17427,0.0
9421,533,17497,0.0
9426,749,17538,0.0
9448,967,17609,0.0
9455,1186,17653,0.0
9471,1408,17712,0.0
9484,1629,17766,0.0
9478,1850,17783,0.0
9526,2082,17899,0.0
9513,2304,17903,0.0
9562,2541,18022,0.0
9559,2767,18042,0.0
9566,2999,18081,0.0
9602,3239,18173,0.0
9603,3471,18199,0.0
9624,3712,18260,0.0
9621,3945,18278,0.0
9665,4200,18382,0.0
9675,4443,18422,0.0
25,11,48,0.0
22,10,42,0.0
27,14,52,0.0
25,13,49,0.0
33,19,65,0.0
37,22,72,0.0
35,22,68,0.0
39,26,76,0.0
50,33,96,0.0
33,23,63,0.0
45,33,88,0.0
46,36,90,0.0
51,40,99,0.0
49,40,95,0.0
47,40,92,0.0
51,45,100,0.0
51,45,98,0.0
58,54,113,0.0
60,58,116,0.0
56,55,109,0.0
60,62,119,0.0
56,59,107,0.0
60,65,118,0.0
57,64,111,0.0
60,69,117,0.0
58,68,113,0.0
56,67,109,0.0
