//X,Y,Z,Classification
-67.0,-165.0,86.0,0.0
-67.0,-168.0,85.0,0.0
-72.0,-185.0,91.0,0.0
-70.0,-182.0,88.0,0.0
-69.0,-182.0,84.0,0.0
-71.0,-186.0,84.0,0.0
-74.0,-199.0,87.0,0.0
-79.0,-216.0,92.0,0.0
-79.0,-219.0,91.0,0.0
-82.0,-227.0,91.0,0.0
-88.0,-251.0,97.0,0.0
-95.0,-271.0,102.0,0.0
-110.0,-319.0,116.0,0.0
-111.0,-326.0,115.0,0.0
-109.0,-325.0,110.0,0.0
-106.0,-322.0,105.0,0.0
-102.0,-315.0,99.0,0.0
-102.0,-321.0,97.0,0.0
-100.0,-318.0,92.0,0.0
-99.0,-320.0,89.0,0.0
-96.0,-313.0,84.0,0.0
-96.0,-318.0,81.0,0.0
-95.0,-320.0,78.0,0.0
-95.0,-323.0,75.0,0.0
-17547.0,45495.0,38836.0,0.0
0.0,0.0,0.0,0.0
-17370.0,43256.0,38563.0,0.0
0.0,0.0,0.0,0.0
0.0,0.0,0.0,0.0
-17009.0,39842.0,37913.0,0.0
-14645.0,33607.0,32684.0,0.0
-14697.0,33037.0,32838.0,0.0
-14499.0,31921.0,32430.0,0.0
-14562.0,31397.0,32603.0,0.0
-14698.0,31031.0,32939.0,0.0
-14266.0,29488.0,31998.0,0.0
-14295.0,28924.0,32088.0,0.0
-14402.0,28523.0,32354.0,0.0
0.0,0.0,0.0,0.0
-14977.0,28402.0,33691.0,0.0
-13862.0,25716.0,31199.0,0.0
-13920.0,25257.0,31345.0,0.0
-13794.0,24475.0,31078.0,0.0
-13827.0,23987.0,31166.0,0.0
-13921.0,23604.0,31387.0,0.0
-14056.0,23292.0,31703.0,0.0
0.0,0.0,0.0,0.0
0.0,0.0,0.0,0.0
0.0,0.0,0.0,0.0
-13296.0,20036.0,30009.0,0.0
-13467.0,19805.0,30399.0,0.0
-13574.0,19473.0,30642.0,0.0
-13709.0,19177.0,30944.0,0.0
-13729.0,18721.0,30987.0,0.0
-14995.0,19923.0,33841.0,0.0
0.0,0.0,0.0,0.0
-14904.0,18779.0,33625.0,0.0
-14845.0,18202.0,33484.0,0.0
-14816.0,17671.0,33409.0,0.0
-14786.0,17144.0,33331.0,0.0
-14728.0,16592.0,33190.0,0.0
-14674.0,16053.0,33053.0,0.0
-14669.0,15574.0,33029.0,0.0
-14594.0,15028.0,32844.0,0.0
-14557.0,14528.0,32744.0,0.0
-14479.0,13995.0,32552.0,0.0
-14440.0,13506.0,32442.0,0.0
-14447.0,13066.0,32439.0,0.0
-14422.0,12601.0,32362.0,0.0
-14397.0,12141.0,32283.0,0.0
0.0,0.0,0.0,0.0
-14364.0,11249.0,32162.0,0.0
-14302.0,10774.0,31996.0,0.0
-14299.0,10350.0,31962.0,0.0
-14206.0,9866.0,31728.0,0.0
-14131.0,9403.0,31532.0,0.0
-14228.0,9055.0,31718.0,0.0
-14596.0,8870.0,32505.0,0.0
-15050.0,8717.0,33483.0,0.0
-15435.0,8502.0,34303.0,0.0
-12805.0,6691.0,28426.0,0.0
-13108.0,6483.0,29066.0,0.0
-13279.0,6197.0,29410.0,0.0
-13385.0,5876.0,29609.0,0.0
-13413.0,5518.0,29635.0,0.0
-13409.0,5148.0,29587.0,0.0
-13358.0,4765.0,29437.0,0.0
-13331.0,4394.0,29338.0,0.0
-13314.0,4029.0,29258.0,0.0
-13285.0,3663.0,29155.0,0.0
-13253.0,3300.0,29041.0,0.0
-13222.0,2940.0,28931.0,0.0
-13184.0,2583.0,28805.0,0.0
-13165.0,2231.0,28717.0,0.0
-13128.0,1880.0,28591.0,0.0
-13110.0,1534.0,28502.0,0.0
-13074.0,1189.0,28377.0,0.0
-12263.0,796.0,26571.0,0.0
-12270.0,479.0,26540.0,0.0
-12454.0,165.0,26891.0,0.0
-13159.0,-163.0,28359.0,0.0
-16860.0,-641.0,36269.0,2.0
-16666.0,-1059.0,35782.0,2.0
-16513.0,-1471.0,35383.0,2.0
-16348.0,-1872.0,34960.0,2.0
-16192.0,-2265.0,34555.0,2.0
-16034.0,-2648.0,34148.0,2.0
-15830.0,-3015.0,33644.0,2.0
-15671.0,-3379.0,33235.0,2.0
-15465.0,-3724.0,32726.0,2.0
-15273.0,-4061.0,32248.0,2.0
-15076.0,-4386.0,31757.0,2.0
-14941.0,-4720.0,31402.0,2.0
-14794.0,-5043.0,31017.0,2.0
-14643.0,-5357.0,30627.0,2.0
-14521.0,-5675.0,30297.0,2.0
-14416.0,-5993.0,30003.0,2.0
-14322.0,-6310.0,29733.0,2.0
-14237.0,-6626.0,29478.0,2.0
-14135.0,-6930.0,29190.0,2.0
-14023.0,-7223.0,28883.0,2.0
-13921.0,-7514.0,28594.0,2.0
-13855.0,-7823.0,28379.0,2.0
-13778.0,-8122.0,28142.0,2.0
-13703.0,-8417.0,27906.0,2.0
-13642.0,-8718.0,27699.0,2.0
-13597.0,-9027.0,27527.0,2.0
-13613.0,-9376.0,27476.0,2.0
-13657.0,-9745.0,27477.0,2.0
-13717.0,-10128.0,27512.0,2.0
-13843.0,-10566.0,27674.0,2.0
-13956.0,-11000.0,27809.0,2.0
-14100.0,-11465.0,28003.0,2.0
-14221.0,-11919.0,28148.0,2.0
-14356.0,-12391.0,28317.0,2.0
-14446.0,-12830.0,28394.0,2.0
-14563.0,-13299.0,28520.0,2.0
-14684.0,-13779.0,28655.0,2.0
-14789.0,-14250.0,28752.0,2.0
-14927.0,-14758.0,28908.0,2.0
-15060.0,-15272.0,29054.0,2.0
-15212.0,-15812.0,29233.0,2.0
-15374.0,-16371.0,29426.0,2.0
-15542.0,-16945.0,29625.0,2.0
-15772.0,-17599.0,29940.0,2.0
-16024.0,-18291.0,30289.0,2.0
-16332.0,-19061.0,30737.0,2.0
-16613.0,-19818.0,31128.0,2.0
-16904.0,-20602.0,31532.0,2.0
-17177.0,-21382.0,31896.0,2.0
-17417.0,-22134.0,32191.0,2.0
-17704.0,-22961.0,32565.0,2.0
-17966.0,-23775.0,32888.0,2.0
-13681.0,-18464.0,24919.0,0.0
-13260.0,-18248.0,24032.0,0.0
-12896.0,-18090.0,23252.0,0.0
-12528.0,-17909.0,22470.0,0.0
-12491.0,-18193.0,22285.0,0.0
-12490.0,-18526.0,22158.0,0.0
-13402.0,-20244.0,23645.0,0.0
-13375.0,-20567.0,23462.0,0.0
-13403.0,-20978.0,23375.0,0.0
-13451.0,-21424.0,23319.0,0.0
-13514.0,-21899.0,23286.0,0.0
-13570.0,-22369.0,23238.0,0.0
-13602.0,-22804.0,23144.0,0.0
-13653.0,-23274.0,23080.0,0.0
-13674.0,-23699.0,22962.0,0.0
-13711.0,-24156.0,22868.0,0.0
-13616.0,-24381.0,22553.0,0.0
-13390.0,-24364.0,22020.0,0.0
-13089.0,-24199.0,21369.0,0.0
-13119.0,-24642.0,21259.0,0.0
-13089.0,-24970.0,21047.0,0.0
-911.0,-1767.0,1455.0,0.0
-892.0,-1757.0,1413.0,0.0
-879.0,-1759.0,1382.0,0.0
-877.0,-1780.0,1366.0,0.0
-871.0,-1795.0,1345.0,0.0
-854.0,-1787.0,1307.0,0.0
-45.0,-97.0,69.0,0.0
-47.0,-103.0,72.0,0.0
-54.0,-118.0,81.0,0.0
-56.0,-127.0,85.0,0.0
-52.0,-119.0,77.0,0.0
-54.0,-124.0,79.0,0.0
-59.0,-138.0,85.0,0.0
-59.0,-141.0,85.0,0.0
-61.0,-148.0,87.0,0.0
-63.0,-154.0,88.0,0.0
-64.0,-158.0,88.0,0.0
-64.0,-161.0,88.0,0.0
-67.0,-170.0,89.0,0.0
-74.0,-190.0,97.0,0.0
-70.0,-185.0,92.0,0.0
-70.0,-186.0,90.0,0.0
-69.0,-186.0,88.0,0.0
-73.0,-201.0,91.0,0.0
-73.0,-201.0,89.0,0.0
-74.0,-206.0,89.0,0.0
-79.0,-227.0,95.0,0.0
-80.0,-232.0,93.0,0.0
-82.0,-242.0,95.0,0.0
-90.0,-268.0,102.0,0.0
-104.0,-312.0,114.0,0.0
-107.0,-324.0,115.0,0.0
-104.0,-321.0,109.0,0.0
-102.0,-318.0,105.0,0.0
-98.0,-313.0,99.0,0.0
-98.0,-317.0,97.0,0.0
-95.0,-313.0,92.0,0.0
-96.0,-317.0,89.0,0.0
-94.0,-319.0,86.0,0.0
-95.0,-323.0,84.0,0.0
-92.0,-318.0,79.0,0.0
-94.0,-329.0,77.0,0.0
-16902.0,45121.0,38762.0,0.0
-16779.0,43886.0,38529.0,0.0
0.0,0.0,0.0,0.0
0.0,0.0,0.0,0.0
-16445.0,40451.0,37902.0,0.0
-14403.0,34704.0,33232.0,0.0
-14163.0,33427.0,32712.0,0.0
-14201.0,32824.0,32829.0,0.0
-14339.0,32457.0,33180.0,0.0
0.0,0.0,0.0,0.0
-13765.0,29868.0,31900.0,0.0
-13826.0,29369.0,32066.0,0.0
-13801.0,28693.0,32028.0,0.0
-13784.0,28047.0,32009.0,0.0
-13731.0,27335.0,31901.0,0.0
-13574.0,26437.0,31551.0,0.0
-13471.0,25662.0,31325.0,0.0
-13458.0,25073.0,31307.0,0.0
-13226.0,24091.0,30776.0,0.0
-13548.0,24125.0,31535.0,0.0
-13456.0,23416.0,31327.0,0.0
-13150.0,22359.0,30619.0,0.0
-13129.0,21807.0,30576.0,0.0
0.0,0.0,0.0,0.0
0.0,0.0,0.0,0.0
-13145.0,20317.0,30616.0,0.0
-13137.0,19812.0,30598.0,0.0
-13147.0,19338.0,30617.0,0.0
-13292.0,19064.0,30951.0,0.0
-13317.0,18615.0,31004.0,0.0
-14498.0,19747.0,33749.0,0.0
-14473.0,19196.0,33679.0,0.0
-14429.0,18631.0,33567.0,0.0
-14365.0,18048.0,33409.0,0.0
-14360.0,17547.0,33386.0,0.0
-14314.0,17001.0,33264.0,0.0
-14276.0,16473.0,33160.0,0.0
-14217.0,15930.0,33011.0,0.0
-14197.0,15435.0,32945.0,0.0
-14147.0,14915.0,32811.0,0.0
-14074.0,14379.0,32620.0,0.0
-14089.0,13940.0,32637.0,0.0
-14034.0,13435.0,32487.0,0.0
-13999.0,12957.0,32386.0,0.0
-13994.0,12512.0,32350.0,0.0
-13966.0,12050.0,32260.0,0.0
-13946.0,11600.0,32190.0,0.0
-13919.0,11149.0,32100.0,0.0
0.0,0.0,0.0,0.0
-13865.0,10261.0,31917.0,0.0
-13783.0,9785.0,31698.0,0.0
-13701.0,9318.0,31481.0,0.0
-13868.0,9020.0,31830.0,0.0
-14246.0,8846.0,32667.0,0.0
-14668.0,8678.0,33597.0,0.0
-15004.0,8440.0,34330.0,0.0
-12447.0,6641.0,28445.0,0.0
-12785.0,6454.0,29183.0,0.0
-13066.0,6222.0,29788.0,0.0
-13080.0,5857.0,29782.0,0.0
-13042.0,5472.0,29661.0,0.0
-13013.0,5094.0,29555.0,0.0
-12981.0,4718.0,29445.0,0.0
-12948.0,4346.0,29328.0,0.0
-12931.0,3983.0,29246.0,0.0
-12875.0,3611.0,29079.0,0.0
-12852.0,3253.0,28983.0,0.0
-12824.0,2896.0,28876.0,0.0
-12794.0,2541.0,28765.0,0.0
-12785.0,2194.0,28699.0,0.0
-12758.0,1846.0,28592.0,0.0
-12721.0,1499.0,28461.0,0.0
-12715.0,1159.0,28401.0,0.0
-11918.0,769.0,26571.0,0.0
-11922.0,452.0,26535.0,0.0
-12131.0,139.0,26949.0,0.0
-12857.0,-190.0,28511.0,0.0
-16342.0,-671.0,36171.0,2.0
-16175.0,-1087.0,35733.0,2.0
-16000.0,-1494.0,35275.0,2.0
-15832.0,-1890.0,34837.0,2.0
-15673.0,-2278.0,34416.0,2.0
-15534.0,-2661.0,34038.0,2.0
-15386.0,-3034.0,33645.0,2.0
-15197.0,-3389.0,33158.0,2.0
-15000.0,-3731.0,32659.0,2.0
-14783.0,-4057.0,32114.0,2.0
-14638.0,-4393.0,31725.0,2.0
-14485.0,-4718.0,31322.0,2.0
-14365.0,-5047.0,30989.0,2.0
-14233.0,-5364.0,30631.0,2.0
-14130.0,-5686.0,30336.0,2.0
-14043.0,-6009.0,30073.0,2.0
-13935.0,-6318.0,29766.0,2.0
-13840.0,-6628.0,29486.0,2.0
-13771.0,-6945.0,29262.0,2.0
-13661.0,-7237.0,28951.0,2.0
-13582.0,-7539.0,28705.0,2.0
-13489.0,-7831.0,28433.0,2.0
-13412.0,-8126.0,28188.0,2.0
-13344.0,-8425.0,27966.0,2.0
-13279.0,-8722.0,27750.0,2.0
-13259.0,-9045.0,27623.0,2.0
-13270.0,-9391.0,27563.0,2.0
-13317.0,-9763.0,27576.0,2.0
-13367.0,-10141.0,27595.0,2.0
-13459.0,-10554.0,27696.0,2.0
-13555.0,-10975.0,27802.0,2.0
-13690.0,-11434.0,27987.0,2.0
-13819.0,-11897.0,28158.0,2.0
-13949.0,-12366.0,28325.0,2.0
-14059.0,-12824.0,28447.0,2.0
-14166.0,-13286.0,28563.0,2.0
-14279.0,-13760.0,28686.0,2.0
-14412.0,-14261.0,28847.0,2.0
-14519.0,-14742.0,28953.0,2.0
-14669.0,-15275.0,29141.0,2.0
-14780.0,-15776.0,29250.0,2.0
-14934.0,-16329.0,29437.0,2.0
-15082.0,-16886.0,29609.0,2.0
-15247.0,-17469.0,29809.0,2.0
-15478.0,-18142.0,30136.0,2.0
-15759.0,-18887.0,30554.0,2.0
-16052.0,-19663.0,30986.0,2.0
-16329.0,-20436.0,31380.0,2.0
-16593.0,-21209.0,31746.0,2.0
-16825.0,-21956.0,32041.0,2.0
-17089.0,-22760.0,32392.0,2.0
-17366.0,-23599.0,32761.0,2.0
-13322.0,-18464.0,25009.0,0.0
-12957.0,-18310.0,24202.0,0.0
-12595.0,-18145.0,23409.0,0.0
-12233.0,-17958.0,22617.0,0.0
-12146.0,-18168.0,22340.0,0.0
-12150.0,-18509.0,22226.0,0.0
-12128.0,-18815.0,22065.0,0.0
-12987.0,-20512.0,23494.0,0.0
-13006.0,-20910.0,23395.0,0.0
-13097.0,-21427.0,23420.0,0.0
-13095.0,-21799.0,23279.0,0.0
-13175.0,-22309.0,23275.0,0.0
-13192.0,-22719.0,23161.0,0.0
-13232.0,-23174.0,23084.0,0.0
-13263.0,-23617.0,22988.0,0.0
-13318.0,-24107.0,22929.0,0.0
-13332.0,-24527.0,22796.0,0.0
-13426.0,-25103.0,22798.0,0.0
-12740.0,-24204.0,21479.0,0.0
-12710.0,-24531.0,21270.0,0.0
-12657.0,-24819.0,21025.0,0.0
-857.0,-1709.0,1414.0,0.0
-868.0,-1755.0,1419.0,0.0
-870.0,-1787.0,1413.0,0.0
-854.0,-1783.0,1376.0,0.0
-852.0,-1806.0,1360.0,0.0
-46.0,-99.0,73.0,0.0
-47.0,-104.0,75.0,0.0
-44.0,-100.0,70.0,0.0
-46.0,-103.0,71.0,0.0
-53.0,-123.0,81.0,0.0
-56.0,-131.0,85.0,0.0
-57.0,-136.0,86.0,0.0
-55.0,-133.0,83.0,0.0
-61.0,-148.0,90.0,0.0
-54.0,-134.0,79.0,0.0
-62.0,-156.0,90.0,0.0
-60.0,-154.0,86.0,0.0
-60.0,-154.0,84.0,0.0
-60.0,-158.0,83.0,0.0
-67.0,-176.0,91.0,0.0
-61.0,-164.0,82.0,0.0
-66.0,-181.0,89.0,0.0
-66.0,-180.0,86.0,0.0
-69.0,-196.0,90.0,0.0
-75.0,-214.0,95.0,0.0
-71.0,-207.0,89.0,0.0
-72.0,-211.0,89.0,0.0
-72.0,-215.0,88.0,0.0
-81.0,-244.0,97.0,0.0
-85.0,-260.0,100.0,0.0
-101.0,-315.0,117.0,0.0
-106.0,-334.0,120.0,0.0
-104.0,-330.0,115.0,0.0
-100.0,-323.0,108.0,0.0
-97.0,-319.0,103.0,0.0
-98.0,-325.0,100.0,0.0
-96.0,-321.0,96.0,0.0
-95.0,-324.0,92.0,0.0
-95.0,-328.0,90.0,0.0
-94.0,-329.0,87.0,0.0
-91.0,-325.0,82.0,0.0
-91.0,-329.0,79.0,0.0
-16257.0,44726.0,38664.0,0.0
0.0,0.0,0.0,0.0
0.0,0.0,0.0,0.0
0.0,0.0,0.0,0.0
-15826.0,40090.0,37794.0,0.0
-13652.0,33869.0,32631.0,0.0
-13700.0,33284.0,32772.0,0.0
-13697.0,32585.0,32790.0,0.0
-13733.0,31988.0,32898.0,0.0
-13640.0,31104.0,32698.0,0.0
-13328.0,29750.0,31967.0,0.0
-13356.0,29180.0,32052.0,0.0
-13260.0,28351.0,31836.0,0.0
-13437.0,28112.0,32276.0,0.0
-13265.0,27147.0,31872.0,0.0
-12984.0,25993.0,31208.0,0.0
-13024.0,25500.0,31313.0,0.0
-7558.0,14469.0,18175.0,0.0
-13067.0,24456.0,31429.0,0.0
-12968.0,23721.0,31194.0,0.0
-13032.0,23295.0,31352.0,0.0
-12663.0,22113.0,30464.0,0.0
0.0,0.0,0.0,0.0
0.0,0.0,0.0,0.0
-12457.0,20253.0,29966.0,0.0
-12647.0,20066.0,30420.0,0.0
-12759.0,19749.0,30685.0,0.0
-12821.0,19354.0,30827.0,0.0
-12886.0,18964.0,30976.0,0.0
-13453.0,19295.0,32330.0,0.0
-13521.0,18890.0,32481.0,0.0
-13993.0,19039.0,33606.0,0.0
-13965.0,18493.0,33525.0,0.0
-13973.0,18003.0,33530.0,0.0
-13895.0,17408.0,33327.0,0.0
-13844.0,16858.0,33188.0,0.0
-13841.0,16372.0,33164.0,0.0
-13812.0,15861.0,33074.0,0.0
-13711.0,15277.0,32813.0,0.0
-13703.0,14804.0,32774.0,0.0
-13616.0,14254.0,32544.0,0.0
-13661.0,13846.0,32629.0,0.0
-13609.0,13345.0,32480.0,0.0
-13574.0,12867.0,32372.0,0.0
-13525.0,12382.0,32228.0,0.0
-13514.0,11937.0,32176.0,0.0
-13537.0,11527.0,32205.0,0.0
-13517.0,11081.0,32125.0,0.0
0.0,0.0,0.0,0.0
0.0,0.0,0.0,0.0
-13319.0,9675.0,31565.0,0.0
-13293.0,9247.0,31471.0,0.0
-13617.0,9057.0,32202.0,0.0
-13895.0,8821.0,32824.0,0.0
-14276.0,8634.0,33687.0,0.0
-12063.0,6934.0,28432.0,0.0
-12142.0,6620.0,28586.0,0.0
-12708.0,6553.0,29880.0,0.0
-12711.0,6182.0,29850.0,0.0
-12688.0,5800.0,29760.0,0.0
-12665.0,5423.0,29664.0,0.0
-12612.0,5036.0,29500.0,0.0
-12596.0,4668.0,29422.0,0.0
-12570.0,4300.0,29320.0,0.0
-12545.0,3936.0,29219.0,0.0
-12527.0,3577.0,29133.0,0.0
-12488.0,3214.0,28997.0,0.0
-12466.0,2860.0,28902.0,0.0
-12431.0,2506.0,28778.0,0.0
-12403.0,2157.0,28666.0,0.0
-12389.0,1812.0,28586.0,0.0
-12363.0,1467.0,28476.0,0.0
-12350.0,1127.0,28398.0,0.0
-11563.0,740.0,26541.0,0.0
-11575.0,426.0,26523.0,0.0
-11802.0,115.0,26995.0,0.0
-12520.0,-215.0,28583.0,0.0
-15851.0,-700.0,36119.0,2.0
-15661.0,-1112.0,35618.0,2.0
-15508.0,-1517.0,35199.0,2.0
-15358.0,-1912.0,34790.0,2.0
-15230.0,-2302.0,34429.0,2.0
-15072.0,-2679.0,34001.0,2.0
-14924.0,-3048.0,33596.0,2.0
-14732.0,-3398.0,33091.0,2.0
-14567.0,-3745.0,32649.0,2.0
-14397.0,-4080.0,32197.0,2.0
-14233.0,-4409.0,31757.0,2.0
-14076.0,-4729.0,31335.0,2.0
-13962.0,-5057.0,31006.0,2.0
-13860.0,-5383.0,30706.0,2.0
-13769.0,-5708.0,30432.0,2.0
-13652.0,-6017.0,30099.0,2.0
-13546.0,-6324.0,29789.0,2.0
-13466.0,-6638.0,29537.0,2.0
-13361.0,-6935.0,29232.0,2.0
-13288.0,-7244.0,28993.0,2.0
-13211.0,-7545.0,28748.0,2.0
-13119.0,-7834.0,28468.0,2.0
-13052.0,-8135.0,28247.0,2.0
-12999.0,-8441.0,28050.0,2.0
-12945.0,-8743.0,27854.0,2.0
-12923.0,-9066.0,27725.0,2.0
-12909.0,-9392.0,27612.0,2.0
-12917.0,-9736.0,27544.0,2.0
-12998.0,-10136.0,27631.0,2.0
-13080.0,-10543.0,27718.0,2.0
-13167.0,-10959.0,27814.0,2.0
-13287.0,-11406.0,27976.0,2.0
-13410.0,-11864.0,28141.0,2.0
-13538.0,-12334.0,28315.0,2.0
-13639.0,-12785.0,28427.0,2.0
-13752.0,-13255.0,28562.0,2.0
-13868.0,-13733.0,28701.0,2.0
-13977.0,-14212.0,28824.0,2.0
-14108.0,-14720.0,28987.0,2.0
-14221.0,-15216.0,29107.0,2.0
-14343.0,-15731.0,29247.0,2.0
-14476.0,-16263.0,29401.0,2.0
-14620.0,-16818.0,29575.0,2.0
-14778.0,-17398.0,29775.0,2.0
-14950.0,-18004.0,29998.0,2.0
-15189.0,-18705.0,30351.0,2.0
-15432.0,-19424.0,30705.0,2.0
-15747.0,-20249.0,31195.0,2.0
-16020.0,-21041.0,31598.0,2.0
-16250.0,-21790.0,31905.0,2.0
-16502.0,-22584.0,32251.0,2.0
-16762.0,-23405.0,32605.0,2.0
-12939.0,-18427.0,25048.0,0.0
-12627.0,-18337.0,24325.0,0.0
-12276.0,-18173.0,23532.0,0.0
-11926.0,-17992.0,22745.0,0.0
-11776.0,-18102.0,22344.0,0.0
-11759.0,-18411.0,22192.0,0.0
-12576.0,-20051.0,23606.0,0.0
-12572.0,-20409.0,23469.0,0.0
-12608.0,-20834.0,23405.0,0.0
-12673.0,-21311.0,23390.0,0.0
-12683.0,-21700.0,23270.0,0.0
-12736.0,-22168.0,23227.0,0.0
-12775.0,-22617.0,23156.0,0.0
-12823.0,-23088.0,23099.0,0.0
-12860.0,-23543.0,23018.0,0.0
-12898.0,-24005.0,22936.0,0.0
0.0,0.0,0.0,0.0
-12882.0,-24768.0,22598.0,0.0
-12369.0,-24167.0,21547.0,0.0
-12308.0,-24432.0,21287.0,0.0
-867.0,-1750.0,1491.0,0.0
-837.0,-1716.0,1427.0,0.0
-847.0,-1763.0,1433.0,0.0
-867.0,-1832.0,1454.0,0.0
-830.0,-1783.0,1383.0,0.0
-46.0,-103.0,78.0,0.0
-46.0,-101.0,76.0,0.0
-48.0,-110.0,79.0,0.0
-46.0,-108.0,76.0,0.0
-47.0,-110.0,75.0,0.0
-52.0,-123.0,83.0,0.0
-52.0,-125.0,82.0,0.0
-52.0,-127.0,82.0,0.0
-57.0,-142.0,89.0,0.0
-61.0,-152.0,93.0,0.0
-60.0,-153.0,91.0,0.0
-56.0,-146.0,85.0,0.0
-64.0,-171.0,96.0,0.0
-59.0,-158.0,87.0,0.0
-64.0,-174.0,93.0,0.0
-69.0,-188.0,98.0,0.0
-64.0,-178.0,90.0,0.0
-68.0,-192.0,94.0,0.0
-70.0,-202.0,96.0,0.0
-71.0,-206.0,95.0,0.0
-71.0,-207.0,94.0,0.0
-73.0,-217.0,95.0,0.0
-74.0,-224.0,95.0,0.0
-74.0,-226.0,92.0,0.0
-75.0,-235.0,94.0,0.0
-80.0,-253.0,98.0,0.0
-91.0,-292.0,109.0,0.0
-100.0,-327.0,118.0,0.0
-99.0,-325.0,113.0,0.0
-95.0,-319.0,108.0,0.0
-96.0,-325.0,105.0,0.0
-94.0,-321.0,101.0,0.0
-90.0,-315.0,94.0,0.0
-90.0,-319.0,93.0,0.0
-90.0,-323.0,89.0,0.0
-90.0,-326.0,87.0,0.0
-87.0,-321.0,82.0,0.0
-86.0,-323.0,78.0,0.0
-6022.0,17097.0,14869.0,0.0
-6007.0,16700.0,14842.0,0.0
-6066.0,16518.0,15001.0,0.0
-6072.0,16195.0,15029.0,0.0
-6049.0,15797.0,14982.0,0.0
-6050.0,15472.0,14995.0,0.0
-6069.0,15196.0,15050.0,0.0
-13167.0,32274.0,32670.0,0.0
-13178.0,31619.0,32711.0,0.0
-13280.0,31192.0,32983.0,0.0
-12858.0,29557.0,31947.0,0.0
-12919.0,29060.0,32107.0,0.0
-12874.0,28335.0,32006.0,0.0
-12949.0,27883.0,32202.0,0.0
-6981.0,14704.0,17363.0,0.0
-12547.0,25846.0,31211.0,0.0
-12600.0,25379.0,31345.0,0.0
-7320.0,14415.0,18213.0,0.0
-12383.0,23836.0,30810.0,0.0
-12542.0,23593.0,31205.0,0.0
-13423.0,24670.0,33395.0,0.0
0.0,0.0,0.0,0.0
0.0,0.0,0.0,0.0
0.0,0.0,0.0,0.0
-12381.0,20684.0,30784.0,0.0
-12229.0,19933.0,30395.0,0.0
-12336.0,19615.0,30654.0,0.0
-12430.0,19273.0,30878.0,0.0
-12487.0,18873.0,31009.0,0.0
-12455.0,18342.0,30916.0,0.0
-13415.0,19245.0,33286.0,0.0
-13421.0,18745.0,33285.0,0.0
-13495.0,18343.0,33451.0,0.0
-13486.0,17832.0,33411.0,0.0
-13428.0,17264.0,33250.0,0.0
-13405.0,16747.0,33170.0,0.0
-13377.0,16232.0,33080.0,0.0
-13339.0,15713.0,32965.0,0.0
-13297.0,15194.0,32839.0,0.0
-13265.0,14696.0,32738.0,0.0
-13235.0,14206.0,32639.0,0.0
-13248.0,13765.0,32644.0,0.0
-13173.0,13241.0,32435.0,0.0
-13131.0,12757.0,32304.0,0.0
-13117.0,12307.0,32241.0,0.0
-13115.0,11870.0,32206.0,0.0
-13123.0,11448.0,32197.0,0.0
-13097.0,10999.0,32103.0,0.0
-13058.0,10544.0,31975.0,0.0
-13024.0,10100.0,31858.0,0.0
-12866.0,9568.0,31438.0,0.0
-12931.0,9208.0,31562.0,0.0
-13276.0,9037.0,32369.0,0.0
-13539.0,8795.0,32972.0,0.0
-13882.0,8589.0,33767.0,0.0
-11718.0,6890.0,28469.0,0.0
-11822.0,6590.0,28686.0,0.0
-12204.0,6435.0,29577.0,0.0
-12296.0,6112.0,29759.0,0.0
-12309.0,5750.0,29752.0,0.0
-12269.0,5366.0,29615.0,0.0
-12231.0,4986.0,29481.0,0.0
-12211.0,4620.0,29393.0,0.0
-12198.0,4257.0,29320.0,0.0
-12144.0,3885.0,29146.0,0.0
-12121.0,3526.0,29047.0,0.0
-12105.0,3171.0,28962.0,0.0
-12076.0,2818.0,28847.0,0.0
-12072.0,2471.0,28791.0,0.0
-12032.0,2120.0,28649.0,0.0
-12019.0,1778.0,28571.0,0.0
-11992.0,1436.0,28457.0,0.0
-11982.0,1098.0,28384.0,0.0
-11219.0,713.0,26528.0,0.0
-11224.0,401.0,26495.0,0.0
-11497.0,91.0,27088.0,0.0
-12153.0,-240.0,28580.0,0.0
-15332.0,-726.0,35987.0,2.0
-15206.0,-1140.0,35622.0,2.0
-15063.0,-1542.0,35218.0,2.0
-14912.0,-1936.0,34792.0,2.0
-14737.0,-2315.0,34315.0,2.0
-14607.0,-2693.0,33942.0,2.0
-14453.0,-3058.0,33512.0,2.0
-14283.0,-3409.0,33047.0,2.0
-14136.0,-3757.0,32635.0,2.0
-13957.0,-4086.0,32149.0,2.0
-13845.0,-4427.0,31820.0,2.0
-13690.0,-4747.0,31390.0,2.0
-13573.0,-5071.0,31050.0,2.0
-13477.0,-5398.0,30758.0,2.0
-13368.0,-5713.0,30434.0,2.0
-13262.0,-6024.0,30119.0,2.0
-13183.0,-6341.0,29865.0,2.0
-13081.0,-6642.0,29557.0,2.0
-13001.0,-6949.0,29301.0,2.0
-12931.0,-7258.0,29067.0,2.0
-12869.0,-7567.0,28848.0,2.0
-12792.0,-7863.0,28597.0,2.0
-12747.0,-8177.0,28418.0,2.0
-12695.0,-8483.0,28222.0,2.0
-12644.0,-8788.0,28031.0,2.0
-12599.0,-9094.0,27849.0,2.0
-12548.0,-9393.0,27654.0,2.0
-12554.0,-9734.0,27584.0,2.0
-12637.0,-10137.0,27679.0,2.0
-12720.0,-10546.0,27777.0,2.0
-12815.0,-10969.0,27893.0,2.0
-12908.0,-11397.0,28009.0,2.0
-13021.0,-11848.0,28161.0,2.0
-13120.0,-12292.0,28280.0,2.0
-13239.0,-12762.0,28439.0,2.0
-13358.0,-13238.0,28596.0,2.0
-13461.0,-13707.0,28716.0,2.0
-13583.0,-14201.0,28872.0,2.0
-13688.0,-14685.0,28991.0,2.0
-13803.0,-15186.0,29126.0,2.0
-13913.0,-15689.0,29247.0,2.0
-14045.0,-16224.0,29412.0,2.0
-14154.0,-16741.0,29524.0,2.0
-14335.0,-17352.0,29784.0,2.0
-14489.0,-17941.0,29980.0,2.0
-14710.0,-18626.0,30314.0,2.0
-14910.0,-19295.0,30596.0,2.0
-15177.0,-20068.0,31012.0,2.0
-15483.0,-20909.0,31499.0,2.0
-15699.0,-21645.0,31796.0,2.0
-15940.0,-22430.0,32138.0,2.0
-16199.0,-23258.0,32510.0,2.0
-16428.0,-24059.0,32815.0,2.0
-12291.0,-18356.0,24436.0,0.0
-11960.0,-18207.0,23660.0,0.0
-11612.0,-18015.0,22856.0,0.0
-11416.0,-18047.0,22358.0,0.0
-11382.0,-18327.0,22175.0,0.0
-12205.0,-20015.0,23653.0,0.0
-12206.0,-20380.0,23527.0,0.0
-12229.0,-20783.0,23440.0,0.0
-12280.0,-21241.0,23407.0,0.0
-12301.0,-21651.0,23312.0,0.0
-12323.0,-22066.0,23216.0,0.0
-12361.0,-22515.0,23149.0,0.0
-12408.0,-22985.0,23094.0,0.0
-12469.0,-23485.0,23061.0,0.0
-12494.0,-23926.0,22960.0,0.0
-12536.0,-24405.0,22888.0,0.0
-12461.0,-24655.0,22598.0,0.0
-12015.0,-24159.0,21640.0,0.0
-11943.0,-24401.0,21358.0,0.0
-11914.0,-24732.0,21155.0,0.0
-814.0,-1717.0,1436.0,0.0
-814.0,-1746.0,1427.0,0.0
-800.0,-1741.0,1389.0,0.0
-37.0,-82.0,64.0,0.0
-41.0,-94.0,72.0,0.0
-42.0,-98.0,72.0,0.0
-43.0,-101.0,73.0,0.0
-43.0,-102.0,72.0,0.0
-45.0,-110.0,77.0,0.0
-47.0,-116.0,78.0,0.0
-47.0,-115.0,76.0,0.0
-48.0,-121.0,78.0,0.0
-55.0,-139.0,87.0,0.0
-52.0,-135.0,83.0,0.0
-50.0,-135.0,80.0,0.0
-56.0,-151.0,88.0,0.0
-56.0,-154.0,87.0,0.0
-58.0,-162.0,89.0,0.0
-60.0,-167.0,90.0,0.0
-59.0,-165.0,86.0,0.0
-59.0,-170.0,87.0,0.0
-63.0,-182.0,90.0,0.0
-62.0,-184.0,89.0,0.0
-64.0,-193.0,90.0,0.0
-66.0,-201.0,91.0,0.0
-68.0,-209.0,93.0,0.0
-65.0,-205.0,88.0,0.0
-72.0,-227.0,95.0,0.0
-70.0,-227.0,91.0,0.0
-74.0,-240.0,94.0,0.0
-81.0,-269.0,101.0,0.0
-96.0,-322.0,118.0,0.0
-95.0,-323.0,113.0,0.0
-91.0,-316.0,108.0,0.0
-92.0,-323.0,106.0,0.0
-89.0,-318.0,100.0,0.0
-87.0,-315.0,96.0,0.0
-86.0,-317.0,93.0,0.0
-86.0,-320.0,90.0,0.0
-87.0,-327.0,88.0,0.0
-83.0,-320.0,82.0,0.0
-84.0,-324.0,80.0,0.0
-6025.0,17667.0,15456.0,0.0
-6035.0,17327.0,15490.0,0.0
-6068.0,17060.0,15585.0,0.0
-6071.0,16712.0,15600.0,0.0
-6088.0,16408.0,15652.0,0.0
-5758.0,15193.0,14810.0,0.0
-5826.0,15048.0,14991.0,0.0
-6049.0,15295.0,15572.0,0.0
-6100.0,15094.0,15705.0,0.0
-6905.0,16720.0,17781.0,0.0
-6886.0,16318.0,17737.0,0.0
-6920.0,16044.0,17828.0,0.0
-12235.0,27749.0,31523.0,0.0
-12411.0,27532.0,31977.0,0.0
-6757.0,14661.0,17410.0,0.0
-6857.0,14547.0,17667.0,0.0
-7029.0,14580.0,18110.0,0.0
-7155.0,14508.0,18434.0,0.0
-7232.0,14332.0,18631.0,0.0
-12184.0,23591.0,31379.0,0.0
-12063.0,22816.0,31060.0,0.0
0.0,0.0,0.0,0.0
0.0,0.0,0.0,0.0
0.0,0.0,0.0,0.0
-11710.0,20120.0,30115.0,0.0
-11816.0,19807.0,30376.0,0.0
-11890.0,19440.0,30553.0,0.0
-11880.0,18936.0,30514.0,0.0
-12065.0,18744.0,30975.0,0.0
-13167.0,19929.0,33784.0,0.0
-13135.0,19362.0,33685.0,0.0
-13080.0,18771.0,33525.0,0.0
-13059.0,18237.0,33450.0,0.0
-13053.0,17729.0,33413.0,0.0
-13004.0,17172.0,33267.0,0.0
-12983.0,16658.0,33190.0,0.0
-12899.0,16072.0,32952.0,0.0
-12880.0,15576.0,32876.0,0.0
-12841.0,15064.0,32753.0,0.0
-12809.0,14567.0,32645.0,0.0
-12809.0,14111.0,32618.0,0.0
-12776.0,13622.0,32504.0,0.0
-12766.0,13166.0,32450.0,0.0
-12705.0,12663.0,32266.0,0.0
-12707.0,12227.0,32239.0,0.0
-12692.0,11781.0,32169.0,0.0
-12707.0,11365.0,32174.0,0.0
-12667.0,10906.0,32041.0,0.0
-12621.0,10448.0,31893.0,0.0
-12628.0,10037.0,31874.0,0.0
-12499.0,9525.0,31514.0,0.0
-12546.0,9153.0,31595.0,0.0
-12780.0,8912.0,32146.0,0.0
-13159.0,8755.0,33059.0,0.0
-13534.0,8574.0,33960.0,0.0
-11357.0,6837.0,28461.0,0.0
-11516.0,6571.0,28822.0,0.0
-11668.0,6294.0,29163.0,0.0
-11941.0,6071.0,29804.0,0.0
-11922.0,5695.0,29718.0,0.0
-11892.0,5317.0,29600.0,0.0
-11866.0,4944.0,29494.0,0.0
-11841.0,4576.0,29388.0,0.0
-11818.0,4210.0,29287.0,0.0
-11792.0,3848.0,29179.0,0.0
-11764.0,3489.0,29066.0,0.0
-11748.0,3137.0,28980.0,0.0
-11721.0,2784.0,28867.0,0.0
-11690.0,2432.0,28743.0,0.0
-11673.0,2088.0,28654.0,0.0
-11646.0,1745.0,28536.0,0.0
-11632.0,1405.0,28453.0,0.0
-10861.0,999.0,26521.0,0.0
-10881.0,688.0,26523.0,0.0
-10891.0,376.0,26499.0,0.0
-11215.0,67.0,27235.0,0.0
-11840.0,-265.0,28700.0,0.0
-14882.0,-755.0,36005.0,2.0
-14746.0,-1165.0,35606.0,2.0
-14581.0,-1563.0,35136.0,2.0
-14452.0,-1955.0,34755.0,2.0
-14290.0,-2334.0,34295.0,2.0
-14147.0,-2707.0,33881.0,2.0
-14027.0,-3076.0,33523.0,2.0
-13876.0,-3428.0,33088.0,2.0
-13732.0,-3775.0,32676.0,2.0
-13584.0,-4112.0,32252.0,2.0
-13468.0,-4449.0,31903.0,2.0
-13334.0,-4774.0,31512.0,2.0
-13216.0,-5097.0,31160.0,2.0
-13126.0,-5424.0,30876.0,2.0
-13030.0,-5744.0,30576.0,2.0
-12946.0,-6063.0,30302.0,2.0
-12849.0,-6372.0,30002.0,2.0
-12752.0,-6673.0,29700.0,2.0
-12681.0,-6986.0,29460.0,2.0
-12610.0,-7293.0,29218.0,2.0
-12531.0,-7590.0,28958.0,2.0
-12468.0,-7893.0,28732.0,2.0
-12392.0,-8186.0,28481.0,2.0
-12356.0,-8502.0,28318.0,2.0
-12301.0,-8802.0,28111.0,2.0
-12231.0,-9089.0,27873.0,2.0
-12203.0,-9404.0,27726.0,2.0
-12203.0,-9740.0,27644.0,2.0
-12273.0,-10133.0,27717.0,2.0
-12368.0,-10553.0,27847.0,2.0
-12447.0,-10965.0,27937.0,2.0
-12546.0,-11399.0,28070.0,2.0
-12625.0,-11821.0,28155.0,2.0
-12746.0,-12290.0,28333.0,2.0
-12855.0,-12751.0,28479.0,2.0
-12952.0,-13209.0,28597.0,2.0
-13074.0,-13698.0,28764.0,2.0
-13186.0,-14185.0,28911.0,2.0
-13289.0,-14669.0,29032.0,2.0
-13385.0,-15151.0,29134.0,2.0
-13500.0,-15663.0,29275.0,2.0
-13598.0,-16161.0,29377.0,2.0
-13736.0,-16716.0,29563.0,2.0
-13880.0,-17286.0,29754.0,2.0
-14029.0,-17874.0,29954.0,2.0
-14214.0,-18518.0,30228.0,2.0
-14409.0,-19187.0,30517.0,2.0
-14630.0,-19903.0,30852.0,2.0
-14916.0,-20727.0,31322.0,2.0
-15180.0,-21536.0,31737.0,2.0
-15412.0,-22317.0,32078.0,2.0
-15631.0,-23094.0,32388.0,2.0
-15859.0,-23899.0,32707.0,2.0
-11953.0,-18368.0,24536.0,0.0
-11642.0,-18240.0,23785.0,0.0
-11306.0,-18053.0,22986.0,0.0
-11058.0,-17991.0,22369.0,0.0
-11030.0,-18280.0,22199.0,0.0
-11001.0,-18569.0,22026.0,0.0
-11811.0,-20298.0,23522.0,0.0
-11845.0,-20723.0,23462.0,0.0
-11862.0,-21124.0,23368.0,0.0
-11914.0,-21586.0,23335.0,0.0
-11908.0,-21953.0,23190.0,0.0
-11963.0,-22434.0,23161.0,0.0
-12012.0,-22911.0,23116.0,0.0
-12064.0,-23399.0,23073.0,0.0
-12094.0,-23850.0,22986.0,0.0
-12085.0,-24228.0,22822.0,0.0
-12118.0,-24694.0,22734.0,0.0
-11697.0,-24224.0,21796.0,0.0
-11533.0,-24272.0,21344.0,0.0
-11534.0,-24665.0,21196.0,0.0
-795.0,-1728.0,1452.0,0.0
-786.0,-1736.0,1425.0,0.0
-777.0,-1742.0,1398.0,0.0
-789.0,-1798.0,1408.0,0.0
-35.0,-83.0,63.0,0.0
-40.0,-94.0,70.0,0.0
-45.0,-110.0,80.0,0.0
-45.0,-111.0,79.0,0.0
-45.0,-112.0,78.0,0.0
-51.0,-130.0,88.0,0.0
-51.0,-129.0,86.0,0.0
-53.0,-137.0,88.0,0.0
-54.0,-142.0,90.0,0.0
-55.0,-149.0,92.0,0.0
-55.0,-149.0,90.0,0.0
-56.0,-154.0,90.0,0.0
-56.0,-155.0,88.0,0.0
-58.0,-167.0,92.0,0.0
-62.0,-179.0,97.0,0.0
-60.0,-174.0,92.0,0.0
-62.0,-184.0,94.0,0.0
-60.0,-181.0,90.0,0.0
-63.0,-191.0,92.0,0.0
-66.0,-205.0,96.0,0.0
-64.0,-203.0,93.0,0.0
-64.0,-202.0,90.0,0.0
-65.0,-212.0,92.0,0.0
-69.0,-224.0,94.0,0.0
-69.0,-231.0,93.0,0.0
-72.0,-245.0,96.0,0.0
-76.0,-263.0,100.0,0.0
-91.0,-315.0,115.0,0.0
-91.0,-320.0,114.0,0.0
-90.0,-324.0,111.0,0.0
-88.0,-319.0,106.0,0.0
-86.0,-317.0,101.0,0.0
-86.0,-320.0,98.0,0.0
-84.0,-316.0,94.0,0.0
-83.0,-318.0,90.0,0.0
-82.0,-322.0,88.0,0.0
-82.0,-326.0,85.0,0.0
-80.0,-322.0,80.0,0.0
-5986.0,18155.0,15975.0,0.0
-6036.0,17920.0,16112.0,0.0
-6049.0,17579.0,16151.0,0.0
-6057.0,17234.0,16180.0,0.0
-6063.0,16884.0,16197.0,0.0
-5561.0,15157.0,14859.0,0.0
-6055.0,16154.0,16183.0,0.0
-5931.0,15485.0,15854.0,0.0
-6002.0,15332.0,16043.0,0.0
-5996.0,14988.0,16029.0,0.0
-6867.0,16793.0,18356.0,0.0
-11953.0,28594.0,31949.0,0.0
-6871.0,16078.0,18365.0,0.0
-6945.0,15891.0,18558.0,0.0
-6551.0,14656.0,17502.0,0.0
-6667.0,14583.0,17808.0,0.0
-6800.0,14540.0,18162.0,0.0
-6921.0,14462.0,18478.0,0.0
-11646.0,23782.0,31085.0,0.0
-11744.0,23427.0,31334.0,0.0
-11933.0,23250.0,31827.0,0.0
-11434.0,21754.0,30483.0,0.0
0.0,0.0,0.0,0.0
0.0,0.0,0.0,0.0
-11620.0,20557.0,30938.0,0.0
-11523.0,19884.0,30664.0,0.0
-11418.0,19212.0,30366.0,0.0
-11633.0,19083.0,30921.0,0.0
-11655.0,18631.0,30959.0,0.0
-12738.0,19835.0,33813.0,0.0
-12671.0,19215.0,33617.0,0.0
-12629.0,18640.0,33480.0,0.0
-12612.0,18111.0,33410.0,0.0
-12581.0,17571.0,33304.0,0.0
-12570.0,17065.0,33250.0,0.0
-12522.0,16516.0,33096.0,0.0
-12495.0,16002.0,32998.0,0.0
-12462.0,15488.0,32882.0,0.0
-12429.0,14981.0,32764.0,0.0
-12373.0,14455.0,32588.0,0.0
-12394.0,14023.0,32613.0,0.0
-12367.0,13543.0,32511.0,0.0
-12345.0,13073.0,32420.0,0.0
-12295.0,12582.0,32257.0,0.0
-12312.0,12164.0,32267.0,0.0
-12305.0,11724.0,32215.0,0.0
-12287.0,11280.0,32133.0,0.0
-12232.0,10807.0,31956.0,0.0
-12219.0,10378.0,31885.0,0.0
-12207.0,9952.0,31815.0,0.0
-12096.0,9455.0,31491.0,0.0
-12171.0,9106.0,31645.0,0.0
-12440.0,8894.0,32303.0,0.0
-12786.0,8720.0,33162.0,0.0
-13131.0,8526.0,34011.0,0.0
-11002.0,6786.0,28460.0,0.0
-11002.0,6431.0,28421.0,0.0
-11418.0,6308.0,29456.0,0.0
-11530.0,6002.0,29701.0,0.0
-11548.0,5646.0,29707.0,0.0
-11518.0,5269.0,29585.0,0.0
-11493.0,4898.0,29480.0,0.0
-11466.0,4530.0,29365.0,0.0
-11442.0,4167.0,29259.0,0.0
-11424.0,3808.0,29166.0,0.0
-11396.0,3450.0,29048.0,0.0
-11365.0,3094.0,28923.0,0.0
-11361.0,2749.0,28866.0,0.0
-11335.0,2400.0,28750.0,0.0
-11306.0,2054.0,28628.0,0.0
-11304.0,1716.0,28575.0,0.0
-11277.0,1377.0,28457.0,0.0
-10541.0,974.0,26552.0,0.0
-10541.0,662.0,26504.0,0.0
-10555.0,352.0,26489.0,0.0
-10936.0,44.0,27394.0,0.0
-11537.0,-290.0,28844.0,0.0
-14439.0,-783.0,36029.0,2.0
-14269.0,-1188.0,35536.0,2.0
-14140.0,-1587.0,35142.0,2.0
-13993.0,-1974.0,34706.0,2.0
-13850.0,-2353.0,34282.0,2.0
-13721.0,-2726.0,33891.0,2.0
-13592.0,-3091.0,33502.0,2.0
-13468.0,-3447.0,33124.0,2.0
-13330.0,-3792.0,32712.0,2.0
-13216.0,-4138.0,32361.0,2.0
-13069.0,-4463.0,31927.0,2.0
-12973.0,-4799.0,31623.0,2.0
-12872.0,-5127.0,31302.0,2.0
-12779.0,-5451.0,31000.0,2.0
-12682.0,-5769.0,30692.0,2.0
-12605.0,-6091.0,30432.0,2.0
-12523.0,-6405.0,30158.0,2.0
-12421.0,-6705.0,29839.0,2.0
-12325.0,-7000.0,29532.0,2.0
-12252.0,-7305.0,29282.0,2.0
-12188.0,-7609.0,29051.0,2.0
-12113.0,-7905.0,28796.0,2.0
-12066.0,-8215.0,28606.0,2.0
-11999.0,-8508.0,28368.0,2.0
-11943.0,-8806.0,28156.0,2.0
-11875.0,-9091.0,27917.0,2.0
-11839.0,-9398.0,27750.0,2.0
-11863.0,-9754.0,27725.0,2.0
-11914.0,-10133.0,27760.0,2.0
-12027.0,-10571.0,27940.0,2.0
-12096.0,-10976.0,28014.0,2.0
-12177.0,-11395.0,28113.0,2.0
-12271.0,-11832.0,28237.0,2.0
-12346.0,-12258.0,28320.0,2.0
-12468.0,-12736.0,28505.0,2.0
-12567.0,-13197.0,28634.0,2.0
-12686.0,-13686.0,28805.0,2.0
-12775.0,-14152.0,28910.0,2.0
-12872.0,-14631.0,29027.0,2.0
-12997.0,-15150.0,29203.0,2.0
-13107.0,-15659.0,29342.0,2.0
-13208.0,-16163.0,29457.0,2.0
-13308.0,-16675.0,29568.0,2.0
-13462.0,-17264.0,29796.0,2.0
-13615.0,-17860.0,30016.0,2.0
-13740.0,-18432.0,30174.0,2.0
-13930.0,-19098.0,30464.0,2.0
-14150.0,-19823.0,30821.0,2.0
-14381.0,-20577.0,31190.0,2.0
-14668.0,-21429.0,31677.0,2.0
-14903.0,-22223.0,32046.0,2.0
-15098.0,-22970.0,32318.0,2.0
-15317.0,-23773.0,32642.0,2.0
-11632.0,-18410.0,24674.0,0.0
-11317.0,-18260.0,23892.0,0.0
-10999.0,-18088.0,23109.0,0.0
-10710.0,-17947.0,22393.0,0.0
-10707.0,-18279.0,22276.0,0.0
-10676.0,-18561.0,22097.0,0.0
-11478.0,-20320.0,23634.0,0.0
-11445.0,-20628.0,23442.0,0.0
-11575.0,-21235.0,23580.0,0.0
-11528.0,-21523.0,23356.0,0.0
-11553.0,-21944.0,23273.0,0.0
-11600.0,-22417.0,23235.0,0.0
-11626.0,-22853.0,23151.0,0.0
-11636.0,-23258.0,23029.0,0.0
-11672.0,-23724.0,22960.0,0.0
-11716.0,-24210.0,22902.0,0.0
-11634.0,-24438.0,22596.0,0.0
-11416.0,-24371.0,22024.0,0.0
-11180.0,-24257.0,21425.0,0.0
-11159.0,-24603.0,21239.0,0.0
-771.0,-1730.0,1460.0,0.0
-771.0,-1756.0,1448.0,0.0
-768.0,-1778.0,1432.0,0.0
-40.0,-94.0,75.0,0.0
-760.0,-1814.0,1395.0,0.0
-42.0,-103.0,77.0,0.0
-40.0,-100.0,72.0,0.0
-42.0,-104.0,75.0,0.0
-40.0,-105.0,74.0,0.0
-48.0,-126.0,86.0,0.0
-48.0,-126.0,85.0,0.0
-49.0,-131.0,86.0,0.0
-50.0,-136.0,87.0,0.0
-52.0,-143.0,88.0,0.0
-54.0,-152.0,92.0,0.0
-47.0,-134.0,79.0,0.0
-59.0,-170.0,98.0,0.0
-56.0,-162.0,91.0,0.0
-56.0,-168.0,91.0,0.0
-58.0,-175.0,93.0,0.0
-59.0,-183.0,94.0,0.0
-63.0,-196.0,98.0,0.0
-61.0,-195.0,95.0,0.0
-65.0,-206.0,98.0,0.0
-62.0,-202.0,93.0,0.0
-66.0,-219.0,98.0,0.0
-64.0,-217.0,94.0,0.0
-65.0,-220.0,93.0,0.0
-70.0,-242.0,99.0,0.0
-67.0,-235.0,93.0,0.0
-72.0,-257.0,99.0,0.0
-86.0,-309.0,115.0,0.0
-90.0,-326.0,117.0,0.0
-89.0,-330.0,114.0,0.0
-87.0,-329.0,110.0,0.0
-87.0,-333.0,108.0,0.0
-84.0,-328.0,102.0,0.0
-84.0,-331.0,99.0,0.0
-83.0,-332.0,95.0,0.0
-81.0,-329.0,91.0,0.0
-81.0,-333.0,88.0,0.0
-80.0,-335.0,84.0,0.0
-5804.0,18231.0,16132.0,0.0
-5910.0,18168.0,16426.0,0.0
-5949.0,17897.0,16534.0,0.0
-5916.0,17419.0,16444.0,0.0
-5882.0,16948.0,16349.0,0.0
-5852.0,16502.0,16266.0,0.0
-5825.0,16070.0,16187.0,0.0
-5799.0,15655.0,16115.0,0.0
-5736.0,15147.0,15936.0,0.0
-5782.0,14938.0,16061.0,0.0
-6849.0,17306.0,19019.0,0.0
-6840.0,16902.0,18988.0,0.0
-6807.0,16450.0,18892.0,0.0
-6785.0,16032.0,18825.0,0.0
-6317.0,14591.0,17518.0,0.0
-6451.0,14565.0,17883.0,0.0
-6657.0,14692.0,18449.0,0.0
-6700.0,14446.0,18557.0,0.0
-6733.0,14182.0,18638.0,0.0
-11189.0,23024.0,30960.0,0.0
-11006.0,22116.0,30437.0,0.0
0.0,0.0,0.0,0.0
0.0,0.0,0.0,0.0
-10879.0,20332.0,30034.0,0.0
-10961.0,19984.0,30239.0,0.0
-11110.0,19755.0,30629.0,0.0
-11220.0,19451.0,30910.0,0.0
-11231.0,18977.0,30917.0,0.0
-11272.0,18559.0,31010.0,0.0
-12289.0,19707.0,33780.0,0.0
-12253.0,19132.0,33656.0,0.0
-12237.0,18595.0,33584.0,0.0
-12201.0,18035.0,33455.0,0.0
-12128.0,17433.0,33225.0,0.0
-12145.0,16966.0,33243.0,0.0
-12131.0,16462.0,33174.0,0.0
-10949.0,14426.0,29915.0,0.0
-10907.0,13943.0,29771.0,0.0
-10887.0,13497.0,29687.0,0.0
-10882.0,13072.0,29641.0,0.0
-10912.0,12695.0,29696.0,0.0
-11930.0,13431.0,32429.0,0.0
-11931.0,12989.0,32401.0,0.0
-11883.0,12498.0,32232.0,0.0
-11893.0,12074.0,32225.0,0.0
0.0,0.0,0.0,0.0
-11907.0,11229.0,32188.0,0.0
-11861.0,10764.0,32026.0,0.0
-11835.0,10322.0,31915.0,0.0
-11842.0,9913.0,31895.0,0.0
-11733.0,9415.0,31560.0,0.0
-11808.0,9067.0,31722.0,0.0
-12065.0,8852.0,32371.0,0.0
-12436.0,8702.0,33321.0,0.0
-12756.0,8496.0,34132.0,0.0
-10630.0,6724.0,28404.0,0.0
-10865.0,6512.0,28991.0,0.0
-11011.0,6235.0,29337.0,0.0
-11198.0,5974.0,29792.0,0.0
-11178.0,5599.0,29695.0,0.0
-11151.0,5224.0,29581.0,0.0
-11123.0,4853.0,29460.0,0.0
-11105.0,4489.0,29365.0,0.0
-11082.0,4127.0,29263.0,0.0
-11039.0,3761.0,29100.0,0.0
-11029.0,3411.0,29026.0,0.0
-11011.0,3060.0,28933.0,0.0
-10998.0,2713.0,28849.0,0.0
-10967.0,2365.0,28717.0,0.0
-10953.0,2024.0,28632.0,0.0
-10932.0,1683.0,28527.0,0.0
-10915.0,1346.0,28432.0,0.0
-10227.0,950.0,26590.0,0.0
-10209.0,638.0,26495.0,0.0
-10227.0,329.0,26493.0,0.0
-10592.0,22.0,27385.0,0.0
-11207.0,-313.0,28922.0,0.0
-14026.0,-812.0,36122.0,2.0
-13881.0,-1218.0,35681.0,2.0
-13707.0,-1611.0,35161.0,2.0
-13578.0,-1999.0,34759.0,2.0
-13425.0,-2374.0,34300.0,2.0
-13284.0,-2742.0,33868.0,2.0
-13158.0,-3104.0,33474.0,2.0
-13014.0,-3452.0,33036.0,2.0
-12914.0,-3805.0,32710.0,2.0
-12778.0,-4139.0,32292.0,2.0
-12677.0,-4477.0,31965.0,2.0
-12584.0,-4812.0,31657.0,2.0
-12470.0,-5133.0,31299.0,2.0
-12380.0,-5456.0,31000.0,2.0
-12298.0,-5778.0,30718.0,2.0
-12212.0,-6093.0,30432.0,2.0
-12119.0,-6399.0,30126.0,2.0
-12039.0,-6706.0,29849.0,2.0
-11942.0,-6999.0,29535.0,2.0
-11889.0,-7314.0,29330.0,2.0
-11807.0,-7604.0,29050.0,2.0
-11752.0,-7910.0,28837.0,2.0
-11698.0,-8214.0,28628.0,2.0
-11624.0,-8499.0,28369.0,2.0
-11564.0,-8791.0,28141.0,2.0
-11499.0,-9075.0,27905.0,2.0
-11483.0,-9397.0,27788.0,2.0
-11516.0,-9760.0,27787.0,2.0
-11565.0,-10139.0,27824.0,2.0
-11629.0,-10535.0,27892.0,2.0
-11728.0,-10967.0,28043.0,2.0
-11823.0,-11403.0,28185.0,2.0
-11881.0,-11807.0,28232.0,2.0
-11979.0,-12257.0,28376.0,2.0
-12071.0,-12706.0,28499.0,2.0
-12176.0,-13177.0,28653.0,2.0
-12305.0,-13682.0,28860.0,2.0
-12410.0,-14166.0,29006.0,2.0
-12493.0,-14633.0,29100.0,2.0
-12605.0,-15140.0,29256.0,2.0
-12689.0,-15621.0,29344.0,2.0
-12801.0,-16144.0,29498.0,2.0
-12898.0,-16654.0,29610.0,2.0
-13029.0,-17218.0,29796.0,2.0
-13170.0,-17804.0,30003.0,2.0
-13319.0,-18411.0,30223.0,2.0
-13469.0,-19031.0,30444.0,2.0
-13645.0,-19700.0,30717.0,2.0
-13859.0,-20436.0,31070.0,2.0
-14143.0,-21295.0,31573.0,2.0
-14367.0,-22079.0,31935.0,2.0
-14580.0,-22864.0,32269.0,2.0
-14766.0,-23621.0,32536.0,2.0
-11306.0,-18444.0,24800.0,0.0
-10974.0,-18252.0,23961.0,0.0
-10692.0,-18125.0,23235.0,0.0
-10394.0,-17955.0,22479.0,0.0
-10352.0,-18219.0,22280.0,0.0
-10339.0,-18534.0,22142.0,0.0
-11060.0,-20189.0,23565.0,0.0
-11076.0,-20585.0,23477.0,0.0
-11109.0,-21014.0,23422.0,0.0
-11143.0,-21451.0,23365.0,0.0
-11140.0,-21822.0,23230.0,0.0
-11166.0,-22254.0,23156.0,0.0
-11229.0,-22764.0,23152.0,0.0
-11267.0,-23231.0,23094.0,0.0
-11290.0,-23671.0,23001.0,0.0
-11327.0,-24148.0,22938.0,0.0
-11300.0,-24489.0,22739.0,0.0
-11253.0,-24789.0,22498.0,0.0
-10829.0,-24246.0,21509.0,0.0
-10788.0,-24546.0,21282.0,0.0
-757.0,-1752.0,1484.0,0.0
-741.0,-1741.0,1442.0,0.0
-750.0,-1791.0,1450.0,0.0
-720.0,-1749.0,1383.0,0.0
-42.0,-104.0,80.0,0.0
-43.0,-109.0,83.0,0.0
-42.0,-109.0,81.0,0.0
-49.0,-127.0,92.0,0.0
-45.0,-119.0,84.0,0.0
-51.0,-136.0,93.0,0.0
-47.0,-129.0,87.0,0.0
-46.0,-128.0,84.0,0.0
-48.0,-136.0,86.0,0.0
-53.0,-151.0,94.0,0.0
-55.0,-161.0,98.0,0.0
-57.0,-170.0,100.0,0.0
-55.0,-164.0,95.0,0.0
-57.0,-174.0,98.0,0.0
-59.0,-183.0,100.0,0.0
-56.0,-177.0,94.0,0.0
-59.0,-187.0,97.0,0.0
-62.0,-201.0,102.0,0.0
-62.0,-202.0,99.0,0.0
-60.0,-199.0,95.0,0.0
-62.0,-209.0,98.0,0.0
-61.0,-208.0,94.0,0.0
-67.0,-233.0,102.0,0.0
-64.0,-227.0,96.0,0.0
-66.0,-238.0,98.0,0.0
-66.0,-240.0,96.0,0.0
-73.0,-269.0,104.0,0.0
-80.0,-300.0,112.0,0.0
-87.0,-330.0,119.0,0.0
-85.0,-328.0,116.0,0.0
-85.0,-332.0,113.0,0.0
-82.0,-328.0,107.0,0.0
-79.0,-320.0,100.0,0.0
-80.0,-326.0,98.0,0.0
-79.0,-329.0,95.0,0.0
-77.0,-323.0,89.0,0.0
-76.0,-327.0,87.0,0.0
-76.0,-332.0,85.0,0.0
-5200.0,16938.0,15069.0,0.0
-5698.0,18162.0,16510.0,0.0
-5195.0,16201.0,15048.0,0.0
-5231.0,15962.0,15148.0,0.0
-5641.0,16840.0,16331.0,0.0
-5203.0,15193.0,15056.0,0.0
-5444.0,15551.0,15749.0,0.0
-5561.0,15539.0,16081.0,0.0
-5510.0,15061.0,15929.0,0.0
-6586.0,17605.0,19030.0,0.0
-6589.0,17226.0,19032.0,0.0
-6567.0,16784.0,18956.0,0.0
-6117.0,15286.0,17648.0,0.0
-6363.0,15546.0,18349.0,0.0
-6485.0,15483.0,18686.0,0.0
-6264.0,14618.0,18041.0,0.0
-6390.0,14572.0,18393.0,0.0
-6445.0,14358.0,18540.0,0.0
-10858.0,23627.0,31211.0,0.0
-10936.0,23239.0,31414.0,0.0
0.0,0.0,0.0,0.0
0.0,0.0,0.0,0.0
0.0,0.0,0.0,0.0
0.0,0.0,0.0,0.0
-10684.0,20097.0,30572.0,0.0
-10729.0,19681.0,30676.0,0.0
-10788.0,19292.0,30818.0,0.0
-10840.0,18891.0,30939.0,0.0
-10853.0,18425.0,30948.0,0.0
-11836.0,19568.0,33720.0,0.0
-11821.0,19025.0,33647.0,0.0
-11758.0,18415.0,33437.0,0.0
-11764.0,17919.0,33419.0,0.0
-11755.0,17409.0,33361.0,0.0
-11698.0,16835.0,33165.0,0.0
-10550.0,14747.0,29880.0,0.0
-11654.0,15813.0,32974.0,0.0
-10913.0,14365.0,30842.0,0.0
-10927.0,13946.0,30847.0,0.0
-10926.0,13512.0,30809.0,0.0
-10869.0,13015.0,30615.0,0.0
-10879.0,12604.0,30608.0,0.0
-11005.0,12327.0,30926.0,0.0
-11382.0,12315.0,31948.0,0.0
-11495.0,12003.0,32223.0,0.0
-11499.0,11578.0,32196.0,0.0
-11453.0,11107.0,32030.0,0.0
-11468.0,10699.0,32029.0,0.0
-11425.0,10243.0,31868.0,0.0
-11383.0,9794.0,31708.0,0.0
-11342.0,9353.0,31553.0,0.0
-11435.0,9021.0,31766.0,0.0
-11728.0,8840.0,32537.0,0.0
-12049.0,8659.0,33379.0,0.0
-12394.0,8476.0,34287.0,0.0
-10266.0,6666.0,28358.0,0.0
-10516.0,6468.0,29007.0,0.0
-10766.0,6256.0,29654.0,0.0
-10826.0,5924.0,29773.0,0.0
-10802.0,5548.0,29662.0,0.0
-10775.0,5174.0,29541.0,0.0
-10751.0,4806.0,29431.0,0.0
-10742.0,4448.0,29358.0,0.0
-10715.0,4086.0,29235.0,0.0
-10681.0,3724.0,29096.0,0.0
-10672.0,3374.0,29022.0,0.0
-10656.0,3026.0,28930.0,0.0
-10649.0,2681.0,28859.0,0.0
-10602.0,2331.0,28683.0,0.0
-10600.0,1994.0,28628.0,0.0
-10573.0,1654.0,28504.0,0.0
-10563.0,1319.0,28426.0,0.0
-9899.0,925.0,26589.0,0.0
-9874.0,614.0,26474.0,0.0
-9899.0,307.0,26489.0,0.0
-10309.0,0.0,27535.0,0.0
-10903.0,-336.0,29064.0,0.0
-13601.0,-839.0,36185.0,2.0
-13457.0,-1244.0,35728.0,2.0
-13281.0,-1634.0,35191.0,2.0
-13154.0,-2020.0,34781.0,2.0
-13004.0,-2394.0,34314.0,2.0
-12840.0,-2754.0,33810.0,2.0
-12703.0,-3110.0,33380.0,2.0
-12593.0,-3464.0,33017.0,2.0
-12472.0,-3808.0,32627.0,2.0
-12367.0,-4148.0,32280.0,2.0
-12269.0,-4485.0,31951.0,2.0
-12168.0,-4814.0,31618.0,2.0
-12060.0,-5133.0,31264.0,2.0
-11978.0,-5457.0,30976.0,2.0
-11890.0,-5774.0,30678.0,2.0
-11833.0,-6100.0,30457.0,2.0
-11738.0,-6402.0,30138.0,2.0
-11657.0,-6707.0,29856.0,2.0
-11589.0,-7013.0,29604.0,2.0
-11524.0,-7319.0,29365.0,2.0
-11456.0,-7617.0,29116.0,2.0
-11387.0,-7911.0,28863.0,2.0
-11310.0,-8196.0,28592.0,2.0
-11256.0,-8493.0,28379.0,2.0
-11206.0,-8791.0,28176.0,2.0
-11163.0,-9091.0,27987.0,2.0
-11133.0,-9400.0,27834.0,2.0
-11167.0,-9765.0,27840.0,2.0
-11196.0,-10126.0,27831.0,2.0
-11273.0,-10535.0,27940.0,2.0
-11354.0,-10953.0,28055.0,2.0
-11428.0,-11369.0,28151.0,2.0
-11524.0,-11812.0,28298.0,2.0
-11603.0,-12245.0,28404.0,2.0
-11704.0,-12706.0,28556.0,2.0
-11807.0,-13178.0,28715.0,2.0
-11913.0,-13660.0,28878.0,2.0
-12002.0,-14130.0,28998.0,2.0
-12108.0,-14626.0,29152.0,2.0
-12196.0,-15108.0,29264.0,2.0
-12314.0,-15634.0,29442.0,2.0
-12417.0,-16151.0,29582.0,2.0
-12516.0,-16668.0,29709.0,2.0
-12621.0,-17201.0,29847.0,2.0
-12749.0,-17777.0,30038.0,2.0
-12876.0,-18357.0,30218.0,2.0
-13036.0,-18999.0,30476.0,2.0
-13195.0,-19649.0,30724.0,2.0
-13393.0,-20371.0,31060.0,2.0
-13648.0,-21196.0,31520.0,2.0
-13871.0,-21989.0,31901.0,2.0
-14058.0,-22742.0,32194.0,2.0
-14250.0,-23516.0,32491.0,2.0
-10987.0,-18491.0,24942.0,0.0
-10666.0,-18302.0,24104.0,0.0
-10376.0,-18147.0,23339.0,0.0
-10082.0,-17972.0,22575.0,0.0
-10018.0,-18192.0,22323.0,0.0
-9997.0,-18492.0,22168.0,0.0
-10680.0,-20117.0,23563.0,0.0
-10703.0,-20527.0,23496.0,0.0
-10727.0,-20943.0,23427.0,0.0
-10761.0,-21383.0,23377.0,0.0
-10804.0,-21848.0,23346.0,0.0
-10824.0,-22271.0,23260.0,0.0
-10843.0,-22693.0,23168.0,0.0
-10863.0,-23126.0,23079.0,0.0
-10889.0,-23575.0,22999.0,0.0
-10916.0,-24031.0,22919.0,0.0
-10968.0,-24550.0,22887.0,0.0
-10912.0,-24830.0,22628.0,0.0
-10477.0,-24232.0,21588.0,0.0
-10426.0,-24508.0,21341.0,0.0
-10379.0,-24792.0,21101.0,0.0
-732.0,-1778.0,1480.0,0.0
-714.0,-1763.0,1434.0,0.0
-33.0,-84.0,68.0,0.0
-37.0,-97.0,76.0,0.0
-40.0,-106.0,80.0,0.0
-38.0,-101.0,75.0,0.0
-41.0,-111.0,80.0,0.0
-41.0,-114.0,80.0,0.0
-44.0,-122.0,85.0,0.0
-43.0,-122.0,82.0,0.0
-48.0,-136.0,90.0,0.0
-50.0,-145.0,93.0,0.0
-48.0,-142.0,89.0,0.0
-50.0,-151.0,92.0,0.0
-47.0,-143.0,85.0,0.0
-50.0,-156.0,90.0,0.0
-53.0,-167.0,95.0,0.0
-56.0,-180.0,99.0,0.0
-56.0,-180.0,97.0,0.0
-52.0,-171.0,90.0,0.0
-56.0,-186.0,94.0,0.0
-53.0,-179.0,88.0,0.0
-58.0,-199.0,96.0,0.0
-57.0,-197.0,92.0,0.0
-59.0,-211.0,96.0,0.0
-60.0,-216.0,95.0,0.0
-60.0,-218.0,93.0,0.0
-63.0,-235.0,97.0,0.0
-62.0,-234.0,94.0,0.0
-66.0,-250.0,98.0,0.0
-73.0,-283.0,107.0,0.0
-83.0,-329.0,120.0,0.0
-81.0,-325.0,115.0,0.0
-81.0,-329.0,112.0,0.0
-79.0,-327.0,108.0,0.0
-79.0,-331.0,105.0,0.0
-76.0,-327.0,100.0,0.0
-77.0,-336.0,99.0,0.0
-76.0,-333.0,93.0,0.0
-73.0,-327.0,88.0,0.0
-73.0,-330.0,85.0,0.0
-4813.0,16286.0,14565.0,0.0
-4901.0,16221.0,14824.0,0.0
-4993.0,16167.0,15095.0,0.0
-5045.0,15974.0,15240.0,0.0
-5374.0,16646.0,16227.0,0.0
-5199.0,15749.0,15689.0,0.0
-5326.0,15779.0,16062.0,0.0
-5212.0,15100.0,15707.0,0.0
-5296.0,15002.0,15948.0,0.0
-6341.0,17565.0,19084.0,0.0
-6312.0,17094.0,18982.0,0.0
-6298.0,16673.0,18925.0,0.0
-5925.0,15333.0,17793.0,0.0
-6208.0,15701.0,18627.0,0.0
-6020.0,14877.0,18046.0,0.0
-6152.0,14856.0,18429.0,0.0
-6167.0,14548.0,18458.0,0.0
-6211.0,14312.0,18574.0,0.0
-10486.0,23598.0,31332.0,0.0
-10171.0,22346.0,30360.0,0.0
-10231.0,21943.0,30511.0,0.0
-10264.0,21487.0,30585.0,0.0
0.0,0.0,0.0,0.0
-10295.0,20512.0,30616.0,0.0
-10197.0,19815.0,30295.0,0.0
-10308.0,19530.0,30595.0,0.0
-10330.0,19076.0,30631.0,0.0
-10452.0,18805.0,30959.0,0.0
-11431.0,20034.0,33823.0,0.0
-11403.0,19458.0,33704.0,0.0
-11379.0,18900.0,33598.0,0.0
-11355.0,18348.0,33489.0,0.0
-11334.0,17811.0,33391.0,0.0
-11301.0,17264.0,33257.0,0.0
-11273.0,16731.0,33136.0,0.0
-10307.0,14856.0,30262.0,0.0
-11256.0,15747.0,33011.0,0.0
-10228.0,13880.0,29960.0,0.0
-10206.0,13426.0,29859.0,0.0
-10225.0,13031.0,29877.0,0.0
-10365.0,12789.0,30249.0,0.0
-10501.0,12533.0,30606.0,0.0
-11131.0,12843.0,32401.0,0.0
-11086.0,12354.0,32229.0,0.0
-11103.0,11939.0,32237.0,0.0
-11079.0,11485.0,32125.0,0.0
-11055.0,11036.0,32010.0,0.0
-11036.0,10598.0,31913.0,0.0
-11056.0,10200.0,31925.0,0.0
-10950.0,9693.0,31577.0,0.0
-10969.0,9304.0,31586.0,0.0
-11073.0,8985.0,31837.0,0.0
-11389.0,8827.0,32698.0,0.0
-11689.0,8636.0,33511.0,0.0
-12003.0,8437.0,34359.0,0.0
-9933.0,6629.0,28393.0,0.0
-10169.0,6426.0,29021.0,0.0
-10422.0,6220.0,29699.0,0.0
-10460.0,5878.0,29758.0,0.0
-10443.0,5506.0,29663.0,0.0
-10423.0,5137.0,29560.0,0.0
-10395.0,4767.0,29430.0,0.0
-10370.0,4403.0,29312.0,0.0
-10353.0,4045.0,29215.0,0.0
-10343.0,3694.0,29137.0,0.0
-10314.0,3339.0,29006.0,0.0
-10298.0,2991.0,28910.0,0.0
-10278.0,2645.0,28805.0,0.0
-10262.0,2303.0,28708.0,0.0
-10244.0,1964.0,28606.0,0.0
-10219.0,1625.0,28485.0,0.0
-10203.0,1291.0,28386.0,0.0
-9554.0,899.0,26533.0,0.0
-9563.0,593.0,26506.0,0.0
-9575.0,285.0,26489.0,0.0
-10003.0,-20.0,27619.0,0.0
-10543.0,-357.0,29054.0,0.0
-13118.0,-861.0,36079.0,2.0
-12990.0,-1264.0,35653.0,2.0
-12870.0,-1659.0,35252.0,2.0
-12724.0,-2040.0,34779.0,2.0
-12577.0,-2412.0,34306.0,2.0
-12430.0,-2772.0,33833.0,2.0
-12316.0,-3131.0,33450.0,2.0
-12185.0,-3478.0,33024.0,2.0
-12064.0,-3819.0,32623.0,2.0
-11949.0,-4154.0,32242.0,2.0
-11856.0,-4489.0,31920.0,2.0
-11774.0,-4823.0,31626.0,2.0
-11687.0,-5149.0,31320.0,2.0
-11590.0,-5463.0,30987.0,2.0
-11523.0,-5787.0,30731.0,2.0
-11451.0,-6104.0,30467.0,2.0
-11371.0,-6412.0,30183.0,2.0
-11291.0,-6715.0,29893.0,2.0
-11219.0,-7017.0,29631.0,2.0
-11166.0,-7328.0,29415.0,2.0
-11090.0,-7618.0,29140.0,2.0
-11019.0,-7909.0,28876.0,2.0
-10954.0,-8199.0,28630.0,2.0
-10904.0,-8497.0,28423.0,2.0
-10843.0,-8784.0,28188.0,2.0
-10807.0,-9088.0,28014.0,2.0
-10776.0,-9396.0,27857.0,2.0
-10799.0,-9750.0,27837.0,2.0
-10863.0,-10144.0,27924.0,2.0
-10909.0,-10525.0,27958.0,2.0
-10989.0,-10943.0,28079.0,2.0
-11046.0,-11345.0,28141.0,2.0
-11106.0,-11752.0,28206.0,2.0
-11221.0,-12225.0,28409.0,2.0
-11319.0,-12686.0,28569.0,2.0
-11410.0,-13146.0,28705.0,2.0
-11503.0,-13616.0,28846.0,2.0
-11615.0,-14115.0,29030.0,2.0
-11719.0,-14613.0,29193.0,2.0
-11802.0,-15090.0,29297.0,2.0
-11921.0,-15624.0,29492.0,2.0
-12009.0,-16123.0,29605.0,2.0
-12121.0,-16662.0,29773.0,2.0
-12216.0,-17187.0,29899.0,2.0
-12323.0,-17737.0,30047.0,2.0
-12458.0,-18337.0,30264.0,2.0
-12601.0,-18958.0,30494.0,2.0
-12752.0,-19605.0,30739.0,2.0
-12932.0,-20308.0,31051.0,2.0
-13170.0,-21117.0,31493.0,2.0
-13370.0,-21883.0,31841.0,2.0
-13576.0,-22676.0,32197.0,2.0
-13743.0,-23418.0,32455.0,2.0
-10630.0,-18474.0,24995.0,0.0
-10346.0,-18334.0,24220.0,0.0
-10050.0,-18153.0,23421.0,0.0
-9768.0,-17982.0,22661.0,0.0
-9661.0,-18121.0,22308.0,0.0
-9628.0,-18396.0,22127.0,0.0
-10306.0,-20054.0,23570.0,0.0
-10337.0,-20481.0,23522.0,0.0
-10345.0,-20866.0,23422.0,0.0
-10377.0,-21305.0,23374.0,0.0
-10394.0,-21718.0,23289.0,0.0
-10403.0,-22117.0,23185.0,0.0
-10448.0,-22598.0,23157.0,0.0
-10451.0,-22994.0,23035.0,0.0
-10502.0,-23500.0,23014.0,0.0
-10500.0,-23894.0,22877.0,0.0
-10560.0,-24434.0,22871.0,0.0
-10485.0,-24667.0,22571.0,0.0
-10137.0,-24243.0,21685.0,0.0
-10053.0,-24437.0,21367.0,0.0
-10010.0,-24731.0,21138.0,0.0
-692.0,-1740.0,1454.0,0.0
-43.0,-110.0,90.0,0.0
-39.0,-103.0,83.0,0.0
-34.0,-91.0,71.0,0.0
-37.0,-101.0,77.0,0.0
-45.0,-123.0,92.0,0.0
-39.0,-108.0,79.0,0.0
-40.0,-114.0,81.0,0.0
-46.0,-131.0,91.0,0.0
-40.0,-118.0,80.0,0.0
-44.0,-131.0,87.0,0.0
-46.0,-139.0,90.0,0.0
-51.0,-156.0,98.0,0.0
-46.0,-146.0,90.0,0.0
-51.0,-162.0,97.0,0.0
-52.0,-167.0,97.0,0.0
-52.0,-167.0,96.0,0.0
-52.0,-171.0,95.0,0.0
-54.0,-183.0,99.0,0.0
-55.0,-188.0,99.0,0.0
-55.0,-191.0,98.0,0.0
-56.0,-198.0,99.0,0.0
-56.0,-201.0,97.0,0.0
-61.0,-221.0,104.0,0.0
-58.0,-215.0,98.0,0.0
-60.0,-223.0,99.0,0.0
-56.0,-215.0,92.0,0.0
-59.0,-231.0,97.0,0.0
-64.0,-252.0,102.0,0.0
-61.0,-244.0,95.0,0.0
-69.0,-280.0,106.0,0.0
-78.0,-318.0,118.0,0.0
-77.0,-321.0,114.0,0.0
-77.0,-325.0,112.0,0.0
-75.0,-322.0,107.0,0.0
-74.0,-324.0,104.0,0.0
-72.0,-320.0,99.0,0.0
-72.0,-325.0,96.0,0.0
-72.0,-327.0,93.0,0.0
-69.0,-320.0,87.0,0.0
-69.0,-326.0,85.0,0.0
-4623.0,16277.0,14633.0,0.0
-4707.0,16208.0,14888.0,0.0
-4799.0,16157.0,15163.0,0.0
-4887.0,16088.0,15426.0,0.0
-4982.0,16035.0,15711.0,0.0
-4891.0,15393.0,15411.0,0.0
-5120.0,15756.0,16119.0,0.0
-5167.0,15542.0,16249.0,0.0
-5119.0,15053.0,16083.0,0.0
