//X,Y,Z,Classification
731.0,-723.0,1958.0,0.0
11104.0,-10638.0,29807.0,1.0
722.0,-668.0,1945.0,0.0
736.0,-657.0,1987.0,0.0
11140.0,-9600.0,30160.0,1.0
742.0,-616.0,2018.0,0.0
742.0,-592.0,2022.0,0.0
728.0,-557.0,1988.0,0.0
745.0,-546.0,2039.0,0.0
11224.0,-7879.0,30806.0,1.0
735.0,-493.0,2026.0,0.0
730.0,-466.0,2018.0,0.0
11284.0,-6840.0,31215.0,1.0
772.0,-443.0,2141.0,0.0
741.0,-402.0,2061.0,0.0
736.0,-376.0,2054.0,0.0
741.0,-354.0,2071.0,0.0
733.0,-327.0,2054.0,0.0
745.0,-308.0,2092.0,0.0
725.0,-277.0,2043.0,0.0
753.0,-264.0,2126.0,0.0
748.0,-238.0,2115.0,0.0
739.0,-210.0,2098.0,0.0
745.0,-189.0,2121.0,0.0
1.0,0.0,3.0,0.0
726.0,-136.0,2076.0,0.0
729.0,-113.0,2088.0,0.0
5.0,-1.0,15.0,0.0
0.0,0.0,0.0,0.0
4.0,0.0,13.0,0.0
5.0,0.0,17.0,0.0
7.0,0.0,24.0,0.0
11.0,0.0,35.0,0.0
5.0,0.0,17.0,0.0
6.0,0.0,22.0,0.0
10.0,1.0,31.0,0.0
13.0,2.0,41.0,0.0
9.0,1.0,28.0,0.0
13.0,2.0,39.0,0.0
13.0,3.0,40.0,0.0
15.0,5.0,49.0,0.0
18.0,6.0,56.0,0.0
19.0,7.0,59.0,0.0
17.0,7.0,50.0,0.0
22.0,10.0,69.0,0.0
22.0,10.0,67.0,0.0
26.0,14.0,79.0,0.0
26.0,14.0,81.0,0.0
22.0,13.0,68.0,0.0
28.0,18.0,87.0,0.0
23.0,15.0,73.0,0.0
23.0,16.0,72.0,0.0
29.0,21.0,87.0,0.0
29.0,23.0,90.0,0.0
29.0,24.0,88.0,0.0
25.0,21.0,77.0,0.0
26.0,24.0,82.0,0.0
26.0,25.0,82.0,0.0
27.0,27.0,86.0,0.0
27.0,28.0,86.0,0.0
29.0,32.0,91.0,0.0
28.0,31.0,87.0,0.0
26.0,30.0,84.0,0.0
28.0,33.0,88.0,0.0
26.0,32.0,82.0,0.0
25.0,33.0,80.0,0.0
25.0,35.0,82.0,0.0
25.0,35.0,80.0,0.0
24.0,35.0,77.0,0.0
25.0,37.0,80.0,0.0
24.0,36.0,78.0,0.0
24.0,38.0,79.0,0.0
20.0,32.0,65.0,0.0
23.0,37.0,74.0,0.0
25.0,44.0,83.0,0.0
21.0,39.0,71.0,0.0
20.0,37.0,66.0,0.0
21.0,40.0,70.0,0.0
20.0,40.0,68.0,0.0
21.0,42.0,70.0,0.0
23.0,46.0,75.0,0.0
22.0,45.0,71.0,0.0
22.0,48.0,74.0,0.0
23.0,51.0,77.0,0.0
24.0,55.0,80.0,0.0
23.0,56.0,80.0,0.0
23.0,54.0,76.0,0.0
26.0,64.0,87.0,0.0
26.0,65.0,86.0,0.0
25.0,65.0,84.0,0.0
28.0,72.0,92.0,0.0
28.0,74.0,92.0,0.0
29.0,79.0,96.0,0.0
28.0,81.0,95.0,0.0
29.0,83.0,97.0,0.0
29.0,87.0,99.0,0.0
30.0,91.0,100.0,0.0
29.0,91.0,98.0,0.0
31.0,97.0,104.0,0.0
31.0,102.0,106.0,0.0
33.0,109.0,111.0,0.0
32.0,109.0,109.0,0.0
31.0,109.0,106.0,0.0
31.0,112.0,107.0,0.0
32.0,119.0,111.0,0.0
31.0,119.0,108.0,0.0
32.0,126.0,113.0,0.0
52.0,-278.0,76.0,0.0
51.0,-271.0,77.0,0.0
55.0,-282.0,84.0,0.0
54.0,-277.0,85.0,0.0
57.0,-282.0,90.0,0.0
58.0,-287.0,95.0,0.0
58.0,-280.0,96.0,0.0
59.0,-282.0,101.0,0.0
60.0,-278.0,103.0,0.0
61.0,-278.0,106.0,0.0
61.0,-275.0,108.0,0.0
64.0,-281.0,114.0,0.0
64.0,-277.0,115.0,0.0
65.0,-275.0,118.0,0.0
66.0,-277.0,122.0,0.0
66.0,-274.0,125.0,0.0
67.0,-271.0,128.0,0.0
68.0,-273.0,132.0,0.0
72.0,-280.0,139.0,0.0
72.0,-275.0,140.0,0.0
70.0,-264.0,139.0,0.0
70.0,-261.0,141.0,0.0
75.0,-275.0,152.0,0.0
76.0,-275.0,156.0,0.0
74.0,-263.0,153.0,0.0
74.0,-259.0,155.0,0.0
68.0,-234.0,144.0,0.0
67.0,-227.0,142.0,0.0
64.0,-215.0,139.0,0.0
64.0,-208.0,137.0,0.0
60.0,-193.0,131.0,0.0
56.0,-177.0,123.0,0.0
52.0,-162.0,115.0,0.0
53.0,-165.0,120.0,0.0
53.0,-161.0,121.0,0.0
49.0,-147.0,112.0,0.0
46.0,-138.0,107.0,0.0
45.0,-130.0,103.0,0.0
41.0,-116.0,95.0,0.0
41.0,-115.0,95.0,0.0
40.0,-109.0,93.0,0.0
32.0,-87.0,76.0,0.0
37.0,-98.0,87.0,0.0
32.0,-83.0,75.0,0.0
33.0,-85.0,80.0,0.0
8263.0,-20575.0,19606.0,0.0
8248.0,-20187.0,19674.0,0.0
8246.0,-19837.0,19773.0,0.0
8238.0,-19475.0,19855.0,0.0
8225.0,-19108.0,19925.0,0.0
8216.0,-18753.0,20002.0,0.0
8202.0,-18391.0,20066.0,0.0
8197.0,-18053.0,20147.0,0.0
8177.0,-17686.0,20194.0,0.0
8178.0,-17367.0,20288.0,0.0
8179.0,-17053.0,20385.0,0.0
8219.0,-16819.0,20573.0,0.0
8438.0,-16945.0,21213.0,0.0
8593.0,-16928.0,21694.0,0.0
8574.0,-16569.0,21737.0,0.0
8696.0,-16480.0,22138.0,0.0
8941.0,-16613.0,22854.0,0.0
9227.0,-16804.0,23680.0,0.0
693.0,-1238.0,1788.0,0.0
10656.0,-18630.0,27561.0,1.0
10755.0,-18414.0,27923.0,1.0
0.0,0.0,0.0,0.0
10760.0,-17652.0,28144.0,1.0
702.0,-1128.0,1845.0,0.0
714.0,-1121.0,1882.0,0.0
724.0,-1111.0,1916.0,0.0
719.0,-1078.0,1909.0,0.0
691.0,-1013.0,1842.0,0.0
720.0,-1031.0,1925.0,0.0
718.0,-1003.0,1926.0,0.0
715.0,-973.0,1924.0,0.0
720.0,-956.0,1943.0,0.0
717.0,-927.0,1942.0,0.0
10650.0,-13413.0,28919.0,1.0
709.0,-870.0,1935.0,0.0
10659.0,-12703.0,29122.0,1.0
714.0,-826.0,1956.0,0.0
10741.0,-12079.0,29525.0,1.0
740.0,-808.0,2043.0,0.0
0.0,0.0,0.0,0.0
10767.0,-11031.0,29859.0,1.0
738.0,-731.0,2053.0,0.0
721.0,-691.0,2014.0,0.0
0.0,0.0,0.0,0.0
729.0,-650.0,2048.0,0.0
733.0,-628.0,2061.0,0.0
726.0,-600.0,2052.0,0.0
737.0,-584.0,2089.0,0.0
719.0,-546.0,2039.0,0.0
735.0,-533.0,2090.0,0.0
730.0,-506.0,2081.0,0.0
735.0,-485.0,2103.0,0.0
715.0,-450.0,2050.0,0.0
10908.0,-6491.0,31337.0,1.0
732.0,-412.0,2113.0,0.0
10966.0,-5801.0,31663.0,1.0
712.0,-353.0,2063.0,0.0
741.0,-344.0,2154.0,0.0
739.0,-317.0,2151.0,0.0
711.0,-282.0,2076.0,0.0
723.0,-263.0,2114.0,0.0
738.0,-243.0,2163.0,0.0
724.0,-215.0,2128.0,0.0
722.0,-190.0,2126.0,0.0
714.0,-164.0,2109.0,0.0
721.0,-141.0,2133.0,0.0
8.0,-2.0,28.0,0.0
11.0,-2.0,33.0,0.0
8.0,-1.0,28.0,0.0
11.0,0.0,35.0,0.0
10.0,0.0,30.0,0.0
12.0,0.0,38.0,0.0
10.0,0.0,30.0,0.0
8.0,0.0,28.0,0.0
16.0,1.0,49.0,0.0
17.0,1.0,55.0,0.0
19.0,3.0,58.0,0.0
21.0,4.0,67.0,0.0
15.0,3.0,47.0,0.0
15.0,4.0,46.0,0.0
20.0,6.0,62.0,0.0
20.0,6.0,62.0,0.0
21.0,8.0,67.0,0.0
26.0,11.0,83.0,0.0
22.0,10.0,71.0,0.0
26.0,13.0,85.0,0.0
25.0,14.0,79.0,0.0
24.0,13.0,75.0,0.0
30.0,19.0,94.0,0.0
27.0,18.0,88.0,0.0
31.0,22.0,101.0,0.0
28.0,21.0,90.0,0.0
33.0,26.0,106.0,0.0
30.0,25.0,98.0,0.0
29.0,25.0,94.0,0.0
30.0,28.0,99.0,0.0
32.0,30.0,103.0,0.0
34.0,33.0,110.0,0.0
35.0,36.0,114.0,0.0
32.0,35.0,104.0,0.0
28.0,32.0,93.0,0.0
33.0,38.0,108.0,0.0
32.0,39.0,105.0,0.0
29.0,36.0,97.0,0.0
30.0,39.0,100.0,0.0
32.0,43.0,105.0,0.0
31.0,43.0,101.0,0.0
30.0,44.0,101.0,0.0
32.0,48.0,106.0,0.0
29.0,44.0,98.0,0.0
28.0,44.0,94.0,0.0
26.0,42.0,85.0,0.0
28.0,47.0,94.0,0.0
30.0,52.0,100.0,0.0
30.0,54.0,102.0,0.0
24.0,45.0,82.0,0.0
26.0,49.0,88.0,0.0
27.0,52.0,92.0,0.0
27.0,54.0,92.0,0.0
29.0,59.0,98.0,0.0
27.0,57.0,92.0,0.0
26.0,57.0,91.0,0.0
23.0,53.0,82.0,0.0
25.0,56.0,86.0,0.0
26.0,61.0,89.0,0.0
25.0,60.0,86.0,0.0
26.0,67.0,93.0,0.0
26.0,67.0,92.0,0.0
26.0,68.0,91.0,0.0
26.0,71.0,93.0,0.0
28.0,75.0,96.0,0.0
28.0,79.0,98.0,0.0
29.0,84.0,102.0,0.0
28.0,83.0,99.0,0.0
28.0,87.0,101.0,0.0
29.0,90.0,103.0,0.0
30.0,94.0,104.0,0.0
29.0,95.0,102.0,0.0
31.0,102.0,109.0,0.0
31.0,106.0,111.0,0.0
33.0,113.0,116.0,0.0
32.0,114.0,114.0,0.0
32.0,117.0,114.0,0.0
32.0,119.0,115.0,0.0
31.0,119.0,112.0,0.0
32.0,127.0,116.0,0.0
34.0,136.0,121.0,0.0
48.0,-275.0,76.0,0.0
48.0,-266.0,77.0,0.0
49.0,-270.0,81.0,0.0
50.0,-271.0,84.0,0.0
50.0,-265.0,86.0,0.0
53.0,-270.0,90.0,0.0
54.0,-273.0,95.0,0.0
54.0,-270.0,96.0,0.0
56.0,-274.0,101.0,0.0
55.0,-260.0,99.0,0.0
56.0,-264.0,104.0,0.0
58.0,-272.0,111.0,0.0
58.0,-266.0,112.0,0.0
59.0,-262.0,114.0,0.0
61.0,-267.0,120.0,0.0
61.0,-264.0,121.0,0.0
63.0,-266.0,127.0,0.0
63.0,-262.0,127.0,0.0
64.0,-259.0,129.0,0.0
65.0,-263.0,135.0,0.0
65.0,-257.0,136.0,0.0
65.0,-251.0,136.0,0.0
68.0,-262.0,146.0,0.0
68.0,-259.0,148.0,0.0
66.0,-245.0,143.0,0.0
64.0,-236.0,141.0,0.0
62.0,-222.0,137.0,0.0
60.0,-211.0,133.0,0.0
58.0,-199.0,129.0,0.0
56.0,-192.0,127.0,0.0
52.0,-174.0,118.0,0.0
51.0,-168.0,117.0,0.0
50.0,-161.0,114.0,0.0
45.0,-141.0,103.0,0.0
46.0,-145.0,108.0,0.0
42.0,-130.0,100.0,0.0
43.0,-132.0,103.0,0.0
34.0,-104.0,84.0,0.0
36.0,-107.0,88.0,0.0
37.0,-106.0,89.0,0.0
35.0,-101.0,86.0,0.0
34.0,-97.0,85.0,0.0
33.0,-93.0,83.0,0.0
21.0,-59.0,54.0,0.0
26.0,-68.0,64.0,0.0
7939.0,-20514.0,19618.0,0.0
7921.0,-20113.0,19672.0,0.0
7915.0,-19753.0,19758.0,0.0
7912.0,-19404.0,19851.0,0.0
7909.0,-19056.0,19938.0,0.0
7890.0,-18677.0,19986.0,0.0
7883.0,-18330.0,20063.0,0.0
7877.0,-17987.0,20139.0,0.0
7865.0,-17637.0,20202.0,0.0
7862.0,-17309.0,20284.0,0.0
7863.0,-16992.0,20374.0,0.0
7946.0,-16852.0,20675.0,0.0
8072.0,-16800.0,21096.0,0.0
8275.0,-16894.0,21712.0,0.0
8241.0,-16504.0,21713.0,0.0
8376.0,-16448.0,22158.0,0.0
8640.0,-16632.0,22944.0,0.0
8900.0,-16793.0,23729.0,0.0
680.0,-1258.0,1821.0,0.0
675.0,-1222.0,1815.0,0.0
683.0,-1214.0,1845.0,0.0
678.0,-1178.0,1837.0,0.0
680.0,-1156.0,1849.0,0.0
10425.0,-17331.0,28414.0,1.0
678.0,-1102.0,1856.0,0.0
10574.0,-16805.0,29022.0,1.0
692.0,-1076.0,1908.0,0.0
10629.0,-16125.0,29371.0,1.0
690.0,-1022.0,1915.0,0.0
679.0,-982.0,1892.0,0.0
10479.0,-14775.0,29243.0,1.0
10370.0,-14253.0,29028.0,1.0
0.0,0.0,0.0,0.0
675.0,-881.0,1905.0,0.0
10376.0,-13168.0,29320.0,1.0
683.0,-844.0,1939.0,0.0
10446.0,-12529.0,29697.0,1.0
685.0,-798.0,1956.0,0.0
689.0,-778.0,1971.0,0.0
687.0,-754.0,1974.0,0.0
679.0,-721.0,1956.0,0.0
10507.0,-10787.0,30308.0,1.0
10521.0,-10441.0,30434.0,1.0
710.0,-681.0,2063.0,0.0
708.0,-654.0,2061.0,0.0
720.0,-641.0,2103.0,0.0
683.0,-584.0,1999.0,0.0
712.0,-585.0,2092.0,0.0
700.0,-551.0,2060.0,0.0
698.0,-526.0,2060.0,0.0
705.0,-507.0,2086.0,0.0
699.0,-479.0,2073.0,0.0
0.0,0.0,0.0,0.0
698.0,-431.0,2081.0,0.0
699.0,-409.0,2091.0,0.0
688.0,-377.0,2061.0,0.0
694.0,-358.0,2087.0,0.0
701.0,-338.0,2113.0,0.0
691.0,-309.0,2083.0,0.0
687.0,-283.0,2080.0,0.0
692.0,-262.0,2098.0,0.0
687.0,-237.0,2092.0,0.0
704.0,-218.0,2145.0,0.0
698.0,-192.0,2135.0,0.0
688.0,-164.0,2107.0,0.0
685.0,-140.0,2103.0,0.0
675.0,-115.0,2076.0,0.0
1.0,-1.0,4.0,0.0
3.0,0.0,12.0,0.0
6.0,0.0,20.0,0.0
7.0,-1.0,23.0,0.0
8.0,0.0,26.0,0.0
7.0,0.0,24.0,0.0
13.0,0.0,44.0,0.0
6.0,0.0,21.0,0.0
10.0,1.0,34.0,0.0
13.0,1.0,43.0,0.0
15.0,2.0,51.0,0.0
13.0,3.0,44.0,0.0
8.0,2.0,29.0,0.0
13.0,4.0,43.0,0.0
17.0,6.0,55.0,0.0
12.0,5.0,42.0,0.0
18.0,7.0,58.0,0.0
20.0,10.0,69.0,0.0
23.0,12.0,76.0,0.0
20.0,10.0,66.0,0.0
22.0,13.0,74.0,0.0
20.0,13.0,68.0,0.0
24.0,16.0,79.0,0.0
23.0,17.0,78.0,0.0
22.0,16.0,72.0,0.0
24.0,19.0,80.0,0.0
28.0,22.0,91.0,0.0
23.0,20.0,77.0,0.0
25.0,24.0,85.0,0.0
25.0,25.0,87.0,0.0
29.0,29.0,98.0,0.0
27.0,28.0,92.0,0.0
29.0,32.0,97.0,0.0
29.0,33.0,98.0,0.0
25.0,30.0,87.0,0.0
30.0,37.0,102.0,0.0
27.0,35.0,93.0,0.0
26.0,34.0,88.0,0.0
24.0,34.0,85.0,0.0
23.0,34.0,81.0,0.0
25.0,38.0,87.0,0.0
22.0,34.0,78.0,0.0
23.0,38.0,83.0,0.0
20.0,33.0,70.0,0.0
22.0,37.0,76.0,0.0
24.0,42.0,85.0,0.0
23.0,43.0,84.0,0.0
22.0,41.0,78.0,0.0
20.0,39.0,71.0,0.0
20.0,40.0,72.0,0.0
22.0,46.0,81.0,0.0
22.0,46.0,79.0,0.0
22.0,47.0,78.0,0.0
21.0,46.0,76.0,0.0
20.0,45.0,71.0,0.0
22.0,51.0,80.0,0.0
22.0,55.0,83.0,0.0
22.0,53.0,80.0,0.0
22.0,56.0,81.0,0.0
21.0,56.0,78.0,0.0
24.0,63.0,86.0,0.0
23.0,63.0,84.0,0.0
24.0,67.0,87.0,0.0
23.0,67.0,85.0,0.0
24.0,69.0,87.0,0.0
24.0,74.0,91.0,0.0
27.0,80.0,97.0,0.0
25.0,80.0,94.0,0.0
26.0,84.0,97.0,0.0
27.0,88.0,99.0,0.0
26.0,88.0,98.0,0.0
26.0,92.0,99.0,0.0
27.0,99.0,104.0,0.0
27.0,100.0,103.0,0.0
29.0,107.0,107.0,0.0
27.0,106.0,105.0,0.0
29.0,113.0,109.0,0.0
30.0,122.0,115.0,0.0
29.0,120.0,111.0,0.0
28.0,121.0,109.0,0.0
46.0,-276.0,76.0,0.0
46.0,-269.0,78.0,0.0
49.0,-280.0,84.0,0.0
48.0,-270.0,85.0,0.0
50.0,-274.0,89.0,0.0
50.0,-272.0,92.0,0.0
51.0,-271.0,95.0,0.0
53.0,-277.0,100.0,0.0
53.0,-271.0,101.0,0.0
54.0,-274.0,106.0,0.0
55.0,-271.0,109.0,0.0
57.0,-276.0,113.0,0.0
58.0,-273.0,115.0,0.0
58.0,-267.0,117.0,0.0
59.0,-271.0,122.0,0.0
61.0,-275.0,127.0,0.0
61.0,-272.0,130.0,0.0
62.0,-268.0,132.0,0.0
64.0,-274.0,138.0,0.0
64.0,-268.0,139.0,0.0
63.0,-262.0,138.0,0.0
64.0,-263.0,143.0,0.0
68.0,-273.0,152.0,0.0
66.0,-259.0,149.0,0.0
66.0,-256.0,150.0,0.0
65.0,-247.0,149.0,0.0
60.0,-224.0,138.0,0.0
60.0,-221.0,140.0,0.0
56.0,-205.0,133.0,0.0
50.0,-179.0,119.0,0.0
49.0,-171.0,117.0,0.0
54.0,-186.0,129.0,0.0
49.0,-166.0,119.0,0.0
46.0,-155.0,114.0,0.0
47.0,-154.0,116.0,0.0
42.0,-136.0,104.0,0.0
39.0,-124.0,97.0,0.0
38.0,-119.0,96.0,0.0
35.0,-108.0,89.0,0.0
36.0,-109.0,93.0,0.0
35.0,-105.0,91.0,0.0
34.0,-101.0,88.0,0.0
33.0,-94.0,85.0,0.0
33.0,-92.0,84.0,0.0
32.0,-89.0,83.0,0.0
7611.0,-20432.0,19608.0,0.0
7610.0,-20077.0,19704.0,0.0
7602.0,-19709.0,19781.0,0.0
7598.0,-19354.0,19864.0,0.0
7588.0,-18986.0,19931.0,0.0
7583.0,-18639.0,20010.0,0.0
7574.0,-18286.0,20078.0,0.0
7571.0,-17947.0,20158.0,0.0
7558.0,-17591.0,20212.0,0.0
7560.0,-17276.0,20306.0,0.0
7551.0,-16937.0,20369.0,0.0
7664.0,-16868.0,20756.0,0.0
8364.0,-18063.0,22747.0,0.0
7906.0,-16749.0,21589.0,0.0
7911.0,-16436.0,21687.0,0.0
8104.0,-16509.0,22302.0,0.0
8336.0,-16648.0,23030.0,0.0
8602.0,-16837.0,23854.0,0.0
9849.0,-18887.0,27412.0,1.0
9901.0,-18599.0,27658.0,1.0
654.0,-1204.0,1836.0,0.0
0.0,0.0,0.0,0.0
651.0,-1147.0,1838.0,0.0
658.0,-1134.0,1865.0,0.0
10157.0,-17125.0,28876.0,1.0
652.0,-1076.0,1864.0,0.0
664.0,-1071.0,1903.0,0.0
660.0,-1039.0,1898.0,0.0
10251.0,-15744.0,29530.0,1.0
10125.0,-15175.0,29261.0,1.0
10088.0,-14747.0,29245.0,1.0
681.0,-971.0,1983.0,0.0
663.0,-921.0,1936.0,0.0
656.0,-887.0,1921.0,0.0
677.0,-891.0,1987.0,0.0
10093.0,-12915.0,29710.0,1.0
677.0,-843.0,2001.0,0.0
671.0,-810.0,1990.0,0.0
684.0,-802.0,2035.0,0.0
685.0,-779.0,2043.0,0.0
681.0,-748.0,2033.0,0.0
664.0,-707.0,1992.0,0.0
676.0,-696.0,2033.0,0.0
0.0,0.0,0.0,0.0
678.0,-650.0,2051.0,0.0
10226.0,-9438.0,30967.0,1.0
0.0,0.0,0.0,0.0
0.0,0.0,0.0,0.0
10335.0,-8444.0,31549.0,1.0
660.0,-515.0,2022.0,0.0
689.0,-514.0,2119.0,0.0
675.0,-480.0,2081.0,0.0
677.0,-458.0,2087.0,0.0
10247.0,-6566.0,31685.0,1.0
691.0,-419.0,2142.0,0.0
676.0,-386.0,2103.0,0.0
677.0,-363.0,2111.0,0.0
669.0,-335.0,2091.0,0.0
667.0,-310.0,2094.0,0.0
676.0,-290.0,2122.0,0.0
674.0,-265.0,2123.0,0.0
684.0,-245.0,2161.0,0.0
679.0,-219.0,2149.0,0.0
676.0,-194.0,2143.0,0.0
674.0,-169.0,2142.0,0.0
676.0,-145.0,2157.0,0.0
668.0,-119.0,2135.0,0.0
667.0,-95.0,2135.0,0.0
8.0,-1.0,28.0,0.0
1.0,0.0,5.0,0.0
6.0,0.0,22.0,0.0
4.0,0.0,18.0,0.0
10.0,0.0,35.0,0.0
8.0,0.0,27.0,0.0
9.0,0.0,31.0,0.0
11.0,1.0,38.0,0.0
12.0,2.0,44.0,0.0
10.0,2.0,35.0,0.0
13.0,3.0,45.0,0.0
16.0,4.0,53.0,0.0
17.0,6.0,60.0,0.0
17.0,7.0,60.0,0.0
17.0,7.0,58.0,0.0
17.0,8.0,59.0,0.0
21.0,10.0,71.0,0.0
24.0,13.0,84.0,0.0
27.0,15.0,92.0,0.0
21.0,13.0,74.0,0.0
23.0,15.0,81.0,0.0
24.0,17.0,84.0,0.0
24.0,18.0,86.0,0.0
25.0,20.0,89.0,0.0
27.0,23.0,94.0,0.0
28.0,24.0,97.0,0.0
29.0,26.0,101.0,0.0
29.0,28.0,103.0,0.0
26.0,26.0,89.0,0.0
27.0,28.0,94.0,0.0
28.0,31.0,98.0,0.0
29.0,34.0,104.0,0.0
27.0,32.0,95.0,0.0
29.0,37.0,105.0,0.0
31.0,41.0,110.0,0.0
29.0,39.0,105.0,0.0
27.0,38.0,96.0,0.0
27.0,39.0,97.0,0.0
26.0,39.0,94.0,0.0
27.0,42.0,97.0,0.0
28.0,45.0,103.0,0.0
26.0,42.0,93.0,0.0
22.0,39.0,82.0,0.0
23.0,42.0,86.0,0.0
22.0,41.0,83.0,0.0
24.0,45.0,88.0,0.0
25.0,47.0,90.0,0.0
22.0,46.0,85.0,0.0
23.0,47.0,85.0,0.0
22.0,47.0,82.0,0.0
24.0,51.0,89.0,0.0
24.0,54.0,91.0,0.0
24.0,54.0,90.0,0.0
24.0,56.0,88.0,0.0
22.0,54.0,84.0,0.0
23.0,55.0,84.0,0.0
23.0,58.0,87.0,0.0
23.0,59.0,85.0,0.0
23.0,63.0,89.0,0.0
24.0,65.0,90.0,0.0
23.0,63.0,86.0,0.0
23.0,66.0,87.0,0.0
23.0,67.0,87.0,0.0
24.0,73.0,92.0,0.0
24.0,74.0,92.0,0.0
26.0,85.0,101.0,0.0
24.0,80.0,94.0,0.0
26.0,88.0,102.0,0.0
27.0,93.0,105.0,0.0
26.0,93.0,102.0,0.0
25.0,92.0,99.0,0.0
27.0,101.0,106.0,0.0
28.0,108.0,111.0,0.0
27.0,107.0,109.0,0.0
27.0,111.0,110.0,0.0
27.0,114.0,111.0,0.0
29.0,123.0,116.0,0.0
29.0,124.0,116.0,0.0
29.0,128.0,116.0,0.0
43.0,-268.0,76.0,0.0
42.0,-260.0,76.0,0.0
44.0,-264.0,80.0,0.0
45.0,-268.0,84.0,0.0
45.0,-264.0,86.0,0.0
47.0,-270.0,92.0,0.0
48.0,-267.0,95.0,0.0
48.0,-267.0,98.0,0.0
50.0,-270.0,102.0,0.0
49.0,-262.0,102.0,0.0
52.0,-268.0,107.0,0.0
52.0,-264.0,109.0,0.0
52.0,-260.0,111.0,0.0
54.0,-264.0,116.0,0.0
54.0,-261.0,117.0,0.0
56.0,-264.0,123.0,0.0
56.0,-260.0,125.0,0.0
58.0,-265.0,130.0,0.0
58.0,-260.0,131.0,0.0
58.0,-257.0,133.0,0.0
58.0,-249.0,133.0,0.0
57.0,-241.0,132.0,0.0
65.0,-271.0,153.0,0.0
61.0,-252.0,145.0,0.0
61.0,-248.0,147.0,0.0
57.0,-228.0,138.0,0.0
55.0,-218.0,135.0,0.0
55.0,-212.0,135.0,0.0
51.0,-192.0,126.0,0.0
48.0,-178.0,118.0,0.0
43.0,-160.0,110.0,0.0
48.0,-173.0,121.0,0.0
47.0,-166.0,119.0,0.0
40.0,-141.0,103.0,0.0
40.0,-137.0,102.0,0.0
36.0,-124.0,95.0,0.0
36.0,-119.0,94.0,0.0
38.0,-125.0,101.0,0.0
35.0,-112.0,92.0,0.0
35.0,-112.0,94.0,0.0
30.0,-93.0,81.0,0.0
31.0,-96.0,84.0,0.0
27.0,-83.0,75.0,0.0
33.0,-97.0,90.0,0.0
27.0,-80.0,75.0,0.0
25.0,-70.0,67.0,0.0
7282.0,-19993.0,19686.0,0.0
7296.0,-19679.0,19816.0,0.0
7277.0,-19284.0,19856.0,0.0
7276.0,-18937.0,19941.0,0.0
7271.0,-18587.0,20018.0,0.0
7257.0,-18218.0,20065.0,0.0
7262.0,-17898.0,20164.0,0.0
7247.0,-17537.0,20209.0,0.0
7247.0,-17214.0,20293.0,0.0
7238.0,-16874.0,20352.0,0.0
7378.0,-16878.0,20828.0,0.0
8091.0,-18156.0,22929.0,0.0
7591.0,-16708.0,21596.0,0.0
7592.0,-16389.0,21682.0,0.0
7792.0,-16490.0,22336.0,0.0
8033.0,-16665.0,23113.0,0.0
8276.0,-16824.0,23897.0,0.0
9511.0,-18944.0,27563.0,1.0
621.0,-1213.0,1808.0,0.0
621.0,-1188.0,1816.0,0.0
636.0,-1190.0,1865.0,0.0
636.0,-1165.0,1873.0,0.0
631.0,-1129.0,1861.0,0.0
644.0,-1128.0,1907.0,0.0
636.0,-1090.0,1891.0,0.0
659.0,-1103.0,1965.0,0.0
624.0,-1021.0,1868.0,0.0
647.0,-1032.0,1942.0,0.0
649.0,-1010.0,1953.0,0.0
636.0,-966.0,1920.0,0.0
0.0,0.0,0.0,0.0
9644.0,-13902.0,29260.0,1.0
644.0,-905.0,1963.0,0.0
637.0,-870.0,1946.0,0.0
649.0,-863.0,1989.0,0.0
640.0,-827.0,1969.0,0.0
653.0,-819.0,2013.0,0.0
9873.0,-12009.0,30479.0,1.0
660.0,-779.0,2047.0,0.0
661.0,-755.0,2055.0,0.0
9872.0,-10912.0,30735.0,1.0
639.0,-683.0,1996.0,0.0
0.0,0.0,0.0,0.0
633.0,-630.0,1991.0,0.0
646.0,-619.0,2038.0,0.0
9895.0,-9120.0,31224.0,1.0
658.0,-582.0,2085.0,0.0
655.0,-556.0,2080.0,0.0
9989.0,-8112.0,31770.0,1.0
642.0,-497.0,2048.0,0.0
637.0,-471.0,2040.0,0.0
655.0,-462.0,2104.0,0.0
656.0,-438.0,2110.0,0.0
660.0,-416.0,2127.0,0.0
652.0,-387.0,2107.0,0.0
9838.0,-5474.0,31852.0,1.0
648.0,-337.0,2103.0,0.0
9841.0,-4754.0,32022.0,1.0
643.0,-288.0,2101.0,0.0
635.0,-261.0,2082.0,0.0
637.0,-237.0,2090.0,0.0
654.0,-219.0,2152.0,0.0
647.0,-194.0,2133.0,0.0
634.0,-166.0,2097.0,0.0
646.0,-145.0,2138.0,0.0
632.0,-118.0,2102.0,0.0
650.0,-97.0,2167.0,0.0
3.0,0.0,12.0,0.0
5.0,-1.0,19.0,0.0
4.0,0.0,16.0,0.0
7.0,0.0,29.0,0.0
2.0,0.0,9.0,0.0
5.0,0.0,20.0,0.0
10.0,1.0,35.0,0.0
8.0,0.0,29.0,0.0
11.0,1.0,38.0,0.0
9.0,1.0,33.0,0.0
10.0,2.0,37.0,0.0
14.0,4.0,52.0,0.0
12.0,4.0,44.0,0.0
13.0,4.0,47.0,0.0
16.0,7.0,59.0,0.0
15.0,7.0,54.0,0.0
15.0,7.0,54.0,0.0
15.0,8.0,54.0,0.0
19.0,11.0,68.0,0.0
21.0,14.0,77.0,0.0
18.0,12.0,64.0,0.0
20.0,14.0,72.0,0.0
25.0,19.0,90.0,0.0
22.0,18.0,80.0,0.0
27.0,23.0,98.0,0.0
21.0,19.0,78.0,0.0
23.0,22.0,84.0,0.0
26.0,26.0,96.0,0.0
25.0,26.0,90.0,0.0
27.0,29.0,97.0,0.0
27.0,30.0,97.0,0.0
25.0,29.0,90.0,0.0
23.0,29.0,85.0,0.0
25.0,32.0,92.0,0.0
26.0,35.0,95.0,0.0
26.0,36.0,97.0,0.0
24.0,34.0,89.0,0.0
24.0,36.0,90.0,0.0
20.0,32.0,78.0,0.0
25.0,39.0,93.0,0.0
20.0,34.0,79.0,0.0
23.0,40.0,88.0,0.0
21.0,38.0,81.0,0.0
20.0,37.0,77.0,0.0
22.0,43.0,87.0,0.0
21.0,43.0,85.0,0.0
20.0,42.0,81.0,0.0
20.0,42.0,79.0,0.0
20.0,42.0,79.0,0.0
19.0,44.0,77.0,0.0
19.0,44.0,76.0,0.0
20.0,47.0,81.0,0.0
19.0,46.0,76.0,0.0
19.0,46.0,75.0,0.0
18.0,47.0,73.0,0.0
22.0,56.0,84.0,0.0
18.0,50.0,74.0,0.0
18.0,51.0,74.0,0.0
20.0,56.0,81.0,0.0
19.0,57.0,79.0,0.0
19.0,58.0,78.0,0.0
21.0,65.0,85.0,0.0
21.0,65.0,83.0,0.0
21.0,68.0,85.0,0.0
22.0,72.0,89.0,0.0
21.0,72.0,86.0,0.0
22.0,74.0,88.0,0.0
22.0,79.0,91.0,0.0
22.0,82.0,93.0,0.0
23.0,86.0,95.0,0.0
23.0,90.0,98.0,0.0
23.0,93.0,100.0,0.0
25.0,102.0,105.0,0.0
25.0,104.0,106.0,0.0
25.0,104.0,103.0,0.0
25.0,108.0,105.0,0.0
26.0,114.0,109.0,0.0
26.0,118.0,110.0,0.0
25.0,115.0,105.0,0.0
42.0,-274.0,78.0,0.0
40.0,-266.0,79.0,0.0
43.0,-275.0,84.0,0.0
44.0,-275.0,87.0,0.0
45.0,-277.0,92.0,0.0
45.0,-270.0,93.0,0.0
47.0,-274.0,98.0,0.0
47.0,-273.0,100.0,0.0
49.0,-276.0,104.0,0.0
50.0,-276.0,108.0,0.0
50.0,-273.0,110.0,0.0
51.0,-273.0,114.0,0.0
52.0,-275.0,118.0,0.0
52.0,-270.0,119.0,0.0
53.0,-267.0,122.0,0.0
54.0,-269.0,126.0,0.0
56.0,-276.0,133.0,0.0
55.0,-264.0,130.0,0.0
56.0,-266.0,135.0,0.0
57.0,-264.0,137.0,0.0
55.0,-251.0,134.0,0.0
58.0,-262.0,144.0,0.0
63.0,-276.0,155.0,0.0
61.0,-266.0,154.0,0.0
59.0,-252.0,150.0,0.0
57.0,-240.0,146.0,0.0
56.0,-228.0,142.0,0.0
52.0,-210.0,135.0,0.0
50.0,-199.0,130.0,0.0
51.0,-199.0,134.0,0.0
49.0,-189.0,130.0,0.0
45.0,-168.0,118.0,0.0
45.0,-166.0,120.0,0.0
43.0,-161.0,118.0,0.0
41.0,-146.0,111.0,0.0
40.0,-142.0,110.0,0.0
36.0,-125.0,99.0,0.0
36.0,-121.0,97.0,0.0
35.0,-115.0,95.0,0.0
31.0,-103.0,87.0,0.0
36.0,-115.0,100.0,0.0
30.0,-96.0,85.0,0.0
32.0,-102.0,92.0,0.0
32.0,-99.0,92.0,0.0
30.0,-92.0,87.0,0.0
28.0,-84.0,82.0,0.0
25.0,-74.0,73.0,0.0
6976.0,-19607.0,19806.0,0.0
6966.0,-19230.0,19864.0,0.0
6960.0,-18872.0,19934.0,0.0
6961.0,-18534.0,20020.0,0.0
6955.0,-18182.0,20087.0,0.0
6957.0,-17858.0,20178.0,0.0
6949.0,-17508.0,20235.0,0.0
6955.0,-17198.0,20332.0,0.0
6953.0,-16870.0,20405.0,0.0
7088.0,-16876.0,20883.0,0.0
7761.0,-18128.0,22954.0,0.0
7275.0,-16663.0,21594.0,0.0
7290.0,-16375.0,21721.0,0.0
7502.0,-16519.0,22432.0,0.0
7721.0,-16664.0,23170.0,0.0
7964.0,-16844.0,23985.0,0.0
609.0,-1262.0,1842.0,0.0
613.0,-1246.0,1863.0,0.0
613.0,-1220.0,1868.0,0.0
613.0,-1192.0,1873.0,0.0
628.0,-1196.0,1926.0,0.0
616.0,-1148.0,1896.0,0.0
0.0,0.0,0.0,0.0
614.0,-1091.0,1899.0,0.0
627.0,-1089.0,1945.0,0.0
0.0,0.0,0.0,0.0
619.0,-1025.0,1933.0,0.0
633.0,-1024.0,1983.0,0.0
9315.0,-14695.0,29253.0,1.0
629.0,-968.0,1985.0,0.0
631.0,-946.0,1997.0,0.0
619.0,-904.0,1966.0,0.0
638.0,-906.0,2028.0,0.0
9463.0,-13065.0,30154.0,1.0
614.0,-824.0,1965.0,0.0
619.0,-808.0,1988.0,0.0
617.0,-781.0,1985.0,0.0
631.0,-773.0,2034.0,0.0
624.0,-743.0,2022.0,0.0
630.0,-724.0,2043.0,0.0
627.0,-696.0,2038.0,0.0
9617.0,-10316.0,31331.0,1.0
630.0,-652.0,2059.0,0.0
616.0,-614.0,2020.0,0.0
634.0,-608.0,2086.0,0.0
623.0,-574.0,2055.0,0.0
625.0,-552.0,2066.0,0.0
646.0,-546.0,2141.0,0.0
644.0,-520.0,2139.0,0.0
637.0,-490.0,2124.0,0.0
9622.0,-7036.0,32095.0,1.0
632.0,-439.0,2115.0,0.0
625.0,-411.0,2100.0,0.0
9541.0,-5891.0,32062.0,1.0
634.0,-368.0,2137.0,0.0
635.0,-344.0,2146.0,0.0
624.0,-315.0,2115.0,0.0
636.0,-297.0,2163.0,0.0
635.0,-271.0,2164.0,0.0
623.0,-243.0,2129.0,0.0
633.0,-222.0,2169.0,0.0
636.0,-199.0,2184.0,0.0
3.0,-1.0,13.0,0.0
627.0,-147.0,2163.0,0.0
609.0,-119.0,2107.0,0.0
4.0,0.0,17.0,0.0
4.0,-1.0,18.0,0.0
4.0,0.0,17.0,0.0
2.0,0.0,9.0,0.0
5.0,0.0,19.0,0.0
6.0,0.0,24.0,0.0
8.0,0.0,33.0,0.0
9.0,1.0,36.0,0.0
8.0,1.0,31.0,0.0
8.0,1.0,33.0,0.0
10.0,2.0,40.0,0.0
13.0,3.0,48.0,0.0
15.0,4.0,56.0,0.0
14.0,5.0,51.0,0.0
14.0,5.0,52.0,0.0
13.0,6.0,50.0,0.0
15.0,7.0,54.0,0.0
16.0,8.0,59.0,0.0
23.0,13.0,87.0,0.0
20.0,12.0,75.0,0.0
20.0,13.0,77.0,0.0
22.0,16.0,84.0,0.0
23.0,17.0,90.0,0.0
21.0,17.0,81.0,0.0
23.0,19.0,90.0,0.0
25.0,22.0,93.0,0.0
25.0,23.0,93.0,0.0
23.0,24.0,90.0,0.0
25.0,25.0,93.0,0.0
26.0,28.0,97.0,0.0
27.0,30.0,103.0,0.0
27.0,32.0,103.0,0.0
27.0,34.0,104.0,0.0
28.0,37.0,109.0,0.0
25.0,33.0,95.0,0.0
27.0,38.0,105.0,0.0
24.0,34.0,92.0,0.0
25.0,37.0,96.0,0.0
22.0,35.0,89.0,0.0
22.0,36.0,89.0,0.0
25.0,41.0,97.0,0.0
25.0,43.0,96.0,0.0
24.0,43.0,95.0,0.0
24.0,43.0,94.0,0.0
24.0,46.0,95.0,0.0
23.0,45.0,91.0,0.0
21.0,43.0,86.0,0.0
23.0,47.0,91.0,0.0
21.0,47.0,88.0,0.0
20.0,45.0,84.0,0.0
19.0,44.0,78.0,0.0
23.0,53.0,91.0,0.0
20.0,50.0,86.0,0.0
20.0,51.0,85.0,0.0
20.0,52.0,84.0,0.0
19.0,53.0,82.0,0.0
19.0,55.0,84.0,0.0
21.0,57.0,86.0,0.0
18.0,54.0,80.0,0.0
19.0,59.0,84.0,0.0
20.0,62.0,85.0,0.0
21.0,65.0,89.0,0.0
21.0,68.0,90.0,0.0
20.0,66.0,85.0,0.0
21.0,71.0,91.0,0.0
21.0,73.0,90.0,0.0
22.0,77.0,94.0,0.0
22.0,81.0,95.0,0.0
23.0,87.0,100.0,0.0
23.0,88.0,100.0,0.0
22.0,88.0,99.0,0.0
24.0,96.0,104.0,0.0
24.0,100.0,106.0,0.0
24.0,103.0,107.0,0.0
23.0,102.0,105.0,0.0
24.0,109.0,109.0,0.0
23.0,109.0,106.0,0.0
24.0,117.0,112.0,0.0
24.0,119.0,111.0,0.0
24.0,123.0,112.0,0.0
38.0,-271.0,77.0,0.0
37.0,-259.0,77.0,0.0
39.0,-267.0,82.0,0.0
39.0,-257.0,82.0,0.0
41.0,-265.0,89.0,0.0
40.0,-257.0,88.0,0.0
43.0,-269.0,96.0,0.0
43.0,-267.0,98.0,0.0
43.0,-258.0,98.0,0.0
45.0,-264.0,104.0,0.0
45.0,-262.0,107.0,0.0
46.0,-259.0,109.0,0.0
47.0,-262.0,113.0,0.0
47.0,-258.0,115.0,0.0
49.0,-264.0,120.0,0.0
50.0,-265.0,125.0,0.0
50.0,-261.0,126.0,0.0
51.0,-258.0,129.0,0.0
51.0,-256.0,130.0,0.0
51.0,-251.0,131.0,0.0
50.0,-238.0,128.0,0.0
55.0,-261.0,145.0,0.0
55.0,-256.0,145.0,0.0
53.0,-243.0,142.0,0.0
53.0,-239.0,143.0,0.0
51.0,-225.0,137.0,0.0
49.0,-211.0,132.0,0.0
51.0,-216.0,139.0,0.0
46.0,-192.0,126.0,0.0
45.0,-181.0,123.0,0.0
45.0,-181.0,125.0,0.0
46.0,-179.0,126.0,0.0
38.0,-148.0,107.0,0.0
35.0,-134.0,99.0,0.0
40.0,-152.0,115.0,0.0
37.0,-137.0,105.0,0.0
33.0,-120.0,95.0,0.0
29.0,-106.0,86.0,0.0
33.0,-115.0,96.0,0.0
29.0,-99.0,84.0,0.0
27.0,-90.0,78.0,0.0
26.0,-86.0,77.0,0.0
28.0,-92.0,84.0,0.0
27.0,-87.0,82.0,0.0
26.0,-82.0,78.0,0.0
25.0,-78.0,76.0,0.0
21.0,-68.0,67.0,0.0
21.0,-67.0,68.0,0.0
6658.0,-19183.0,19876.0,0.0
6654.0,-18825.0,19945.0,0.0
6654.0,-18485.0,20027.0,0.0
6651.0,-18142.0,20101.0,0.0
6647.0,-17796.0,20166.0,0.0
6647.0,-17467.0,20245.0,0.0
6645.0,-17134.0,20313.0,0.0
6641.0,-16803.0,20379.0,0.0
6782.0,-16833.0,20887.0,0.0
7428.0,-18084.0,22961.0,0.0
6961.0,-16620.0,21594.0,0.0
6988.0,-16358.0,21753.0,0.0
7199.0,-16518.0,22488.0,0.0
7408.0,-16658.0,23220.0,0.0
7622.0,-16796.0,23975.0,0.0
592.0,-1279.0,1871.0,0.0
575.0,-1217.0,1823.0,0.0
585.0,-1212.0,1861.0,0.0
587.0,-1190.0,1874.0,0.0
0.0,0.0,0.0,0.0
584.0,-1133.0,1875.0,0.0
575.0,-1091.0,1852.0,0.0
589.0,-1092.0,1903.0,0.0
9191.0,-16636.0,29748.0,1.0
591.0,-1047.0,1923.0,0.0
9036.0,-15593.0,29423.0,1.0
608.0,-1024.0,1986.0,0.0
8978.0,-14745.0,29409.0,1.0
0.0,0.0,0.0,0.0
0.0,0.0,0.0,0.0
598.0,-908.0,1979.0,0.0
601.0,-889.0,1994.0,0.0
595.0,-855.0,1978.0,0.0
595.0,-831.0,1984.0,0.0
613.0,-832.0,2051.0,0.0
602.0,-794.0,2022.0,0.0
589.0,-751.0,1979.0,0.0
590.0,-729.0,1988.0,0.0
0.0,0.0,0.0,0.0
606.0,-701.0,2055.0,0.0
595.0,-664.0,2023.0,0.0
9318.0,-10037.0,31722.0,1.0
9364.0,-9717.0,31963.0,1.0
0.0,0.0,0.0,0.0
600.0,-576.0,2063.0,0.0
603.0,-554.0,2077.0,0.0
608.0,-535.0,2102.0,0.0
615.0,-517.0,2130.0,0.0
9314.0,-7463.0,32288.0,1.0
596.0,-455.0,2073.0,0.0
9300.0,-6720.0,32403.0,1.0
600.0,-410.0,2099.0,0.0
596.0,-384.0,2090.0,0.0
598.0,-362.0,2103.0,0.0
600.0,-339.0,2113.0,0.0
600.0,-316.0,2119.0,0.0
9086.0,-4415.0,32137.0,1.0
601.0,-269.0,2133.0,0.0
602.0,-245.0,2141.0,0.0
594.0,-218.0,2118.0,0.0
587.0,-192.0,2098.0,0.0
600.0,-173.0,2153.0,0.0
592.0,-147.0,2128.0,0.0
598.0,-124.0,2154.0,0.0
0.0,0.0,0.0,0.0
3.0,0.0,13.0,0.0
3.0,0.0,11.0,0.0
3.0,0.0,14.0,0.0
2.0,0.0,9.0,0.0
1.0,0.0,3.0,0.0
4.0,0.0,17.0,0.0
3.0,0.0,14.0,0.0
7.0,0.0,26.0,0.0
8.0,1.0,30.0,0.0
8.0,2.0,32.0,0.0
10.0,2.0,39.0,0.0
14.0,4.0,54.0,0.0
9.0,3.0,37.0,0.0
10.0,4.0,41.0,0.0
13.0,5.0,52.0,0.0
15.0,7.0,62.0,0.0
17.0,9.0,68.0,0.0
18.0,10.0,72.0,0.0
15.0,10.0,62.0,0.0
15.0,10.0,59.0,0.0
16.0,12.0,67.0,0.0
18.0,15.0,74.0,0.0
16.0,13.0,66.0,0.0
20.0,17.0,81.0,0.0
22.0,21.0,89.0,0.0
23.0,23.0,94.0,0.0
22.0,23.0,91.0,0.0
21.0,23.0,86.0,0.0
20.0,24.0,84.0,0.0
21.0,25.0,85.0,0.0
20.0,25.0,82.0,0.0
22.0,28.0,91.0,0.0
22.0,31.0,93.0,0.0
22.0,32.0,94.0,0.0
21.0,32.0,89.0,0.0
20.0,31.0,85.0,0.0
20.0,32.0,84.0,0.0
19.0,32.0,81.0,0.0
22.0,38.0,94.0,0.0
17.0,30.0,73.0,0.0
18.0,34.0,78.0,0.0
19.0,36.0,83.0,0.0
18.0,35.0,78.0,0.0
18.0,37.0,79.0,0.0
17.0,36.0,75.0,0.0
18.0,39.0,77.0,0.0
17.0,38.0,74.0,0.0
16.0,36.0,69.0,0.0
16.0,40.0,73.0,0.0
18.0,45.0,80.0,0.0
18.0,46.0,81.0,0.0
16.0,41.0,71.0,0.0
16.0,45.0,74.0,0.0
18.0,50.0,81.0,0.0
16.0,46.0,72.0,0.0
16.0,48.0,75.0,0.0
16.0,50.0,74.0,0.0
16.0,49.0,72.0,0.0
18.0,56.0,81.0,0.0
18.0,59.0,82.0,0.0
15.0,52.0,71.0,0.0
17.0,60.0,80.0,0.0
18.0,63.0,83.0,0.0
18.0,66.0,84.0,0.0
18.0,67.0,84.0,0.0
18.0,69.0,84.0,0.0
20.0,74.0,89.0,0.0
20.0,78.0,91.0,0.0
20.0,81.0,93.0,0.0
20.0,82.0,91.0,0.0
20.0,86.0,94.0,0.0
21.0,92.0,99.0,0.0
22.0,97.0,101.0,0.0
21.0,96.0,98.0,0.0
22.0,103.0,102.0,0.0
21.0,102.0,100.0,0.0
22.0,109.0,105.0,0.0
22.0,113.0,106.0,0.0
22.0,115.0,106.0,0.0
36.0,-269.0,77.0,0.0
36.0,-262.0,78.0,0.0
38.0,-273.0,85.0,0.0
39.0,-270.0,87.0,0.0
40.0,-272.0,91.0,0.0
40.0,-268.0,93.0,0.0
41.0,-268.0,96.0,0.0
41.0,-265.0,98.0,0.0
43.0,-269.0,103.0,0.0
44.0,-272.0,107.0,0.0
45.0,-269.0,110.0,0.0
45.0,-266.0,112.0,0.0
46.0,-269.0,117.0,0.0
46.0,-264.0,118.0,0.0
48.0,-269.0,124.0,0.0
48.0,-266.0,125.0,0.0
48.0,-260.0,127.0,0.0
50.0,-265.0,132.0,0.0
51.0,-262.0,134.0,0.0
50.0,-255.0,135.0,0.0
50.0,-250.0,135.0,0.0
53.0,-258.0,143.0,0.0
55.0,-263.0,150.0,0.0
52.0,-248.0,144.0,0.0
51.0,-236.0,141.0,0.0
49.0,-223.0,137.0,0.0
47.0,-211.0,133.0,0.0
48.0,-212.0,136.0,0.0
48.0,-206.0,136.0,0.0
45.0,-190.0,128.0,0.0
46.0,-192.0,133.0,0.0
42.0,-172.0,122.0,0.0
38.0,-156.0,112.0,0.0
37.0,-147.0,109.0,0.0
38.0,-147.0,112.0,0.0
36.0,-139.0,108.0,0.0
33.0,-125.0,99.0,0.0
35.0,-127.0,104.0,0.0
32.0,-115.0,96.0,0.0
29.0,-103.0,88.0,0.0
27.0,-95.0,82.0,0.0
27.0,-92.0,82.0,0.0
27.0,-92.0,84.0,0.0
26.0,-87.0,82.0,0.0
27.0,-89.0,85.0,0.0
29.0,-92.0,91.0,0.0
6353.0,-19849.0,19729.0,0.0
6356.0,-19502.0,19820.0,0.0
6352.0,-19137.0,19885.0,0.0
6349.0,-18778.0,19953.0,0.0
6352.0,-18444.0,20039.0,0.0
6352.0,-18102.0,20112.0,0.0
6354.0,-17773.0,20195.0,0.0
6350.0,-17430.0,20256.0,0.0
6353.0,-17112.0,20340.0,0.0
6352.0,-16785.0,20410.0,0.0
6508.0,-16866.0,20981.0,0.0
7113.0,-18078.0,23011.0,0.0
6656.0,-16589.0,21609.0,0.0
6707.0,-16388.0,21847.0,0.0
6901.0,-16525.0,22552.0,0.0
7102.0,-16668.0,23289.0,0.0
7284.0,-16750.0,23965.0,0.0
569.0,-1279.0,1875.0,0.0
547.0,-1206.0,1811.0,0.0
554.0,-1195.0,1839.0,0.0
556.0,-1174.0,1852.0,0.0
544.0,-1124.0,1817.0,0.0
562.0,-1133.0,1880.0,0.0
560.0,-1106.0,1883.0,0.0
577.0,-1114.0,1945.0,0.0
8805.0,-16619.0,29777.0,1.0
583.0,-1074.0,1976.0,0.0
567.0,-1019.0,1928.0,0.0
0.0,0.0,0.0,0.0
573.0,-981.0,1960.0,0.0
576.0,-960.0,1974.0,0.0
568.0,-922.0,1951.0,0.0
569.0,-899.0,1962.0,0.0
8731.0,-13452.0,30202.0,1.0
576.0,-862.0,1998.0,0.0
573.0,-833.0,1991.0,0.0
8871.0,-12545.0,30941.0,1.0
8891.0,-12200.0,31094.0,1.0
568.0,-754.0,1990.0,0.0
582.0,-749.0,2046.0,0.0
9009.0,-11235.0,31757.0,1.0
9062.0,-10927.0,32029.0,1.0
577.0,-671.0,2043.0,0.0
9072.0,-10189.0,32233.0,1.0
0.0,0.0,0.0,0.0
590.0,-612.0,2104.0,0.0
568.0,-567.0,2032.0,0.0
564.0,-540.0,2025.0,0.0
573.0,-525.0,2060.0,0.0
573.0,-502.0,2066.0,0.0
8998.0,-7522.0,32550.0,1.0
598.0,-474.0,2166.0,0.0
592.0,-447.0,2151.0,0.0
8836.0,-6302.0,32203.0,1.0
8780.0,-5903.0,32083.0,1.0
8736.0,-5515.0,32001.0,1.0
591.0,-348.0,2169.0,0.0
8670.0,-4761.0,31920.0,1.0
578.0,-293.0,2133.0,0.0
586.0,-273.0,2168.0,0.0
582.0,-247.0,2156.0,0.0
588.0,-226.0,2186.0,0.0
577.0,-197.0,2148.0,0.0
580.0,-174.0,2165.0,0.0
577.0,-149.0,2162.0,0.0
579.0,-126.0,2175.0,0.0
0.0,0.0,0.0,0.0
0.0,0.0,1.0,0.0
5.0,-1.0,19.0,0.0
0.0,0.0,2.0,0.0
7.0,0.0,27.0,0.0
3.0,0.0,12.0,0.0
8.0,0.0,31.0,0.0
8.0,0.0,32.0,0.0
12.0,1.0,47.0,0.0
7.0,1.0,30.0,0.0
12.0,2.0,48.0,0.0
8.0,2.0,34.0,0.0
10.0,3.0,41.0,0.0
11.0,4.0,46.0,0.0
11.0,5.0,46.0,0.0
14.0,7.0,55.0,0.0
16.0,8.0,64.0,0.0
15.0,8.0,60.0,0.0
19.0,11.0,74.0,0.0
20.0,12.0,80.0,0.0
20.0,14.0,82.0,0.0
19.0,14.0,78.0,0.0
19.0,15.0,78.0,0.0
22.0,19.0,88.0,0.0
23.0,21.0,95.0,0.0
22.0,20.0,88.0,0.0
17.0,17.0,72.0,0.0
22.0,23.0,91.0,0.0
21.0,24.0,88.0,0.0
21.0,24.0,85.0,0.0
26.0,31.0,106.0,0.0
25.0,31.0,102.0,0.0
22.0,29.0,92.0,0.0
23.0,32.0,97.0,0.0
22.0,32.0,94.0,0.0
24.0,36.0,102.0,0.0
21.0,31.0,87.0,0.0
25.0,40.0,104.0,0.0
23.0,38.0,96.0,0.0
22.0,38.0,94.0,0.0
24.0,43.0,101.0,0.0
23.0,42.0,97.0,0.0
20.0,38.0,87.0,0.0
19.0,37.0,81.0,0.0
19.0,38.0,81.0,0.0
19.0,39.0,80.0,0.0
19.0,42.0,84.0,0.0
17.0,39.0,75.0,0.0
19.0,44.0,85.0,0.0
18.0,42.0,79.0,0.0
18.0,45.0,81.0,0.0
17.0,44.0,77.0,0.0
20.0,51.0,87.0,0.0
18.0,49.0,82.0,0.0
16.0,46.0,74.0,0.0
17.0,49.0,78.0,0.0
19.0,55.0,85.0,0.0
19.0,56.0,85.0,0.0
16.0,51.0,75.0,0.0
18.0,56.0,81.0,0.0
17.0,57.0,81.0,0.0
18.0,62.0,84.0,0.0
19.0,67.0,90.0,0.0
17.0,62.0,82.0,0.0
19.0,68.0,88.0,0.0
18.0,68.0,86.0,0.0
20.0,76.0,93.0,0.0
19.0,76.0,92.0,0.0
20.0,82.0,97.0,0.0
20.0,85.0,96.0,0.0
20.0,87.0,98.0,0.0
20.0,90.0,99.0,0.0
21.0,95.0,102.0,0.0
22.0,102.0,107.0,0.0
21.0,99.0,102.0,0.0
20.0,101.0,101.0,0.0
21.0,108.0,107.0,0.0
21.0,111.0,107.0,0.0
21.0,115.0,108.0,0.0
21.0,115.0,106.0,0.0
35.0,-274.0,80.0,0.0
35.0,-272.0,81.0,0.0
37.0,-279.0,87.0,0.0
36.0,-269.0,87.0,0.0
38.0,-273.0,92.0,0.0
39.0,-274.0,96.0,0.0
41.0,-280.0,101.0,0.0
41.0,-277.0,103.0,0.0
42.0,-275.0,106.0,0.0
42.0,-276.0,109.0,0.0
42.0,-274.0,112.0,0.0
43.0,-271.0,115.0,0.0
44.0,-274.0,120.0,0.0
45.0,-271.0,122.0,0.0
45.0,-266.0,123.0,0.0
46.0,-269.0,127.0,0.0
47.0,-266.0,130.0,0.0
49.0,-273.0,137.0,0.0
49.0,-268.0,138.0,0.0
47.0,-251.0,133.0,0.0
49.0,-257.0,140.0,0.0
53.0,-272.0,152.0,0.0
49.0,-252.0,144.0,0.0
50.0,-249.0,147.0,0.0
49.0,-235.0,141.0,0.0
49.0,-232.0,142.0,0.0
48.0,-221.0,140.0,0.0
47.0,-215.0,138.0,0.0
45.0,-201.0,133.0,0.0
44.0,-193.0,131.0,0.0
42.0,-183.0,126.0,0.0
41.0,-177.0,126.0,0.0
36.0,-153.0,112.0,0.0
35.0,-147.0,110.0,0.0
34.0,-135.0,102.0,0.0
37.0,-149.0,116.0,0.0
36.0,-139.0,110.0,0.0
33.0,-125.0,102.0,0.0
32.0,-120.0,100.0,0.0
30.0,-109.0,93.0,0.0
30.0,-110.0,96.0,0.0
25.0,-91.0,81.0,0.0
26.0,-91.0,82.0,0.0
23.0,-79.0,74.0,0.0
27.0,-90.0,86.0,0.0
25.0,-83.0,81.0,0.0
27.0,-87.0,87.0,0.0
20.0,-66.0,67.0,0.0
6054.0,-19111.0,19915.0,0.0
6055.0,-18761.0,19990.0,0.0
6052.0,-18408.0,20055.0,0.0
6057.0,-18079.0,20142.0,0.0
6044.0,-17700.0,20166.0,0.0
6051.0,-17391.0,20264.0,0.0
6053.0,-17064.0,20336.0,0.0
6062.0,-16763.0,20437.0,0.0
6208.0,-16837.0,20998.0,0.0
6779.0,-18027.0,23002.0,0.0
6339.0,-16528.0,21580.0,0.0
6427.0,-16428.0,21953.0,0.0
6609.0,-16556.0,22647.0,0.0
6809.0,-16709.0,23401.0,0.0
518.0,-1245.0,1786.0,0.0
534.0,-1256.0,1846.0,0.0
531.0,-1225.0,1844.0,0.0
545.0,-1229.0,1895.0,0.0
540.0,-1192.0,1884.0,0.0
535.0,-1156.0,1873.0,0.0
546.0,-1153.0,1917.0,0.0
542.0,-1118.0,1906.0,0.0
550.0,-1109.0,1940.0,0.0
558.0,-1099.0,1973.0,0.0
553.0,-1065.0,1964.0,0.0
540.0,-1013.0,1920.0,0.0
8267.0,-15161.0,29509.0,1.0
545.0,-974.0,1952.0,0.0
8279.0,-14432.0,29715.0,1.0
550.0,-934.0,1981.0,0.0
8385.0,-13865.0,30259.0,1.0
8447.0,-13594.0,30569.0,1.0
545.0,-851.0,1974.0,0.0
546.0,-830.0,1986.0,0.0
560.0,-826.0,2042.0,0.0
552.0,-792.0,2021.0,0.0
544.0,-755.0,1993.0,0.0
556.0,-748.0,2045.0,0.0
8679.0,-11305.0,31988.0,1.0
552.0,-695.0,2043.0,0.0
8757.0,-10649.0,32441.0,1.0
8763.0,-10280.0,32547.0,1.0
548.0,-619.0,2039.0,0.0
565.0,-613.0,2107.0,0.0
8757.0,-9147.0,32776.0,1.0
8794.0,-8810.0,33000.0,1.0
549.0,-526.0,2063.0,0.0
563.0,-515.0,2122.0,0.0
549.0,-479.0,2075.0,0.0
8616.0,-7161.0,32657.0,1.0
554.0,-437.0,2107.0,0.0
550.0,-410.0,2092.0,0.0
8397.0,-5904.0,32069.0,1.0
552.0,-365.0,2116.0,0.0
549.0,-338.0,2106.0,0.0
551.0,-316.0,2117.0,0.0
567.0,-302.0,2186.0,0.0
561.0,-274.0,2171.0,0.0
572.0,-255.0,2221.0,0.0
555.0,-224.0,2157.0,0.0
557.0,-200.0,2171.0,0.0
564.0,-178.0,2202.0,0.0
563.0,-154.0,2206.0,0.0
559.0,-128.0,2196.0,0.0
550.0,-102.0,2166.0,0.0
5.0,-1.0,19.0,0.0
4.0,0.0,16.0,0.0
3.0,0.0,11.0,0.0
9.0,0.0,37.0,0.0
5.0,0.0,20.0,0.0
10.0,0.0,38.0,0.0
8.0,0.0,31.0,0.0
13.0,2.0,50.0,0.0
8.0,1.0,31.0,0.0
15.0,3.0,59.0,0.0
8.0,2.0,34.0,0.0
10.0,2.0,42.0,0.0
13.0,5.0,50.0,0.0
14.0,6.0,55.0,0.0
17.0,8.0,69.0,0.0
15.0,7.0,62.0,0.0
17.0,10.0,70.0,0.0
19.0,11.0,76.0,0.0
17.0,11.0,69.0,0.0
18.0,12.0,72.0,0.0
17.0,13.0,70.0,0.0
20.0,17.0,87.0,0.0
19.0,15.0,76.0,0.0
20.0,17.0,81.0,0.0
20.0,20.0,86.0,0.0
23.0,24.0,97.0,0.0
22.0,24.0,94.0,0.0
22.0,26.0,95.0,0.0
23.0,28.0,100.0,0.0
23.0,29.0,100.0,0.0
22.0,29.0,95.0,0.0
27.0,36.0,115.0,0.0
24.0,34.0,105.0,0.0
24.0,36.0,104.0,0.0
22.0,34.0,97.0,0.0
23.0,37.0,100.0,0.0
22.0,38.0,99.0,0.0
23.0,40.0,103.0,0.0
22.0,40.0,99.0,0.0
21.0,40.0,95.0,0.0
20.0,40.0,92.0,0.0
21.0,43.0,95.0,0.0
20.0,40.0,89.0,0.0
19.0,41.0,88.0,0.0
19.0,43.0,87.0,0.0
18.0,41.0,81.0,0.0
19.0,44.0,86.0,0.0
18.0,43.0,82.0,0.0
17.0,44.0,81.0,0.0
18.0,47.0,83.0,0.0
20.0,53.0,94.0,0.0
19.0,52.0,87.0,0.0
18.0,51.0,85.0,0.0
17.0,50.0,82.0,0.0
19.0,56.0,88.0,0.0
18.0,55.0,84.0,0.0
18.0,57.0,86.0,0.0
16.0,53.0,80.0,0.0
18.0,60.0,86.0,0.0
17.0,61.0,84.0,0.0
18.0,64.0,88.0,0.0
18.0,64.0,86.0,0.0
17.0,65.0,86.0,0.0
18.0,69.0,88.0,0.0
19.0,76.0,96.0,0.0
19.0,76.0,93.0,0.0
19.0,80.0,97.0,0.0
19.0,81.0,95.0,0.0
19.0,85.0,97.0,0.0
19.0,85.0,95.0,0.0
20.0,93.0,101.0,0.0
21.0,100.0,107.0,0.0
21.0,103.0,108.0,0.0
21.0,106.0,109.0,0.0
20.0,103.0,103.0,0.0
21.0,113.0,112.0,0.0
21.0,113.0,109.0,0.0
20.0,112.0,106.0,0.0
20.0,115.0,106.0,0.0
33.0,-280.0,82.0,0.0
32.0,-269.0,82.0,0.0
34.0,-279.0,88.0,0.0
35.0,-276.0,90.0,0.0
36.0,-282.0,96.0,0.0
37.0,-278.0,97.0,0.0
39.0,-287.0,104.0,0.0
39.0,-284.0,107.0,0.0
39.0,-275.0,107.0,0.0
41.0,-282.0,112.0,0.0
42.0,-280.0,116.0,0.0
42.0,-275.0,117.0,0.0
42.0,-277.0,122.0,0.0
43.0,-277.0,125.0,0.0
44.0,-271.0,126.0,0.0
44.0,-277.0,132.0,0.0
45.0,-273.0,134.0,0.0
45.0,-269.0,135.0,0.0
47.0,-274.0,141.0,0.0
45.0,-255.0,135.0,0.0
48.0,-271.0,148.0,0.0
48.0,-266.0,149.0,0.0
51.0,-275.0,158.0,0.0
49.0,-260.0,153.0,0.0
46.0,-236.0,142.0,0.0
44.0,-221.0,137.0,0.0
44.0,-220.0,139.0,0.0
43.0,-212.0,138.0,0.0
41.0,-198.0,132.0,0.0
42.0,-194.0,132.0,0.0
39.0,-177.0,123.0,0.0
37.0,-167.0,120.0,0.0
37.0,-166.0,121.0,0.0
35.0,-155.0,115.0,0.0
35.0,-150.0,116.0,0.0
33.0,-136.0,107.0,0.0
31.0,-126.0,101.0,0.0
31.0,-124.0,101.0,0.0
29.0,-118.0,98.0,0.0
34.0,-131.0,112.0,0.0
28.0,-110.0,96.0,0.0
30.0,-112.0,101.0,0.0
27.0,-101.0,93.0,0.0
30.0,-109.0,103.0,0.0
28.0,-98.0,94.0,0.0
22.0,-78.0,77.0,0.0
26.0,-88.0,88.0,0.0
21.0,-70.0,72.0,0.0
5746.0,-19049.0,19905.0,0.0
5749.0,-18702.0,19981.0,0.0
5757.0,-18379.0,20077.0,0.0
5753.0,-18022.0,20130.0,0.0
5758.0,-17698.0,20215.0,0.0
5760.0,-17368.0,20288.0,0.0
5758.0,-17028.0,20344.0,0.0
5792.0,-16800.0,20531.0,0.0
5935.0,-16879.0,21102.0,0.0
6448.0,-17978.0,22995.0,0.0
6039.0,-16507.0,21604.0,0.0
6140.0,-16446.0,22029.0,0.0
6316.0,-16580.0,22732.0,0.0
6504.0,-16723.0,23473.0,0.0
493.0,-1241.0,1785.0,0.0
7743.0,-19098.0,28111.0,1.0
503.0,-1214.0,1831.0,0.0
519.0,-1226.0,1894.0,0.0
500.0,-1155.0,1830.0,0.0
516.0,-1165.0,1892.0,0.0
520.0,-1150.0,1915.0,0.0
0.0,0.0,0.0,0.0
531.0,-1120.0,1964.0,0.0
528.0,-1088.0,1959.0,0.0
529.0,-1066.0,1970.0,0.0
516.0,-1016.0,1928.0,0.0
522.0,-1001.0,1954.0,0.0
0.0,0.0,0.0,0.0
538.0,-983.0,2027.0,0.0
523.0,-930.0,1974.0,0.0
8062.0,-13951.0,30491.0,1.0
533.0,-898.0,2022.0,0.0
522.0,-853.0,1982.0,0.0
543.0,-863.0,2071.0,0.0
544.0,-839.0,2078.0,0.0
529.0,-793.0,2026.0,0.0
533.0,-774.0,2046.0,0.0
531.0,-746.0,2043.0,0.0
531.0,-722.0,2048.0,0.0
8364.0,-11022.0,32373.0,1.0
532.0,-676.0,2064.0,0.0
0.0,0.0,0.0,0.0
550.0,-650.0,2145.0,0.0
8417.0,-9578.0,32908.0,1.0
544.0,-594.0,2130.0,0.0
0.0,0.0,0.0,0.0
536.0,-537.0,2112.0,0.0
8419.0,-8077.0,33249.0,1.0
535.0,-488.0,2116.0,0.0
530.0,-462.0,2104.0,0.0
537.0,-443.0,2136.0,0.0
530.0,-414.0,2113.0,0.0
8019.0,-5909.0,32074.0,1.0
532.0,-368.0,2132.0,0.0
538.0,-348.0,2164.0,0.0
7893.0,-4757.0,31810.0,1.0
7928.0,-4424.0,32029.0,1.0
534.0,-274.0,2160.0,0.0
532.0,-249.0,2161.0,0.0
535.0,-226.0,2177.0,0.0
533.0,-201.0,2172.0,0.0
525.0,-175.0,2148.0,0.0
529.0,-152.0,2169.0,0.0
537.0,-130.0,2208.0,0.0
526.0,-103.0,2171.0,0.0
2.0,-1.0,9.0,0.0
5.0,-1.0,19.0,0.0
7.0,0.0,29.0,0.0
3.0,0.0,11.0,0.0
6.0,0.0,24.0,0.0
10.0,0.0,38.0,0.0
9.0,1.0,36.0,0.0
12.0,1.0,49.0,0.0
12.0,2.0,50.0,0.0
14.0,3.0,58.0,0.0
11.0,3.0,46.0,0.0
13.0,4.0,55.0,0.0
11.0,4.0,48.0,0.0
13.0,5.0,54.0,0.0
17.0,8.0,70.0,0.0
17.0,9.0,73.0,0.0
17.0,10.0,73.0,0.0
19.0,12.0,79.0,0.0
17.0,12.0,73.0,0.0
20.0,14.0,83.0,0.0
19.0,15.0,81.0,0.0
19.0,16.0,79.0,0.0
20.0,19.0,91.0,0.0
20.0,19.0,90.0,0.0
20.0,19.0,85.0,0.0
24.0,25.0,105.0,0.0
24.0,28.0,108.0,0.0
22.0,27.0,99.0,0.0
24.0,30.0,108.0,0.0
23.0,30.0,103.0,0.0
25.0,33.0,111.0,0.0
23.0,33.0,103.0,0.0
24.0,36.0,109.0,0.0
24.0,37.0,108.0,0.0
25.0,41.0,114.0,0.0
22.0,37.0,102.0,0.0
25.0,42.0,112.0,0.0
24.0,43.0,109.0,0.0
22.0,42.0,103.0,0.0
21.0,41.0,99.0,0.0
19.0,39.0,91.0,0.0
22.0,46.0,103.0,0.0
20.0,44.0,96.0,0.0
19.0,44.0,92.0,0.0
20.0,47.0,96.0,0.0
18.0,43.0,87.0,0.0
19.0,48.0,94.0,0.0
18.0,47.0,90.0,0.0
18.0,48.0,90.0,0.0
17.0,47.0,85.0,0.0
20.0,55.0,96.0,0.0
19.0,56.0,96.0,0.0
17.0,50.0,83.0,0.0
18.0,55.0,90.0,0.0
18.0,56.0,90.0,0.0
17.0,57.0,88.0,0.0
18.0,60.0,91.0,0.0
18.0,61.0,91.0,0.0
19.0,66.0,96.0,0.0
18.0,64.0,91.0,0.0
16.0,62.0,85.0,0.0
19.0,71.0,96.0,0.0
17.0,68.0,90.0,0.0
19.0,75.0,97.0,0.0
18.0,76.0,96.0,0.0
18.0,77.0,95.0,0.0
18.0,77.0,93.0,0.0
19.0,85.0,100.0,0.0
19.0,89.0,103.0,0.0
18.0,86.0,96.0,0.0
18.0,89.0,99.0,0.0
19.0,97.0,105.0,0.0
20.0,101.0,106.0,0.0
20.0,104.0,107.0,0.0
19.0,103.0,105.0,0.0
19.0,110.0,110.0,0.0
19.0,110.0,107.0,0.0
19.0,113.0,107.0,0.0
19.0,120.0,112.0,0.0
29.0,-271.0,80.0,0.0
29.0,-265.0,81.0,0.0
30.0,-274.0,86.0,0.0
31.0,-274.0,90.0,0.0
32.0,-271.0,93.0,0.0
33.0,-276.0,98.0,0.0
33.0,-271.0,99.0,0.0
35.0,-275.0,104.0,0.0
36.0,-276.0,107.0,0.0
36.0,-269.0,108.0,0.0
37.0,-273.0,113.0,0.0
38.0,-271.0,116.0,0.0
38.0,-267.0,117.0,0.0
39.0,-265.0,120.0,0.0
40.0,-268.0,125.0,0.0
40.0,-263.0,126.0,0.0
41.0,-261.0,129.0,0.0
43.0,-266.0,134.0,0.0
43.0,-261.0,136.0,0.0
41.0,-247.0,132.0,0.0
44.0,-263.0,144.0,0.0
47.0,-271.0,152.0,0.0
46.0,-265.0,153.0,0.0
45.0,-252.0,149.0,0.0
43.0,-238.0,144.0,0.0
41.0,-217.0,134.0,0.0
40.0,-212.0,134.0,0.0
40.0,-207.0,135.0,0.0
39.0,-196.0,131.0,0.0
38.0,-191.0,131.0,0.0
36.0,-175.0,123.0,0.0
35.0,-169.0,121.0,0.0
36.0,-167.0,122.0,0.0
33.0,-151.0,113.0,0.0
33.0,-146.0,113.0,0.0
32.0,-141.0,110.0,0.0
30.0,-130.0,104.0,0.0
30.0,-128.0,106.0,0.0
28.0,-114.0,96.0,0.0
28.0,-112.0,96.0,0.0
25.0,-101.0,89.0,0.0
28.0,-108.0,97.0,0.0
29.0,-111.0,102.0,0.0
24.0,-91.0,86.0,0.0
26.0,-97.0,94.0,0.0
24.0,-85.0,83.0,0.0
23.0,-81.0,81.0,0.0
20.0,-72.0,74.0,0.0
5439.0,-18985.0,19890.0,0.0
5450.0,-18664.0,19992.0,0.0
5451.0,-18316.0,20060.0,0.0
5453.0,-17974.0,20128.0,0.0
5458.0,-17647.0,20208.0,0.0
5456.0,-17303.0,20262.0,0.0
5464.0,-16991.0,20349.0,0.0
5522.0,-16839.0,20629.0,0.0
5632.0,-16836.0,21098.0,0.0
6120.0,-17933.0,22990.0,0.0
5744.0,-16498.0,21641.0,0.0
5847.0,-16454.0,22088.0,0.0
6008.0,-16565.0,22760.0,0.0
6197.0,-16738.0,23545.0,0.0
483.0,-1274.0,1836.0,0.0
490.0,-1270.0,1874.0,0.0
486.0,-1233.0,1864.0,0.0
495.0,-1228.0,1902.0,0.0
496.0,-1204.0,1911.0,0.0
499.0,-1183.0,1925.0,0.0
495.0,-1147.0,1915.0,0.0
501.0,-1136.0,1944.0,0.0
501.0,-1111.0,1952.0,0.0
0.0,0.0,0.0,0.0
495.0,-1045.0,1933.0,0.0
498.0,-1026.0,1950.0,0.0
0.0,0.0,0.0,0.0
510.0,-1001.0,2011.0,0.0
7577.0,-14495.0,29940.0,1.0
7649.0,-14255.0,30303.0,1.0
0.0,0.0,0.0,0.0
498.0,-879.0,1983.0,0.0
0.0,0.0,0.0,0.0
505.0,-840.0,2017.0,0.0
0.0,0.0,0.0,0.0
0.0,0.0,0.0,0.0
506.0,-770.0,2037.0,0.0
7845.0,-11584.0,31708.0,1.0
7958.0,-11372.0,32245.0,1.0
8004.0,-11059.0,32513.0,1.0
0.0,0.0,0.0,0.0
0.0,0.0,0.0,0.0
515.0,-637.0,2105.0,0.0
8090.0,-9655.0,33192.0,1.0
8093.0,-9279.0,33283.0,1.0
508.0,-558.0,2094.0,0.0
518.0,-545.0,2141.0,0.0
524.0,-526.0,2168.0,0.0
7998.0,-7676.0,33225.0,1.0
510.0,-466.0,2121.0,0.0
511.0,-442.0,2130.0,0.0
512.0,-421.0,2144.0,0.0
511.0,-394.0,2140.0,0.0
7611.0,-5532.0,32018.0,1.0
7548.0,-5133.0,31837.0,1.0
7549.0,-4781.0,31924.0,1.0
504.0,-296.0,2139.0,0.0
7624.0,-4114.0,32404.0,1.0
512.0,-252.0,2179.0,0.0
7709.0,-3434.0,32938.0,1.0
515.0,-205.0,2207.0,0.0
509.0,-178.0,2187.0,0.0
508.0,-154.0,2189.0,0.0
501.0,-128.0,2164.0,0.0
5.0,-1.0,19.0,0.0
4.0,-1.0,15.0,0.0
2.0,0.0,8.0,0.0
3.0,0.0,13.0,0.0
5.0,0.0,20.0,0.0
4.0,0.0,18.0,0.0
5.0,0.0,22.0,0.0
7.0,0.0,30.0,0.0
7.0,0.0,27.0,0.0
7.0,1.0,32.0,0.0
9.0,1.0,42.0,0.0
11.0,3.0,46.0,0.0
12.0,3.0,51.0,0.0
9.0,3.0,39.0,0.0
9.0,4.0,42.0,0.0
15.0,7.0,66.0,0.0
12.0,6.0,53.0,0.0
14.0,9.0,65.0,0.0
12.0,8.0,58.0,0.0
17.0,12.0,75.0,0.0
14.0,11.0,66.0,0.0
16.0,13.0,73.0,0.0
17.0,15.0,79.0,0.0
17.0,16.0,79.0,0.0
19.0,19.0,89.0,0.0
18.0,18.0,80.0,0.0
19.0,21.0,85.0,0.0
18.0,21.0,83.0,0.0
20.0,25.0,96.0,0.0
19.0,25.0,91.0,0.0
22.0,30.0,105.0,0.0
21.0,31.0,100.0,0.0
20.0,30.0,97.0,0.0
18.0,28.0,88.0,0.0
20.0,33.0,98.0,0.0
19.0,33.0,94.0,0.0
19.0,33.0,92.0,0.0
22.0,40.0,105.0,0.0
19.0,36.0,93.0,0.0
22.0,43.0,108.0,0.0
20.0,41.0,98.0,0.0
19.0,40.0,93.0,0.0
17.0,36.0,83.0,0.0
17.0,39.0,86.0,0.0
17.0,38.0,83.0,0.0
17.0,42.0,88.0,0.0
16.0,39.0,77.0,0.0
16.0,42.0,84.0,0.0
16.0,44.0,84.0,0.0
16.0,43.0,80.0,0.0
17.0,46.0,82.0,0.0
16.0,45.0,78.0,0.0
15.0,48.0,82.0,0.0
16.0,48.0,80.0,0.0
16.0,51.0,85.0,0.0
15.0,49.0,78.0,0.0
16.0,51.0,80.0,0.0
15.0,53.0,81.0,0.0
16.0,53.0,80.0,0.0
16.0,60.0,88.0,0.0
14.0,56.0,80.0,0.0
15.0,61.0,85.0,0.0
16.0,64.0,87.0,0.0
16.0,68.0,91.0,0.0
16.0,68.0,88.0,0.0
16.0,73.0,92.0,0.0
17.0,78.0,97.0,0.0
15.0,72.0,88.0,0.0
17.0,80.0,94.0,0.0
16.0,79.0,92.0,0.0
17.0,84.0,95.0,0.0
17.0,88.0,97.0,0.0
17.0,95.0,103.0,0.0
17.0,98.0,104.0,0.0
17.0,99.0,103.0,0.0
17.0,105.0,107.0,0.0
17.0,104.0,104.0,0.0
18.0,112.0,110.0,0.0
17.0,111.0,106.0,0.0
17.0,115.0,107.0,0.0
26.0,-268.0,79.0,0.0
27.0,-272.0,83.0,0.0
28.0,-274.0,87.0,0.0
28.0,-268.0,88.0,0.0
30.0,-272.0,93.0,0.0
30.0,-270.0,96.0,0.0
32.0,-273.0,100.0,0.0
32.0,-270.0,102.0,0.0
33.0,-273.0,107.0,0.0
34.0,-275.0,111.0,0.0
34.0,-271.0,113.0,0.0
36.0,-276.0,118.0,0.0
36.0,-272.0,120.0,0.0
37.0,-268.0,123.0,0.0
37.0,-265.0,124.0,0.0
39.0,-270.0,130.0,0.0
39.0,-268.0,133.0,0.0
39.0,-264.0,134.0,0.0
41.0,-267.0,139.0,0.0
39.0,-252.0,134.0,0.0
43.0,-274.0,151.0,0.0
43.0,-266.0,150.0,0.0
44.0,-271.0,156.0,0.0
43.0,-254.0,151.0,0.0
39.0,-232.0,141.0,0.0
36.0,-211.0,131.0,0.0
37.0,-203.0,130.0,0.0
36.0,-199.0,130.0,0.0
38.0,-202.0,135.0,0.0
34.0,-178.0,122.0,0.0
35.0,-178.0,124.0,0.0
30.0,-158.0,113.0,0.0
31.0,-156.0,115.0,0.0
32.0,-156.0,117.0,0.0
33.0,-159.0,122.0,0.0
30.0,-140.0,110.0,0.0
29.0,-134.0,108.0,0.0
27.0,-123.0,101.0,0.0
28.0,-124.0,104.0,0.0
28.0,-120.0,103.0,0.0
24.0,-101.0,89.0,0.0
26.0,-109.0,98.0,0.0
23.0,-95.0,88.0,0.0
20.0,-81.0,76.0,0.0
24.0,-94.0,91.0,0.0
22.0,-85.0,84.0,0.0
5141.0,-19689.0,19790.0,0.0
17.0,-66.0,68.0,0.0
5151.0,-18983.0,19940.0,0.0
5151.0,-18621.0,19997.0,0.0
5157.0,-18288.0,20079.0,0.0
5162.0,-17950.0,20152.0,0.0
5146.0,-17552.0,20147.0,0.0
5171.0,-17293.0,20299.0,0.0
5170.0,-16950.0,20347.0,0.0
5238.0,-16835.0,20671.0,0.0
5338.0,-16816.0,21120.0,0.0
5794.0,-17888.0,22983.0,0.0
5442.0,-16465.0,21647.0,0.0
5551.0,-16455.0,22138.0,0.0
5708.0,-16572.0,22819.0,0.0
5890.0,-16748.0,23607.0,0.0
6995.0,-19476.0,28108.0,1.0
464.0,-1262.0,1865.0,0.0
448.0,-1194.0,1808.0,0.0
7030.0,-18350.0,28463.0,1.0
455.0,-1162.0,1848.0,0.0
476.0,-1188.0,1936.0,0.0
0.0,0.0,0.0,0.0
464.0,-1106.0,1897.0,0.0
481.0,-1121.0,1971.0,0.0
473.0,-1075.0,1942.0,0.0
472.0,-1050.0,1946.0,0.0
0.0,0.0,0.0,0.0
473.0,-1000.0,1956.0,0.0
486.0,-1003.0,2017.0,0.0
493.0,-991.0,2050.0,0.0
482.0,-943.0,2009.0,0.0
7326.0,-13968.0,30618.0,1.0
7372.0,-13676.0,30885.0,1.0
7455.0,-13449.0,31310.0,1.0
7501.0,-13150.0,31581.0,1.0
472.0,-803.0,1993.0,0.0
490.0,-810.0,2076.0,0.0
0.0,0.0,0.0,0.0
7499.0,-11635.0,31882.0,1.0
467.0,-700.0,1990.0,0.0
0.0,0.0,0.0,0.0
489.0,-685.0,2094.0,0.0
7715.0,-10436.0,33118.0,1.0
501.0,-653.0,2156.0,0.0
7706.0,-9665.0,33248.0,1.0
501.0,-603.0,2165.0,0.0
7760.0,-8971.0,33645.0,1.0
7727.0,-8553.0,33581.0,1.0
496.0,-524.0,2162.0,0.0
0.0,0.0,0.0,0.0
494.0,-474.0,2161.0,0.0
7444.0,-6785.0,32677.0,1.0
7367.0,-6355.0,32424.0,1.0
486.0,-395.0,2144.0,0.0
494.0,-378.0,2182.0,0.0
0.0,0.0,0.0,0.0
494.0,-329.0,2193.0,0.0
499.0,-308.0,2225.0,0.0
487.0,-277.0,2173.0,0.0
488.0,-253.0,2183.0,0.0
487.0,-228.0,2186.0,0.0
7399.0,-3110.0,33335.0,1.0
482.0,-178.0,2178.0,0.0
478.0,-153.0,2165.0,0.0
484.0,-131.0,2195.0,0.0
479.0,-106.0,2179.0,0.0
474.0,-80.0,2162.0,0.0
4.0,-1.0,18.0,0.0
3.0,0.0,13.0,0.0
6.0,0.0,28.0,0.0
10.0,0.0,46.0,0.0
7.0,0.0,31.0,0.0
5.0,0.0,23.0,0.0
10.0,1.0,48.0,0.0
9.0,2.0,45.0,0.0
9.0,2.0,39.0,0.0
9.0,2.0,44.0,0.0
7.0,2.0,31.0,0.0
12.0,5.0,56.0,0.0
12.0,5.0,55.0,0.0
13.0,6.0,62.0,0.0
12.0,7.0,58.0,0.0
16.0,9.0,75.0,0.0
18.0,12.0,83.0,0.0
16.0,12.0,76.0,0.0
17.0,13.0,80.0,0.0
17.0,15.0,82.0,0.0
18.0,17.0,88.0,0.0
19.0,19.0,92.0,0.0
18.0,19.0,91.0,0.0
18.0,21.0,89.0,0.0
18.0,22.0,90.0,0.0
19.0,24.0,96.0,0.0
20.0,26.0,97.0,0.0
22.0,29.0,106.0,0.0
21.0,30.0,104.0,0.0
21.0,32.0,105.0,0.0
20.0,31.0,99.0,0.0
21.0,36.0,111.0,0.0
21.0,35.0,103.0,0.0
21.0,36.0,106.0,0.0
20.0,36.0,102.0,0.0
20.0,38.0,102.0,0.0
19.0,38.0,99.0,0.0
20.0,43.0,108.0,0.0
20.0,43.0,104.0,0.0
16.0,37.0,86.0,0.0
16.0,38.0,88.0,0.0
17.0,41.0,91.0,0.0
16.0,41.0,88.0,0.0
17.0,44.0,93.0,0.0
16.0,41.0,82.0,0.0
16.0,45.0,88.0,0.0
15.0,42.0,81.0,0.0
15.0,45.0,85.0,0.0
16.0,48.0,89.0,0.0
18.0,56.0,98.0,0.0
16.0,51.0,89.0,0.0
14.0,50.0,83.0,0.0
15.0,53.0,87.0,0.0
15.0,50.0,80.0,0.0
15.0,57.0,88.0,0.0
14.0,55.0,83.0,0.0
15.0,58.0,87.0,0.0
14.0,58.0,84.0,0.0
15.0,60.0,86.0,0.0
13.0,58.0,81.0,0.0
16.0,68.0,92.0,0.0
14.0,65.0,86.0,0.0
16.0,72.0,93.0,0.0
15.0,70.0,88.0,0.0
15.0,73.0,91.0,0.0
16.0,77.0,94.0,0.0
16.0,81.0,96.0,0.0
17.0,89.0,104.0,0.0
15.0,81.0,92.0,0.0
15.0,89.0,99.0,0.0
15.0,90.0,97.0,0.0
15.0,92.0,97.0,0.0
