//X,Y,Z,Classification
8.0,-128.0,108.0,0.0
8.0,-128.0,111.0,0.0
8.0,-113.0,100.0,0.0
8.0,-115.0,104.0,0.0
8.0,-114.0,105.0,0.0
6.0,-96.0,91.0,0.0
6.0,-87.0,83.0,0.0
7.0,-83.0,82.0,0.0
1773.0,-21830.0,22004.0,0.0
1796.0,-21413.0,22056.0,0.0
1819.0,-21031.0,22138.0,0.0
1841.0,-20648.0,22212.0,0.0
1865.0,-20296.0,22314.0,0.0
1759.0,-18588.0,20886.0,0.0
1779.0,-18260.0,20972.0,0.0
1837.0,-18315.0,21502.0,0.0
1906.0,-18471.0,22169.0,0.0
1978.0,-18620.0,22846.0,0.0
2051.0,-18777.0,23557.0,0.0
2830.0,-25193.0,32319.0,1.0
2824.0,-24464.0,32097.0,1.0
2811.0,-23685.0,31784.0,1.0
2799.0,-22948.0,31505.0,1.0
2785.0,-22218.0,31208.0,1.0
2786.0,-21625.0,31086.0,1.0
2819.0,-21304.0,31344.0,1.0
2860.0,-21036.0,31685.0,1.0
2888.0,-20669.0,31879.0,1.0
2893.0,-20156.0,31840.0,1.0
2940.0,-19935.0,32262.0,1.0
2970.0,-19606.0,32515.0,1.0
2976.0,-19112.0,32488.0,1.0
2968.0,-18555.0,32340.0,1.0
2976.0,-18100.0,32357.0,1.0
3008.0,-17797.0,32645.0,1.0
3014.0,-17353.0,32672.0,1.0
3016.0,-16881.0,32634.0,1.0
3021.0,-16444.0,32655.0,1.0
3019.0,-15974.0,32598.0,1.0
3017.0,-15508.0,32540.0,1.0
3029.0,-15131.0,32660.0,1.0
3038.0,-14735.0,32736.0,1.0
3038.0,-14306.0,32729.0,1.0
3049.0,-13933.0,32845.0,1.0
3049.0,-13513.0,32845.0,1.0
3048.0,-13095.0,32840.0,1.0
3049.0,-12687.0,32852.0,1.0
3045.0,-12267.0,32827.0,1.0
3048.0,-11882.0,32883.0,1.0
3047.0,-11481.0,32889.0,1.0
3048.0,-11097.0,32939.0,1.0
3045.0,-10703.0,32949.0,1.0
3038.0,-10297.0,32916.0,1.0
3030.0,-9890.0,32866.0,1.0
3024.0,-9498.0,32861.0,1.0
3016.0,-9103.0,32827.0,1.0
3012.0,-8721.0,32838.0,1.0
3003.0,-8330.0,32804.0,1.0
3004.0,-7972.0,32887.0,1.0
3003.0,-7610.0,32961.0,1.0
3001.0,-7244.0,33010.0,1.0
2997.0,-6879.0,33063.0,1.0
3003.0,-6533.0,33208.0,1.0
3004.0,-6178.0,33315.0,1.0
3006.0,-5827.0,33451.0,1.0
4.0,-7.0,43.0,0.0
4.0,-7.0,46.0,0.0
3020.0,-4775.0,33939.0,1.0
3019.0,-4414.0,34061.0,1.0
3015.0,-4047.0,34147.0,1.0
4.0,-4.0,45.0,0.0
3.0,-3.0,33.0,0.0
3.0,-3.0,36.0,0.0
3.0,-2.0,36.0,0.0
3.0,-2.0,35.0,0.0
2.0,-1.0,26.0,0.0
4.0,-2.0,57.0,0.0
5.0,-2.0,61.0,0.0
5.0,-1.0,61.0,0.0
4.0,-1.0,51.0,0.0
5.0,0.0,59.0,0.0
4.0,0.0,58.0,0.0
4.0,0.0,52.0,0.0
7.0,3.0,87.0,0.0
7.0,3.0,84.0,0.0
6.0,4.0,80.0,0.0
7.0,4.0,79.0,0.0
7.0,5.0,84.0,0.0
7.0,7.0,83.0,0.0
7.0,8.0,94.0,0.0
8.0,10.0,95.0,0.0
8.0,11.0,96.0,0.0
9.0,13.0,108.0,0.0
7.0,13.0,93.0,0.0
8.0,15.0,105.0,0.0
8.0,17.0,105.0,0.0
7.0,18.0,103.0,0.0
8.0,21.0,114.0,0.0
8.0,22.0,111.0,0.0
8.0,24.0,115.0,0.0
9.0,25.0,118.0,0.0
8.0,28.0,122.0,0.0
8.0,30.0,126.0,0.0
8.0,30.0,120.0,0.0
8.0,32.0,120.0,0.0
7.0,30.0,110.0,0.0
8.0,36.0,126.0,0.0
8.0,40.0,132.0,0.0
8.0,37.0,119.0,0.0
8.0,39.0,118.0,0.0
8.0,46.0,136.0,0.0
7.0,44.0,124.0,0.0
7.0,44.0,120.0,0.0
7.0,47.0,125.0,0.0
7.0,47.0,120.0,0.0
6.0,46.0,115.0,0.0
6.0,48.0,115.0,0.0
6.0,47.0,111.0,0.0
6.0,52.0,120.0,0.0
5.0,50.0,111.0,0.0
6.0,51.0,109.0,0.0
6.0,52.0,109.0,0.0
5.0,50.0,103.0,0.0
5.0,54.0,107.0,0.0
5.0,51.0,97.0,0.0
4.0,58.0,110.0,0.0
4.0,60.0,110.0,0.0
4.0,54.0,99.0,0.0
4.0,59.0,101.0,0.0
4.0,64.0,110.0,0.0
4.0,63.0,104.0,0.0
3.0,67.0,108.0,0.0
4.0,66.0,105.0,0.0
3.0,68.0,104.0,0.0
3.0,68.0,102.0,0.0
3.0,71.0,106.0,0.0
3.0,75.0,108.0,0.0
3.0,75.0,107.0,0.0
3.0,82.0,112.0,0.0
2.0,82.0,110.0,0.0
2.0,87.0,114.0,0.0
2.0,87.0,112.0,0.0
1.0,94.0,118.0,0.0
1.0,92.0,113.0,0.0
1.0,102.0,123.0,0.0
1.0,102.0,120.0,0.0
1.0,102.0,118.0,0.0
0.0,107.0,120.0,0.0
0.0,107.0,117.0,0.0
0.0,110.0,119.0,0.0
0.0,111.0,116.0,0.0
0.0,115.0,118.0,0.0
0.0,125.0,126.0,0.0
0.0,120.0,119.0,0.0
-1.0,127.0,122.0,0.0
-9.0,-308.0,97.0,0.0
-8.0,-309.0,101.0,0.0
-7.0,-294.0,100.0,0.0
-7.0,-292.0,102.0,0.0
-7.0,-291.0,106.0,0.0
-6.0,-285.0,107.0,0.0
-5.0,-284.0,110.0,0.0
-5.0,-282.0,113.0,0.0
-4.0,-280.0,116.0,0.0
-4.0,-272.0,115.0,0.0
-4.0,-272.0,119.0,0.0
-2.0,-279.0,126.0,0.0
-2.0,-270.0,125.0,0.0
-2.0,-266.0,127.0,0.0
-2.0,-273.0,135.0,0.0
-1.0,-271.0,136.0,0.0
0.0,-274.0,142.0,0.0
0.0,-275.0,146.0,0.0
0.0,-285.0,155.0,0.0
1.0,-295.0,165.0,0.0
1.0,-289.0,166.0,0.0
2.0,-284.0,167.0,0.0
2.0,-276.0,167.0,0.0
2.0,-254.0,157.0,0.0
3.0,-253.0,160.0,0.0
3.0,-231.0,150.0,0.0
3.0,-236.0,156.0,0.0
3.0,-209.0,142.0,0.0
3.0,-203.0,141.0,0.0
3.0,-200.0,142.0,0.0
3.0,-180.0,130.0,0.0
4.0,-181.0,134.0,0.0
4.0,-161.0,122.0,0.0
5.0,-164.0,127.0,0.0
4.0,-151.0,120.0,0.0
5.0,-143.0,116.0,0.0
4.0,-127.0,106.0,0.0
4.0,-128.0,109.0,0.0
4.0,-117.0,102.0,0.0
5.0,-117.0,103.0,0.0
4.0,-112.0,102.0,0.0
5.0,-101.0,94.0,0.0
4.0,-92.0,87.0,0.0
4.0,-88.0,86.0,0.0
1104.0,-22186.0,21948.0,0.0
1132.0,-21792.0,22031.0,0.0
1157.0,-21376.0,22082.0,0.0
1183.0,-20979.0,22148.0,0.0
1209.0,-20607.0,22230.0,0.0
1152.0,-18904.0,20841.0,0.0
1176.0,-18581.0,20937.0,0.0
1196.0,-18219.0,20982.0,0.0
1247.0,-18329.0,21577.0,0.0
1300.0,-18453.0,22204.0,0.0
1358.0,-18619.0,22904.0,0.0
1418.0,-18787.0,23628.0,0.0
1932.0,-24761.0,31844.0,1.0
1934.0,-23994.0,31557.0,1.0
1938.0,-23266.0,31297.0,1.0
1943.0,-22596.0,31095.0,1.0
1944.0,-21905.0,30841.0,1.0
1972.0,-21522.0,31007.0,1.0
2008.0,-21255.0,31344.0,1.0
2042.0,-20957.0,31637.0,1.0
2075.0,-20646.0,31913.0,1.0
2100.0,-20276.0,32098.0,1.0
2135.0,-19997.0,32431.0,1.0
2167.0,-19701.0,32739.0,1.0
2184.0,-19265.0,32816.0,1.0
2176.0,-18633.0,32540.0,1.0
2186.0,-18165.0,32537.0,1.0
2219.0,-17894.0,32885.0,1.0
2242.0,-17549.0,33102.0,1.0
2255.0,-17129.0,33177.0,1.0
2261.0,-16668.0,33160.0,1.0
2264.0,-16187.0,33093.0,1.0
2266.0,-15718.0,33037.0,1.0
2278.0,-15326.0,33135.0,1.0
2288.0,-14922.0,33205.0,1.0
2291.0,-14482.0,33184.0,1.0
2293.0,-14051.0,33172.0,1.0
2304.0,-13674.0,33286.0,1.0
2310.0,-13276.0,33340.0,1.0
2315.0,-12873.0,33379.0,1.0
2312.0,-12436.0,33317.0,1.0
2311.0,-12017.0,33296.0,1.0
2312.0,-11610.0,33295.0,1.0
2317.0,-11233.0,33374.0,1.0
2318.0,-10839.0,33399.0,1.0
2314.0,-10430.0,33373.0,1.0
2311.0,-10033.0,33368.0,1.0
2308.0,-9633.0,33346.0,1.0
2301.0,-9229.0,33303.0,1.0
2298.0,-8840.0,33298.0,1.0
2294.0,-8453.0,33294.0,1.0
2292.0,-8081.0,33344.0,1.0
2287.0,-7700.0,33348.0,1.0
2288.0,-7341.0,33444.0,1.0
2294.0,-6996.0,33612.0,1.0
2291.0,-6627.0,33671.0,1.0
2292.0,-6272.0,33802.0,1.0
2298.0,-5926.0,33987.0,1.0
2297.0,-5563.0,34092.0,1.0
2302.0,-5215.0,34295.0,1.0
2302.0,-4853.0,34434.0,1.0
2301.0,-4492.0,34585.0,1.0
3.0,-5.0,39.0,0.0
2290.0,-3747.0,34738.0,1.0
2269.0,-3352.0,34597.0,1.0
2.0,-2.0,27.0,0.0
2.0,-2.0,35.0,0.0
4.0,-3.0,59.0,0.0
3.0,-3.0,51.0,0.0
2.0,-2.0,37.0,0.0
3.0,-2.0,55.0,0.0
3.0,-1.0,43.0,0.0
4.0,0.0,59.0,0.0
3.0,0.0,58.0,0.0
4.0,0.0,64.0,0.0
2.0,1.0,46.0,0.0
4.0,2.0,73.0,0.0
3.0,2.0,61.0,0.0
4.0,3.0,71.0,0.0
4.0,4.0,69.0,0.0
4.0,5.0,74.0,0.0
4.0,6.0,74.0,0.0
4.0,7.0,77.0,0.0
4.0,9.0,83.0,0.0
6.0,12.0,101.0,0.0
5.0,11.0,91.0,0.0
5.0,13.0,94.0,0.0
6.0,15.0,101.0,0.0
5.0,15.0,95.0,0.0
5.0,18.0,105.0,0.0
5.0,20.0,107.0,0.0
6.0,23.0,116.0,0.0
5.0,23.0,114.0,0.0
6.0,26.0,117.0,0.0
4.0,23.0,102.0,0.0
6.0,28.0,116.0,0.0
5.0,30.0,118.0,0.0
5.0,28.0,109.0,0.0
5.0,35.0,128.0,0.0
5.0,34.0,120.0,0.0
6.0,38.0,126.0,0.0
5.0,38.0,124.0,0.0
5.0,38.0,118.0,0.0
4.0,38.0,113.0,0.0
4.0,40.0,116.0,0.0
5.0,43.0,119.0,0.0
4.0,38.0,102.0,0.0
4.0,43.0,113.0,0.0
4.0,43.0,109.0,0.0
4.0,45.0,111.0,0.0
4.0,47.0,112.0,0.0
3.0,46.0,106.0,0.0
3.0,46.0,102.0,0.0
3.0,47.0,101.0,0.0
3.0,49.0,102.0,0.0
2.0,51.0,105.0,0.0
2.0,49.0,99.0,0.0
2.0,51.0,99.0,0.0
2.0,56.0,106.0,0.0
2.0,58.0,107.0,0.0
2.0,52.0,94.0,0.0
1.0,56.0,97.0,0.0
1.0,53.0,92.0,0.0
1.0,60.0,101.0,0.0
2.0,64.0,104.0,0.0
1.0,67.0,106.0,0.0
1.0,63.0,97.0,0.0
1.0,65.0,98.0,0.0
1.0,69.0,103.0,0.0
0.0,73.0,105.0,0.0
0.0,70.0,100.0,0.0
0.0,74.0,102.0,0.0
0.0,80.0,108.0,0.0
0.0,78.0,103.0,0.0
0.0,82.0,106.0,0.0
0.0,85.0,108.0,0.0
0.0,87.0,106.0,0.0
0.0,93.0,112.0,0.0
-1.0,91.0,106.0,0.0
-2.0,98.0,112.0,0.0
-1.0,98.0,111.0,0.0
-2.0,102.0,112.0,0.0
-2.0,105.0,112.0,0.0
-3.0,111.0,118.0,0.0
-2.0,108.0,111.0,0.0
-3.0,115.0,116.0,0.0
-4.0,122.0,121.0,0.0
-4.0,128.0,125.0,0.0
-12.0,-306.0,96.0,0.0
-11.0,-296.0,97.0,0.0
-11.0,-291.0,99.0,0.0
-10.0,-291.0,102.0,0.0
-9.0,-285.0,104.0,0.0
-8.0,-278.0,105.0,0.0
-8.0,-281.0,109.0,0.0
-8.0,-270.0,108.0,0.0
-7.0,-268.0,111.0,0.0
-7.0,-266.0,113.0,0.0
-6.0,-270.0,119.0,0.0
-5.0,-265.0,120.0,0.0
-5.0,-263.0,123.0,0.0
-5.0,-256.0,122.0,0.0
-4.0,-256.0,125.0,0.0
-3.0,-260.0,132.0,0.0
-3.0,-253.0,131.0,0.0
-3.0,-263.0,140.0,0.0
-3.0,-284.0,155.0,0.0
-2.0,-280.0,158.0,0.0
-1.0,-275.0,159.0,0.0
-1.0,-277.0,163.0,0.0
0.0,-254.0,153.0,0.0
0.0,-246.0,152.0,0.0
0.0,-231.0,146.0,0.0
0.0,-221.0,144.0,0.0
0.0,-216.0,142.0,0.0
0.0,-215.0,147.0,0.0
1.0,-182.0,127.0,0.0
1.0,-192.0,137.0,0.0
2.0,-178.0,129.0,0.0
1.0,-156.0,116.0,0.0
2.0,-152.0,116.0,0.0
3.0,-148.0,115.0,0.0
2.0,-134.0,106.0,0.0
3.0,-136.0,111.0,0.0
3.0,-114.0,95.0,0.0
3.0,-116.0,99.0,0.0
3.0,-116.0,100.0,0.0
3.0,-109.0,97.0,0.0
3.0,-94.0,86.0,0.0
3.0,-92.0,86.0,0.0
2.0,-81.0,77.0,0.0
2.0,-77.0,75.0,0.0
2.0,-66.0,66.0,0.0
810.0,-21755.0,22022.0,0.0
838.0,-21340.0,22074.0,0.0
865.0,-20949.0,22144.0,0.0
891.0,-20541.0,22187.0,0.0
858.0,-18878.0,20839.0,0.0
883.0,-18562.0,20941.0,0.0
904.0,-18193.0,20977.0,0.0
950.0,-18328.0,21601.0,0.0
1000.0,-18486.0,22270.0,0.0
1049.0,-18623.0,22936.0,0.0
1101.0,-18800.0,23672.0,0.0
1497.0,-24591.0,31662.0,1.0
1506.0,-23835.0,31384.0,1.0
1516.0,-23109.0,31122.0,1.0
1524.0,-22424.0,30892.0,1.0
1533.0,-21764.0,30677.0,1.0
1563.0,-21426.0,30903.0,1.0
1597.0,-21152.0,31223.0,1.0
1631.0,-20867.0,31533.0,1.0
1664.0,-20582.0,31847.0,1.0
1690.0,-20229.0,32056.0,1.0
1728.0,-20013.0,32489.0,1.0
1755.0,-19665.0,32712.0,1.0
1779.0,-19300.0,32906.0,1.0
1778.0,-18687.0,32667.0,1.0
1786.0,-18171.0,32579.0,1.0
1818.0,-17912.0,32950.0,1.0
1843.0,-17590.0,33208.0,1.0
1861.0,-17210.0,33360.0,1.0
1871.0,-16758.0,33365.0,1.0
1876.0,-16277.0,33302.0,1.0
1871.0,-15733.0,33093.0,1.0
1887.0,-15361.0,33236.0,1.0
1905.0,-15016.0,33437.0,1.0
1907.0,-14554.0,33370.0,1.0
1910.0,-14101.0,33313.0,1.0
1919.0,-13721.0,33420.0,1.0
1930.0,-13341.0,33525.0,1.0
1935.0,-12938.0,33569.0,1.0
1936.0,-12511.0,33539.0,1.0
1936.0,-12082.0,33494.0,1.0
1940.0,-11689.0,33539.0,1.0
1942.0,-11289.0,33560.0,1.0
1942.0,-10885.0,33557.0,1.0
1942.0,-10483.0,33555.0,1.0
1943.0,-10094.0,33582.0,1.0
1942.0,-9697.0,33581.0,1.0
1935.0,-9283.0,33503.0,1.0
1934.0,-8899.0,33528.0,1.0
1930.0,-8506.0,33511.0,1.0
1926.0,-8122.0,33514.0,1.0
1924.0,-7746.0,33552.0,1.0
1926.0,-7388.0,33659.0,1.0
1930.0,-7041.0,33828.0,1.0
1929.0,-6676.0,33909.0,1.0
1930.0,-6317.0,34032.0,1.0
1932.0,-5967.0,34210.0,1.0
1935.0,-5613.0,34378.0,1.0
1934.0,-5252.0,34518.0,1.0
1935.0,-4891.0,34672.0,1.0
1933.0,-4528.0,34823.0,1.0
1930.0,-4159.0,34949.0,1.0
1.0,-1.0,7.0,0.0
1.0,-2.0,24.0,0.0
0.0,-2.0,14.0,0.0
1.0,-2.0,29.0,0.0
1.0,-1.0,21.0,0.0
2.0,-1.0,30.0,0.0
1.0,0.0,18.0,0.0
1.0,-1.0,34.0,0.0
3.0,-1.0,46.0,0.0
2.0,0.0,54.0,0.0
3.0,0.0,58.0,0.0
2.0,0.0,44.0,0.0
1.0,0.0,34.0,0.0
2.0,1.0,53.0,0.0
2.0,1.0,49.0,0.0
2.0,2.0,41.0,0.0
2.0,3.0,55.0,0.0
2.0,4.0,62.0,0.0
3.0,5.0,67.0,0.0
3.0,6.0,69.0,0.0
3.0,7.0,65.0,0.0
4.0,10.0,86.0,0.0
3.0,11.0,87.0,0.0
4.0,13.0,93.0,0.0
4.0,14.0,93.0,0.0
5.0,17.0,105.0,0.0
4.0,15.0,90.0,0.0
3.0,13.0,76.0,0.0
3.0,17.0,87.0,0.0
3.0,18.0,90.0,0.0
3.0,20.0,93.0,0.0
3.0,23.0,102.0,0.0
3.0,23.0,94.0,0.0
3.0,24.0,96.0,0.0
3.0,27.0,102.0,0.0
3.0,31.0,116.0,0.0
3.0,29.0,102.0,0.0
3.0,32.0,107.0,0.0
4.0,35.0,113.0,0.0
3.0,35.0,110.0,0.0
3.0,38.0,113.0,0.0
2.0,36.0,106.0,0.0
3.0,39.0,110.0,0.0
2.0,39.0,105.0,0.0
2.0,39.0,102.0,0.0
2.0,42.0,106.0,0.0
2.0,41.0,101.0,0.0
2.0,41.0,98.0,0.0
2.0,46.0,107.0,0.0
2.0,48.0,106.0,0.0
2.0,44.0,96.0,0.0
2.0,50.0,105.0,0.0
1.0,45.0,92.0,0.0
1.0,49.0,98.0,0.0
1.0,48.0,94.0,0.0
1.0,51.0,96.0,0.0
0.0,52.0,97.0,0.0
1.0,55.0,100.0,0.0
0.0,53.0,94.0,0.0
0.0,58.0,98.0,0.0
0.0,57.0,96.0,0.0
0.0,57.0,94.0,0.0
0.0,56.0,91.0,0.0
0.0,59.0,92.0,0.0
0.0,62.0,94.0,0.0
0.0,63.0,92.0,0.0
0.0,67.0,96.0,0.0
0.0,68.0,96.0,0.0
0.0,71.0,98.0,0.0
-1.0,74.0,101.0,0.0
-1.0,75.0,98.0,0.0
-1.0,78.0,101.0,0.0
-1.0,80.0,100.0,0.0
-1.0,83.0,102.0,0.0
-2.0,79.0,95.0,0.0
-2.0,86.0,102.0,0.0
-2.0,91.0,104.0,0.0
-3.0,94.0,106.0,0.0
-3.0,97.0,107.0,0.0
-4.0,101.0,109.0,0.0
-4.0,107.0,114.0,0.0
-5.0,110.0,115.0,0.0
-4.0,112.0,113.0,0.0
-5.0,111.0,111.0,0.0
-5.0,117.0,114.0,0.0
-15.0,-318.0,101.0,0.0
-14.0,-303.0,100.0,0.0
-14.0,-309.0,106.0,0.0
-13.0,-294.0,104.0,0.0
-12.0,-296.0,108.0,0.0
-12.0,-292.0,110.0,0.0
-11.0,-280.0,109.0,0.0
-10.0,-277.0,112.0,0.0
-10.0,-270.0,112.0,0.0
-9.0,-267.0,114.0,0.0
-9.0,-271.0,119.0,0.0
-8.0,-275.0,125.0,0.0
-8.0,-261.0,121.0,0.0
-7.0,-262.0,125.0,0.0
-7.0,-264.0,130.0,0.0
-7.0,-269.0,136.0,0.0
-6.0,-263.0,137.0,0.0
-6.0,-268.0,142.0,0.0
-6.0,-289.0,158.0,0.0
-5.0,-292.0,163.0,0.0
-4.0,-275.0,158.0,0.0
-4.0,-272.0,160.0,0.0
-3.0,-270.0,163.0,0.0
-3.0,-241.0,150.0,0.0
-3.0,-233.0,147.0,0.0
-1.0,-226.0,146.0,0.0
-1.0,-218.0,146.0,0.0
-1.0,-206.0,141.0,0.0
-1.0,-199.0,139.0,0.0
0.0,-186.0,132.0,0.0
0.0,-166.0,121.0,0.0
0.0,-160.0,120.0,0.0
0.0,-150.0,115.0,0.0
0.0,-140.0,109.0,0.0
1.0,-130.0,104.0,0.0
1.0,-132.0,108.0,0.0
1.0,-119.0,100.0,0.0
1.0,-107.0,90.0,0.0
1.0,-112.0,98.0,0.0
1.0,-108.0,96.0,0.0
1.0,-106.0,96.0,0.0
1.0,-94.0,87.0,0.0
1.0,-88.0,84.0,0.0
1.0,-90.0,87.0,0.0
459.0,-22123.0,21943.0,0.0
490.0,-21710.0,22004.0,0.0
520.0,-21330.0,22090.0,0.0
550.0,-20964.0,22186.0,0.0
577.0,-20559.0,22233.0,0.0
565.0,-18870.0,20854.0,0.0
591.0,-18542.0,20942.0,0.0
615.0,-18208.0,21019.0,0.0
654.0,-18327.0,21624.0,0.0
696.0,-18484.0,22293.0,0.0
739.0,-18633.0,22973.0,0.0
783.0,-18800.0,23698.0,0.0
1068.0,-24447.0,31511.0,1.0
1085.0,-23729.0,31277.0,1.0
1098.0,-22962.0,30956.0,1.0
1112.0,-22252.0,30686.0,1.0
1127.0,-21631.0,30519.0,1.0
1159.0,-21319.0,30779.0,1.0
1191.0,-21053.0,31108.0,1.0
1223.0,-20796.0,31456.0,1.0
1252.0,-20459.0,31687.0,1.0
1280.0,-20153.0,31965.0,1.0
1311.0,-19882.0,32304.0,1.0
1340.0,-19574.0,32588.0,1.0
1362.0,-19195.0,32757.0,1.0
1372.0,-18652.0,32633.0,1.0
1384.0,-18148.0,32563.0,1.0
1410.0,-17864.0,32887.0,1.0
1434.0,-17542.0,33144.0,1.0
1456.0,-17210.0,33386.0,1.0
1471.0,-16805.0,33484.0,1.0
1483.0,-16357.0,33493.0,1.0
1480.0,-15770.0,33197.0,1.0
1494.0,-15395.0,33332.0,1.0
1513.0,-15072.0,33584.0,1.0
1517.0,-14602.0,33505.0,1.0
1520.0,-14135.0,33415.0,1.0
1537.0,-13807.0,33650.0,1.0
1546.0,-13411.0,33720.0,1.0
1550.0,-12989.0,33717.0,1.0
1555.0,-12576.0,33728.0,1.0
1559.0,-12165.0,33739.0,1.0
1562.0,-11756.0,33746.0,1.0
1566.0,-11360.0,33785.0,1.0
1567.0,-10951.0,33773.0,1.0
1570.0,-10563.0,33821.0,1.0
1571.0,-10168.0,33839.0,1.0
1571.0,-9764.0,33822.0,1.0
1566.0,-9349.0,33752.0,1.0
1565.0,-8958.0,33757.0,1.0
1559.0,-8542.0,33659.0,1.0
1558.0,-8165.0,33697.0,1.0
1550.0,-7756.0,33596.0,1.0
1555.0,-7415.0,33780.0,1.0
1561.0,-7078.0,34000.0,1.0
1562.0,-6722.0,34140.0,1.0
1562.0,-6363.0,34273.0,1.0
1559.0,-5991.0,34336.0,1.0
1563.0,-5646.0,34569.0,1.0
1562.0,-5285.0,34714.0,1.0
1559.0,-4918.0,34835.0,1.0
1558.0,-4555.0,34999.0,1.0
1548.0,-4168.0,34978.0,1.0
1531.0,-3770.0,34844.0,1.0
1.0,-3.0,33.0,0.0
1.0,-1.0,15.0,0.0
1.0,-1.0,17.0,0.0
1.0,-2.0,27.0,0.0
2.0,-2.0,44.0,0.0
1.0,-1.0,34.0,0.0
2.0,-1.0,43.0,0.0
2.0,-1.0,61.0,0.0
2.0,0.0,49.0,0.0
1.0,0.0,46.0,0.0
3.0,0.0,76.0,0.0
2.0,0.0,66.0,0.0
3.0,1.0,63.0,0.0
3.0,2.0,67.0,0.0
1.0,1.0,46.0,0.0
2.0,3.0,65.0,0.0
2.0,4.0,70.0,0.0
2.0,5.0,58.0,0.0
3.0,7.0,77.0,0.0
2.0,8.0,78.0,0.0
3.0,8.0,73.0,0.0
3.0,12.0,95.0,0.0
4.0,15.0,110.0,0.0
3.0,15.0,102.0,0.0
3.0,12.0,81.0,0.0
3.0,18.0,102.0,0.0
3.0,20.0,107.0,0.0
2.0,18.0,92.0,0.0
4.0,24.0,118.0,0.0
3.0,25.0,113.0,0.0
3.0,24.0,107.0,0.0
2.0,27.0,115.0,0.0
3.0,28.0,114.0,0.0
3.0,28.0,108.0,0.0
2.0,31.0,114.0,0.0
2.0,32.0,115.0,0.0
3.0,33.0,109.0,0.0
3.0,38.0,122.0,0.0
2.0,39.0,124.0,0.0
2.0,40.0,120.0,0.0
2.0,44.0,128.0,0.0
1.0,43.0,119.0,0.0
2.0,43.0,117.0,0.0
1.0,42.0,109.0,0.0
1.0,46.0,115.0,0.0
1.0,44.0,109.0,0.0
1.0,48.0,114.0,0.0
1.0,48.0,110.0,0.0
0.0,44.0,99.0,0.0
0.0,54.0,116.0,0.0
0.0,53.0,113.0,0.0
0.0,52.0,105.0,0.0
0.0,53.0,106.0,0.0
0.0,54.0,105.0,0.0
0.0,52.0,99.0,0.0
0.0,56.0,103.0,0.0
0.0,55.0,98.0,0.0
0.0,53.0,94.0,0.0
0.0,58.0,100.0,0.0
-1.0,59.0,99.0,0.0
0.0,59.0,97.0,0.0
-1.0,60.0,95.0,0.0
-1.0,67.0,103.0,0.0
0.0,62.0,93.0,0.0
-1.0,65.0,96.0,0.0
-1.0,69.0,100.0,0.0
-2.0,72.0,102.0,0.0
-2.0,75.0,105.0,0.0
-2.0,76.0,103.0,0.0
-2.0,75.0,98.0,0.0
-3.0,81.0,104.0,0.0
-3.0,82.0,104.0,0.0
-3.0,88.0,108.0,0.0
-3.0,88.0,107.0,0.0
-3.0,88.0,104.0,0.0
-3.0,90.0,104.0,0.0
-4.0,93.0,105.0,0.0
-4.0,103.0,115.0,0.0
-5.0,103.0,112.0,0.0
-5.0,107.0,113.0,0.0
-6.0,110.0,114.0,0.0
-6.0,112.0,114.0,0.0
-6.0,113.0,112.0,0.0
-6.0,116.0,113.0,0.0
-23.0,-340.0,109.0,0.0
-22.0,-327.0,108.0,0.0
-21.0,-319.0,110.0,0.0
-19.0,-302.0,108.0,0.0
-19.0,-306.0,112.0,0.0
-18.0,-301.0,114.0,0.0
-17.0,-291.0,114.0,0.0
-17.0,-288.0,117.0,0.0
-16.0,-282.0,118.0,0.0
-16.0,-288.0,124.0,0.0
-15.0,-281.0,124.0,0.0
-15.0,-283.0,129.0,0.0
-14.0,-274.0,128.0,0.0
-13.0,-276.0,133.0,0.0
-13.0,-278.0,138.0,0.0
-12.0,-276.0,140.0,0.0
-12.0,-273.0,142.0,0.0
-12.0,-287.0,154.0,0.0
-13.0,-304.0,166.0,0.0
-12.0,-298.0,167.0,0.0
-11.0,-296.0,171.0,0.0
-10.0,-272.0,161.0,0.0
-10.0,-269.0,163.0,0.0
-8.0,-239.0,148.0,0.0
-8.0,-233.0,148.0,0.0
-7.0,-223.0,145.0,0.0
-6.0,-218.0,145.0,0.0
-5.0,-200.0,137.0,0.0
-5.0,-191.0,134.0,0.0
-4.0,-176.0,126.0,0.0
-4.0,-178.0,130.0,0.0
-3.0,-148.0,111.0,0.0
-2.0,-148.0,113.0,0.0
-3.0,-143.0,113.0,0.0
-2.0,-133.0,106.0,0.0
-1.0,-121.0,98.0,0.0
-1.0,-119.0,100.0,0.0
-1.0,-117.0,100.0,0.0
-1.0,-110.0,96.0,0.0
0.0,-99.0,88.0,0.0
-1.0,-109.0,99.0,0.0
-291.0,-23349.0,21757.0,0.0
-254.0,-22941.0,21843.0,0.0
-217.0,-22518.0,21909.0,0.0
-182.0,-22113.0,21983.0,0.0
-147.0,-21681.0,22025.0,0.0
-114.0,-21269.0,22077.0,0.0
-83.0,-20914.0,22183.0,0.0
-52.0,-20522.0,22242.0,0.0
-20.0,-18849.0,20876.0,0.0
6.0,-18508.0,20948.0,0.0
32.0,-18189.0,21041.0,0.0
60.0,-18349.0,21695.0,0.0
88.0,-18505.0,22363.0,0.0
116.0,-18657.0,23049.0,0.0
145.0,-18782.0,23722.0,0.0
224.0,-24268.0,31340.0,1.0
253.0,-23502.0,31038.0,1.0
280.0,-22799.0,30793.0,1.0
305.0,-22044.0,30457.0,1.0
329.0,-21364.0,30198.0,1.0
358.0,-21134.0,30567.0,1.0
388.0,-20897.0,30933.0,1.0
416.0,-20589.0,31198.0,1.0
442.0,-20261.0,31433.0,1.0
469.0,-20026.0,31818.0,1.0
495.0,-19697.0,32058.0,1.0
518.0,-19324.0,32226.0,1.0
537.0,-18825.0,32176.0,1.0
556.0,-18393.0,32231.0,1.0
576.0,-17982.0,32316.0,1.0
601.0,-17736.0,32699.0,1.0
621.0,-17429.0,32980.0,1.0
644.0,-17131.0,33281.0,1.0
662.0,-16779.0,33482.0,1.0
678.0,-16373.0,33569.0,1.0
686.0,-15832.0,33369.0,1.0
697.0,-15340.0,33257.0,1.0
711.0,-14983.0,33426.0,1.0
721.0,-14530.0,33377.0,1.0
734.0,-14144.0,33475.0,1.0
751.0,-13868.0,33838.0,1.0
764.0,-13529.0,34054.0,1.0
773.0,-13114.0,34078.0,1.0
779.0,-12686.0,34060.0,1.0
786.0,-12283.0,34096.0,1.0
793.0,-11886.0,34150.0,1.0
799.0,-11495.0,34210.0,1.0
803.0,-11089.0,34224.0,1.0
807.0,-10686.0,34238.0,1.0
811.0,-10290.0,34267.0,1.0
808.0,-9830.0,34067.0,1.0
809.0,-9432.0,34065.0,1.0
807.0,-9002.0,33935.0,1.0
804.0,-8580.0,33812.0,1.0
799.0,-8155.0,33661.0,1.0
793.0,-7720.0,33439.0,1.0
802.0,-7443.0,33905.0,1.0
807.0,-7120.0,34196.0,1.0
809.0,-6788.0,34457.0,1.0
810.0,-6440.0,34661.0,1.0
808.0,-6073.0,34781.0,1.0
806.0,-5709.0,34913.0,1.0
802.0,-5337.0,35014.0,1.0
798.0,-4969.0,35141.0,1.0
789.0,-4571.0,35055.0,1.0
780.0,-4175.0,34966.0,1.0
1.0,-4.0,34.0,0.0
750.0,-3361.0,34456.0,1.0
1.0,-3.0,41.0,0.0
721.0,-2578.0,34021.0,1.0
0.0,-2.0,29.0,0.0
1.0,-2.0,44.0,0.0
1.0,-2.0,44.0,0.0
1.0,-1.0,48.0,0.0
1.0,-1.0,51.0,0.0
1.0,-1.0,56.0,0.0
1.0,0.0,45.0,0.0
1.0,0.0,44.0,0.0
1.0,0.0,69.0,0.0
1.0,1.0,65.0,0.0
1.0,3.0,78.0,0.0
1.0,3.0,80.0,0.0
1.0,4.0,73.0,0.0
1.0,4.0,66.0,0.0
2.0,7.0,92.0,0.0
2.0,9.0,104.0,0.0
1.0,10.0,99.0,0.0
1.0,9.0,82.0,0.0
1.0,12.0,103.0,0.0
1.0,13.0,103.0,0.0
1.0,14.0,100.0,0.0
1.0,16.0,102.0,0.0
1.0,18.0,106.0,0.0
0.0,19.0,105.0,0.0
1.0,22.0,115.0,0.0
1.0,24.0,119.0,0.0
0.0,28.0,131.0,0.0
0.0,26.0,113.0,0.0
0.0,31.0,131.0,0.0
0.0,28.0,115.0,0.0
0.0,31.0,120.0,0.0
0.0,35.0,127.0,0.0
0.0,35.0,124.0,0.0
0.0,40.0,135.0,0.0
0.0,41.0,134.0,0.0
0.0,44.0,138.0,0.0
0.0,43.0,130.0,0.0
0.0,44.0,130.0,0.0
0.0,43.0,122.0,0.0
0.0,46.0,124.0,0.0
0.0,48.0,127.0,0.0
0.0,49.0,126.0,0.0
-1.0,50.0,123.0,0.0
-1.0,53.0,127.0,0.0
0.0,50.0,117.0,0.0
-1.0,56.0,127.0,0.0
-1.0,60.0,130.0,0.0
-1.0,57.0,121.0,0.0
-2.0,59.0,121.0,0.0
-2.0,55.0,110.0,0.0
-2.0,61.0,119.0,0.0
-2.0,64.0,123.0,0.0
-2.0,61.0,114.0,0.0
-2.0,62.0,113.0,0.0
-2.0,58.0,101.0,0.0
-2.0,66.0,114.0,0.0
-2.0,62.0,104.0,0.0
-3.0,72.0,117.0,0.0
-3.0,74.0,119.0,0.0
-4.0,73.0,113.0,0.0
-4.0,67.0,101.0,0.0
-4.0,73.0,109.0,0.0
-4.0,78.0,114.0,0.0
-5.0,81.0,116.0,0.0
-4.0,78.0,108.0,0.0
-5.0,82.0,112.0,0.0
-6.0,86.0,114.0,0.0
-6.0,90.0,118.0,0.0
-5.0,88.0,111.0,0.0
-6.0,93.0,117.0,0.0
-7.0,92.0,111.0,0.0
-6.0,95.0,113.0,0.0
-7.0,100.0,116.0,0.0
-8.0,107.0,121.0,0.0
-8.0,110.0,122.0,0.0
-8.0,107.0,117.0,0.0
-9.0,113.0,120.0,0.0
-9.0,117.0,122.0,0.0
-9.0,120.0,122.0,0.0
-11.0,128.0,128.0,0.0
-11.0,126.0,123.0,0.0
-25.0,-325.0,104.0,0.0
-25.0,-322.0,107.0,0.0
-23.0,-310.0,107.0,0.0
-22.0,-310.0,110.0,0.0
-22.0,-301.0,111.0,0.0
-20.0,-296.0,113.0,0.0
-20.0,-293.0,115.0,0.0
-19.0,-291.0,118.0,0.0
-18.0,-280.0,117.0,0.0
-18.0,-272.0,117.0,0.0
-18.0,-282.0,126.0,0.0
-17.0,-272.0,124.0,0.0
-17.0,-277.0,130.0,0.0
-17.0,-279.0,134.0,0.0
-16.0,-276.0,137.0,0.0
-16.0,-274.0,139.0,0.0
-15.0,-271.0,141.0,0.0
-16.0,-285.0,153.0,0.0
-17.0,-311.0,171.0,0.0
-15.0,-298.0,168.0,0.0
-14.0,-273.0,158.0,0.0
-13.0,-265.0,157.0,0.0
-12.0,-253.0,153.0,0.0
-11.0,-232.0,145.0,0.0
-10.0,-225.0,144.0,0.0
-9.0,-217.0,142.0,0.0
-8.0,-209.0,139.0,0.0
-8.0,-196.0,134.0,0.0
-7.0,-178.0,123.0,0.0
-6.0,-181.0,129.0,0.0
-6.0,-171.0,125.0,0.0
-6.0,-157.0,118.0,0.0
-4.0,-129.0,98.0,0.0
-4.0,-136.0,106.0,0.0
-4.0,-133.0,107.0,0.0
-3.0,-125.0,102.0,0.0
-3.0,-113.0,94.0,0.0
-3.0,-111.0,96.0,0.0
-3.0,-103.0,90.0,0.0
-2.0,-92.0,83.0,0.0
-2.0,-103.0,94.0,0.0
-619.0,-23346.0,21776.0,0.0
-579.0,-22909.0,21835.0,0.0
-541.0,-22496.0,21909.0,0.0
-503.0,-22077.0,21970.0,0.0
-467.0,-21674.0,22038.0,0.0
-433.0,-21289.0,22118.0,0.0
-399.0,-20888.0,22175.0,0.0
-367.0,-20520.0,22261.0,0.0
-313.0,-18831.0,20875.0,0.0
-284.0,-18496.0,20955.0,0.0
-258.0,-18195.0,21066.0,0.0
-238.0,-18364.0,21731.0,0.0
-216.0,-18502.0,22380.0,0.0
-195.0,-18651.0,23062.0,0.0
-173.0,-18778.0,23739.0,0.0
-193.0,-24242.0,31334.0,1.0
-158.0,-23484.0,31040.0,1.0
-124.0,-22721.0,30714.0,1.0
-93.0,-22004.0,30425.0,1.0
-63.0,-21323.0,30164.0,1.0
-36.0,-21036.0,30450.0,1.0
-8.0,-20822.0,30846.0,1.0
16.0,-20546.0,31157.0,1.0
42.0,-20112.0,31227.0,1.0
67.0,-19861.0,31579.0,1.0
91.0,-19534.0,31815.0,1.0
115.0,-19181.0,32010.0,1.0
136.0,-18706.0,31994.0,1.0
157.0,-18243.0,31991.0,1.0
178.0,-17955.0,32289.0,1.0
199.0,-17674.0,32609.0,1.0
219.0,-17384.0,32916.0,1.0
239.0,-17064.0,33171.0,1.0
257.0,-16737.0,33418.0,1.0
273.0,-16279.0,33399.0,1.0
287.0,-15791.0,33304.0,1.0
300.0,-15325.0,33243.0,1.0
314.0,-14963.0,33402.0,1.0
327.0,-14507.0,33343.0,1.0
339.0,-14153.0,33513.0,1.0
354.0,-13875.0,33871.0,1.0
367.0,-13573.0,34180.0,1.0
378.0,-13184.0,34277.0,1.0
385.0,-12743.0,34224.0,1.0
394.0,-12351.0,34301.0,1.0
402.0,-11962.0,34379.0,1.0
408.0,-11549.0,34383.0,1.0
414.0,-11157.0,34446.0,1.0
419.0,-10753.0,34463.0,1.0
423.0,-10346.0,34459.0,1.0
419.0,-9762.0,33838.0,1.0
421.0,-9391.0,33923.0,1.0
423.0,-8991.0,33897.0,1.0
421.0,-8549.0,33695.0,1.0
420.0,-8125.0,33538.0,1.0
417.0,-7699.0,33347.0,1.0
423.0,-7444.0,33910.0,1.0
425.0,-7125.0,34213.0,1.0
427.0,-6799.0,34509.0,1.0
427.0,-6458.0,34754.0,1.0
424.0,-6097.0,34904.0,1.0
422.0,-5738.0,35074.0,1.0
418.0,-5360.0,35146.0,1.0
411.0,-4966.0,35099.0,1.0
403.0,-4571.0,35032.0,1.0
395.0,-4176.0,34941.0,1.0
386.0,-3781.0,34816.0,1.0
0.0,-2.0,25.0,0.0
360.0,-2956.0,34052.0,1.0
1.0,-3.0,39.0,0.0
0.0,-3.0,37.0,0.0
0.0,-1.0,36.0,0.0
1.0,-2.0,54.0,0.0
0.0,-1.0,49.0,0.0
1.0,-1.0,54.0,0.0
1.0,-1.0,51.0,0.0
0.0,0.0,48.0,0.0
1.0,0.0,59.0,0.0
0.0,0.0,61.0,0.0
0.0,1.0,50.0,0.0
1.0,2.0,79.0,0.0
0.0,2.0,66.0,0.0
0.0,4.0,81.0,0.0
0.0,4.0,70.0,0.0
0.0,8.0,92.0,0.0
0.0,8.0,86.0,0.0
0.0,11.0,106.0,0.0
0.0,11.0,99.0,0.0
0.0,11.0,95.0,0.0
0.0,14.0,109.0,0.0
0.0,15.0,102.0,0.0
0.0,16.0,104.0,0.0
0.0,19.0,112.0,0.0
0.0,18.0,102.0,0.0
0.0,23.0,123.0,0.0
0.0,24.0,117.0,0.0
0.0,25.0,119.0,0.0
0.0,28.0,122.0,0.0
0.0,30.0,123.0,0.0
0.0,28.0,115.0,0.0
0.0,29.0,109.0,0.0
0.0,31.0,115.0,0.0
0.0,31.0,111.0,0.0
-1.0,36.0,125.0,0.0
-1.0,39.0,126.0,0.0
-1.0,41.0,129.0,0.0
-1.0,41.0,124.0,0.0
-1.0,44.0,129.0,0.0
-2.0,48.0,136.0,0.0
-1.0,46.0,125.0,0.0
-1.0,47.0,125.0,0.0
-2.0,45.0,114.0,0.0
-3.0,51.0,125.0,0.0
-3.0,56.0,134.0,0.0
-2.0,51.0,119.0,0.0
-2.0,54.0,120.0,0.0
-2.0,57.0,124.0,0.0
-3.0,55.0,118.0,0.0
-2.0,58.0,119.0,0.0
-3.0,56.0,114.0,0.0
-3.0,60.0,118.0,0.0
-3.0,60.0,115.0,0.0
-4.0,60.0,112.0,0.0
-4.0,63.0,112.0,0.0
-3.0,62.0,109.0,0.0
-4.0,64.0,111.0,0.0
-4.0,63.0,106.0,0.0
-4.0,67.0,110.0,0.0
-5.0,74.0,118.0,0.0
-4.0,69.0,107.0,0.0
-5.0,69.0,105.0,0.0
-5.0,73.0,108.0,0.0
-6.0,80.0,117.0,0.0
-6.0,81.0,115.0,0.0
-5.0,76.0,105.0,0.0
-6.0,81.0,110.0,0.0
-7.0,88.0,117.0,0.0
-7.0,87.0,113.0,0.0
-7.0,92.0,118.0,0.0
-8.0,94.0,116.0,0.0
-8.0,92.0,111.0,0.0
-7.0,95.0,113.0,0.0
-8.0,98.0,114.0,0.0
-9.0,100.0,113.0,0.0
-9.0,105.0,117.0,0.0
-9.0,106.0,116.0,0.0
-10.0,106.0,113.0,0.0
-10.0,109.0,114.0,0.0
-11.0,122.0,125.0,0.0
-11.0,115.0,115.0,0.0
-11.0,122.0,119.0,0.0
-32.0,-328.0,106.0,0.0
-32.0,-331.0,110.0,0.0
-30.0,-314.0,108.0,0.0
-28.0,-306.0,109.0,0.0
-28.0,-313.0,115.0,0.0
-27.0,-300.0,115.0,0.0
-26.0,-299.0,118.0,0.0
-25.0,-287.0,116.0,0.0
-24.0,-282.0,118.0,0.0
-24.0,-284.0,122.0,0.0
-24.0,-279.0,124.0,0.0
-23.0,-278.0,127.0,0.0
-22.0,-273.0,128.0,0.0
-22.0,-271.0,130.0,0.0
-22.0,-275.0,137.0,0.0
-21.0,-273.0,139.0,0.0
-22.0,-281.0,147.0,0.0
-22.0,-293.0,157.0,0.0
-23.0,-304.0,168.0,0.0
-22.0,-286.0,162.0,0.0
-19.0,-269.0,155.0,0.0
-18.0,-247.0,146.0,0.0
-16.0,-242.0,148.0,0.0
-16.0,-232.0,145.0,0.0
-14.0,-204.0,130.0,0.0
-13.0,-201.0,132.0,0.0
-12.0,-180.0,120.0,0.0
-12.0,-187.0,128.0,0.0
-11.0,-169.0,118.0,0.0
-10.0,-166.0,119.0,0.0
-9.0,-155.0,113.0,0.0
-8.0,-138.0,104.0,0.0
-8.0,-135.0,103.0,0.0
-7.0,-133.0,105.0,0.0
-7.0,-123.0,98.0,0.0
-111.0,-1864.0,1530.0,0.0
-1504.0,-25398.0,21296.0,0.0
-1461.0,-25081.0,21493.0,0.0
-1411.0,-24600.0,21544.0,0.0
-1362.0,-24146.0,21611.0,0.0
-1316.0,-23712.0,21686.0,0.0
-1272.0,-23294.0,21768.0,0.0
-1229.0,-22877.0,21844.0,0.0
-1187.0,-22458.0,21911.0,0.0
-1147.0,-22061.0,21992.0,0.0
-1107.0,-21665.0,22068.0,0.0
-1068.0,-21242.0,22107.0,0.0
-1031.0,-20848.0,22170.0,0.0
-996.0,-20473.0,22247.0,0.0
-899.0,-18793.0,20867.0,0.0
-867.0,-18440.0,20924.0,0.0
-841.0,-18191.0,21095.0,0.0
-835.0,-18362.0,21764.0,0.0
-826.0,-18479.0,22387.0,0.0
-820.0,-18665.0,23115.0,0.0
-811.0,-18767.0,23760.0,0.0
-1032.0,-24271.0,31418.0,1.0
-985.0,-23557.0,31182.0,1.0
-938.0,-22806.0,30874.0,1.0
-893.0,-22093.0,30593.0,1.0
-855.0,-21471.0,30417.0,1.0
-831.0,-21234.0,30779.0,1.0
-809.0,-21006.0,31161.0,1.0
-785.0,-20693.0,31421.0,1.0
-759.0,-20332.0,31611.0,1.0
-738.0,-20046.0,31917.0,1.0
-716.0,-19744.0,32200.0,1.0
-691.0,-19314.0,32273.0,1.0
-661.0,-18749.0,32109.0,1.0
-635.0,-18261.0,32062.0,1.0
-614.0,-17884.0,32201.0,1.0
-600.0,-17681.0,32658.0,1.0
-583.0,-17385.0,32955.0,1.0
-566.0,-17050.0,33183.0,1.0
-549.0,-16724.0,33428.0,1.0
-528.0,-16215.0,33301.0,1.0
-509.0,-15767.0,33288.0,1.0
-489.0,-15230.0,33072.0,1.0
-475.0,-14886.0,33262.0,1.0
-463.0,-14550.0,33473.0,1.0
-452.0,-14240.0,33750.0,1.0
-444.0,-13964.0,34119.0,1.0
-433.0,-13618.0,34324.0,1.0
-423.0,-13284.0,34562.0,1.0
-414.0,-12907.0,34693.0,1.0
-403.0,-12481.0,34686.0,1.0
-394.0,-12072.0,34720.0,1.0
-385.0,-11664.0,34750.0,1.0
-376.0,-11227.0,34682.0,1.0
-368.0,-10769.0,34533.0,1.0
-360.0,-10315.0,34375.0,1.0
-348.0,-9747.0,33802.0,1.0
-345.0,-9381.0,33899.0,1.0
-341.0,-8984.0,33881.0,1.0
-336.0,-8559.0,33741.0,1.0
-333.0,-8133.0,33576.0,1.0
-329.0,-7711.0,33399.0,1.0
-333.0,-7446.0,33914.0,1.0
-337.0,-7137.0,34262.0,1.0
-340.0,-6808.0,34546.0,1.0
-344.0,-6459.0,34738.0,1.0
-349.0,-6121.0,35016.0,1.0
-352.0,-5747.0,35110.0,1.0
-357.0,-5369.0,35167.0,1.0
-361.0,-4980.0,35154.0,1.0
-366.0,-4582.0,35061.0,1.0
-371.0,-4191.0,35007.0,1.0
-376.0,-3797.0,34887.0,1.0
-382.0,-3396.0,34677.0,1.0
-387.0,-2997.0,34426.0,1.0
0.0,-2.0,36.0,0.0
0.0,-3.0,41.0,0.0
0.0,-2.0,28.0,0.0
0.0,-3.0,56.0,0.0
0.0,-1.0,41.0,0.0
0.0,-1.0,38.0,0.0
0.0,0.0,34.0,0.0
0.0,0.0,43.0,0.0
0.0,0.0,78.0,0.0
0.0,0.0,66.0,0.0
0.0,1.0,71.0,0.0
0.0,2.0,67.0,0.0
-1.0,3.0,75.0,0.0
0.0,4.0,69.0,0.0
-1.0,4.0,71.0,0.0
0.0,5.0,68.0,0.0
-1.0,6.0,76.0,0.0
-1.0,9.0,94.0,0.0
-1.0,13.0,122.0,0.0
-1.0,13.0,103.0,0.0
-1.0,12.0,90.0,0.0
-2.0,15.0,108.0,0.0
-1.0,16.0,98.0,0.0
-2.0,18.0,106.0,0.0
-2.0,18.0,100.0,0.0
-2.0,20.0,103.0,0.0
-2.0,22.0,109.0,0.0
-2.0,24.0,112.0,0.0
-2.0,25.0,108.0,0.0
-3.0,27.0,115.0,0.0
-3.0,27.0,107.0,0.0
-3.0,32.0,123.0,0.0
-3.0,33.0,122.0,0.0
-3.0,34.0,118.0,0.0
-3.0,36.0,124.0,0.0
-3.0,39.0,127.0,0.0
-4.0,43.0,136.0,0.0
-4.0,44.0,133.0,0.0
-4.0,46.0,135.0,0.0
-4.0,49.0,138.0,0.0
-4.0,44.0,121.0,0.0
-4.0,46.0,121.0,0.0
-5.0,52.0,132.0,0.0
-5.0,52.0,128.0,0.0
-5.0,55.0,131.0,0.0
-5.0,54.0,127.0,0.0
-5.0,54.0,120.0,0.0
-5.0,57.0,125.0,0.0
-5.0,60.0,128.0,0.0
-6.0,59.0,122.0,0.0
-5.0,58.0,116.0,0.0
-5.0,60.0,116.0,0.0
-6.0,63.0,120.0,0.0
-6.0,63.0,118.0,0.0
-6.0,62.0,113.0,0.0
-6.0,61.0,107.0,0.0
-6.0,64.0,110.0,0.0
-7.0,62.0,104.0,0.0
-7.0,66.0,107.0,0.0
-7.0,70.0,112.0,0.0
-7.0,67.0,106.0,0.0
-7.0,70.0,107.0,0.0
-8.0,77.0,115.0,0.0
-8.0,75.0,110.0,0.0
-9.0,79.0,112.0,0.0
-8.0,79.0,111.0,0.0
-9.0,80.0,108.0,0.0
-9.0,87.0,116.0,0.0
-10.0,91.0,118.0,0.0
-10.0,88.0,112.0,0.0
-10.0,92.0,114.0,0.0
-10.0,96.0,117.0,0.0
-11.0,94.0,111.0,0.0
-11.0,97.0,114.0,0.0
-11.0,99.0,112.0,0.0
-12.0,107.0,120.0,0.0
-12.0,108.0,117.0,0.0
-13.0,104.0,111.0,0.0
-14.0,114.0,119.0,0.0
-14.0,114.0,117.0,0.0
-15.0,121.0,121.0,0.0
-15.0,120.0,117.0,0.0
-37.0,-348.0,112.0,0.0
-37.0,-349.0,116.0,0.0
-34.0,-328.0,114.0,0.0
-33.0,-320.0,115.0,0.0
-32.0,-320.0,118.0,0.0
-31.0,-311.0,119.0,0.0
-31.0,-310.0,122.0,0.0
-29.0,-299.0,122.0,0.0
-29.0,-297.0,124.0,0.0
-28.0,-289.0,125.0,0.0
-28.0,-291.0,130.0,0.0
-26.0,-284.0,130.0,0.0
-27.0,-290.0,136.0,0.0
-25.0,-282.0,136.0,0.0
-26.0,-290.0,144.0,0.0
-26.0,-286.0,146.0,0.0
-27.0,-305.0,160.0,0.0
-27.0,-310.0,167.0,0.0
-26.0,-305.0,168.0,0.0
-24.0,-287.0,163.0,0.0
-23.0,-267.0,155.0,0.0
-22.0,-265.0,157.0,0.0
-20.0,-244.0,148.0,0.0
-19.0,-236.0,148.0,0.0
-18.0,-224.0,143.0,0.0
-16.0,-210.0,137.0,0.0
-16.0,-215.0,143.0,0.0
-14.0,-184.0,127.0,0.0
-12.0,-172.0,120.0,0.0
-12.0,-170.0,121.0,0.0
-13.0,-168.0,124.0,0.0
-10.0,-147.0,110.0,0.0
-11.0,-158.0,121.0,0.0
-9.0,-138.0,108.0,0.0
-9.0,-146.0,117.0,0.0
-139.0,-1910.0,1568.0,0.0
-1842.0,-25419.0,21331.0,0.0
-1797.0,-25061.0,21493.0,0.0
-1745.0,-24601.0,21562.0,0.0
-1696.0,-24169.0,21647.0,0.0
-1646.0,-23709.0,21700.0,0.0
-1602.0,-23311.0,21800.0,0.0
-1556.0,-22876.0,21860.0,0.0
-1511.0,-22440.0,21910.0,0.0
-1468.0,-22028.0,21976.0,0.0
-1429.0,-21675.0,22094.0,0.0
-1388.0,-21255.0,22137.0,0.0
-1349.0,-20853.0,22192.0,0.0
-1312.0,-20474.0,22264.0,0.0
-1191.0,-18770.0,20857.0,0.0
-1159.0,-18436.0,20934.0,0.0
-1134.0,-18200.0,21121.0,0.0
-1134.0,-18361.0,21778.0,0.0
-1135.0,-18530.0,22465.0,0.0
-1134.0,-18658.0,23122.0,0.0
-1508.0,-25019.0,31696.0,1.0
-1459.0,-24382.0,31582.0,1.0
-1404.0,-23636.0,31307.0,1.0
-1354.0,-22952.0,31093.0,1.0
-1304.0,-22240.0,30815.0,1.0
-1257.0,-21568.0,30573.0,1.0
-1233.0,-21270.0,30851.0,1.0
-1213.0,-21032.0,31220.0,1.0
-1191.0,-20749.0,31527.0,1.0
-1168.0,-20449.0,31809.0,1.0
-1146.0,-20124.0,32058.0,1.0
-1124.0,-19801.0,32310.0,1.0
-1101.0,-19448.0,32515.0,1.0
-1069.0,-18900.0,32385.0,1.0
-1041.0,-18416.0,32351.0,1.0
-1017.0,-17991.0,32410.0,1.0
-1001.0,-17682.0,32677.0,1.0
-986.0,-17399.0,32998.0,1.0
-971.0,-17089.0,33273.0,1.0
-953.0,-16728.0,33451.0,1.0
-930.0,-16237.0,33363.0,1.0
-908.0,-15764.0,33298.0,1.0
-884.0,-15236.0,33099.0,1.0
-869.0,-14844.0,33182.0,1.0
-860.0,-14566.0,33525.0,1.0
-853.0,-14286.0,33873.0,1.0
-844.0,-13975.0,34157.0,1.0
-837.0,-13667.0,34457.0,1.0
-830.0,-13339.0,34716.0,1.0
-819.0,-12953.0,34829.0,1.0
-809.0,-12555.0,34903.0,1.0
-799.0,-12145.0,34939.0,1.0
-788.0,-11713.0,34904.0,1.0
-774.0,-11238.0,34725.0,1.0
-762.0,-10772.0,34547.0,1.0
-748.0,-10269.0,34231.0,1.0
-734.0,-9766.0,33874.0,1.0
-731.0,-9413.0,34019.0,1.0
-725.0,-9001.0,33946.0,1.0
-718.0,-8582.0,33837.0,1.0
-712.0,-8163.0,33700.0,1.0
-705.0,-7736.0,33514.0,1.0
-710.0,-7414.0,33762.0,1.0
-719.0,-7137.0,34261.0,1.0
-723.0,-6801.0,34503.0,1.0
-731.0,-6470.0,34793.0,1.0
-738.0,-6129.0,35059.0,1.0
-741.0,-5749.0,35106.0,1.0
-746.0,-5378.0,35210.0,1.0
-749.0,-4988.0,35194.0,1.0
-754.0,-4599.0,35169.0,1.0
-757.0,-4203.0,35072.0,1.0
-759.0,-3802.0,34904.0,1.0
-764.0,-3413.0,34812.0,1.0
0.0,-3.0,39.0,0.0
-773.0,-2633.0,34487.0,1.0
0.0,-2.0,35.0,0.0
-1.0,-4.0,69.0,0.0
-1.0,-3.0,61.0,0.0
-1.0,-2.0,57.0,0.0
-1.0,-2.0,74.0,0.0
-1.0,-1.0,70.0,0.0
0.0,0.0,59.0,0.0
0.0,0.0,56.0,0.0
-1.0,0.0,69.0,0.0
0.0,2.0,60.0,0.0
-1.0,2.0,69.0,0.0
-2.0,4.0,78.0,0.0
-1.0,3.0,65.0,0.0
-1.0,5.0,82.0,0.0
-1.0,6.0,80.0,0.0
-3.0,9.0,108.0,0.0
-2.0,11.0,106.0,0.0
-2.0,12.0,109.0,0.0
-3.0,12.0,101.0,0.0
-3.0,14.0,103.0,0.0
-3.0,16.0,111.0,0.0
-2.0,17.0,110.0,0.0
-4.0,23.0,138.0,0.0
-3.0,21.0,116.0,0.0
-3.0,19.0,104.0,0.0
-4.0,25.0,127.0,0.0
-5.0,29.0,136.0,0.0
-4.0,27.0,124.0,0.0
-5.0,30.0,129.0,0.0
-4.0,32.0,130.0,0.0
-5.0,33.0,128.0,0.0
-5.0,40.0,147.0,0.0
-5.0,37.0,133.0,0.0
-6.0,40.0,139.0,0.0
-5.0,42.0,137.0,0.0
-5.0,41.0,129.0,0.0
-6.0,43.0,132.0,0.0
-5.0,43.0,126.0,0.0
-7.0,48.0,133.0,0.0
-6.0,53.0,143.0,0.0
-8.0,56.0,147.0,0.0
-7.0,54.0,140.0,0.0
-7.0,56.0,138.0,0.0
-8.0,59.0,142.0,0.0
-8.0,60.0,139.0,0.0
-7.0,60.0,136.0,0.0
-8.0,65.0,143.0,0.0
-8.0,64.0,136.0,0.0
-8.0,65.0,134.0,0.0
-8.0,61.0,124.0,0.0
-9.0,67.0,133.0,0.0
-9.0,69.0,133.0,0.0
-9.0,71.0,134.0,0.0
-8.0,67.0,123.0,0.0
-9.0,69.0,121.0,0.0
-9.0,74.0,127.0,0.0
-9.0,72.0,121.0,0.0
-9.0,69.0,114.0,0.0
-9.0,74.0,118.0,0.0
-9.0,74.0,116.0,0.0
-10.0,80.0,122.0,0.0
-9.0,79.0,117.0,0.0
-10.0,80.0,117.0,0.0
-11.0,90.0,128.0,0.0
-11.0,87.0,122.0,0.0
-11.0,91.0,124.0,0.0
-12.0,95.0,126.0,0.0
-13.0,96.0,124.0,0.0
-12.0,97.0,123.0,0.0
-12.0,94.0,117.0,0.0
-13.0,100.0,122.0,0.0
-13.0,98.0,117.0,0.0
-13.0,102.0,119.0,0.0
-14.0,106.0,121.0,0.0
-15.0,117.0,131.0,0.0
-14.0,107.0,116.0,0.0
-15.0,116.0,124.0,0.0
-16.0,119.0,125.0,0.0
-16.0,126.0,129.0,0.0
-17.0,128.0,130.0,0.0
-17.0,125.0,122.0,0.0
-42.0,-331.0,106.0,0.0
-41.0,-326.0,108.0,0.0
-40.0,-323.0,112.0,0.0
-38.0,-309.0,110.0,0.0
-37.0,-309.0,114.0,0.0
-35.0,-294.0,112.0,0.0
-35.0,-296.0,117.0,0.0
-34.0,-288.0,117.0,0.0
-33.0,-284.0,120.0,0.0
-32.0,-283.0,122.0,0.0
-31.0,-271.0,121.0,0.0
-31.0,-273.0,125.0,0.0
-29.0,-265.0,125.0,0.0
-30.0,-271.0,131.0,0.0
-29.0,-266.0,132.0,0.0
-31.0,-275.0,140.0,0.0
-34.0,-307.0,162.0,0.0
-32.0,-287.0,155.0,0.0
-32.0,-295.0,163.0,0.0
-29.0,-277.0,157.0,0.0
-27.0,-250.0,146.0,0.0
-26.0,-245.0,146.0,0.0
-25.0,-239.0,146.0,0.0
-24.0,-224.0,140.0,0.0
-21.0,-205.0,131.0,0.0
-19.0,-191.0,125.0,0.0
-18.0,-182.0,122.0,0.0
-19.0,-186.0,127.0,0.0
-16.0,-164.0,115.0,0.0
-15.0,-151.0,108.0,0.0
-13.0,-141.0,104.0,0.0
-194.0,-1915.0,1441.0,0.0
-193.0,-1920.0,1477.0,0.0
-188.0,-1872.0,1473.0,0.0
-187.0,-1884.0,1516.0,0.0
-185.0,-1859.0,1528.0,0.0
-2516.0,-25385.0,21332.0,0.0
-2376.0,-24087.0,20686.0,0.0
-2348.0,-23913.0,20988.0,0.0
-2359.0,-24125.0,21637.0,0.0
-2306.0,-23685.0,21706.0,0.0
-2256.0,-23261.0,21781.0,0.0
-2205.0,-22826.0,21840.0,0.0
-2159.0,-22421.0,21919.0,0.0
-2112.0,-22003.0,21978.0,0.0
-2066.0,-21595.0,22039.0,0.0
-2024.0,-21215.0,22123.0,0.0
-1982.0,-20823.0,22188.0,0.0
-1940.0,-20428.0,22240.0,0.0
-1776.0,-18728.0,20836.0,0.0
-1745.0,-18433.0,20956.0,0.0
-1722.0,-18212.0,21159.0,0.0
-1733.0,-18345.0,21783.0,0.0
-1748.0,-18509.0,22464.0,0.0
-1762.0,-18659.0,23148.0,0.0
-2371.0,-25096.0,31829.0,1.0
-2319.0,-24530.0,31810.0,1.0
-2257.0,-23837.0,31608.0,1.0
-2197.0,-23176.0,31429.0,1.0
-2138.0,-22502.0,31211.0,1.0
-2084.0,-21865.0,31026.0,1.0
-2045.0,-21396.0,31066.0,1.0
-2030.0,-21153.0,31430.0,1.0
-2010.0,-20871.0,31742.0,1.0
-1991.0,-20564.0,32020.0,1.0
-1969.0,-20239.0,32272.0,1.0
-1956.0,-19975.0,32627.0,1.0
-1938.0,-19653.0,32888.0,1.0
-1906.0,-19188.0,32909.0,1.0
-1858.0,-18562.0,32636.0,1.0
-1837.0,-18181.0,32781.0,1.0
-1814.0,-17789.0,32904.0,1.0
-1801.0,-17481.0,33183.0,1.0
-1790.0,-17184.0,33487.0,1.0
-1769.0,-16775.0,33572.0,1.0
-1741.0,-16298.0,33514.0,1.0
-1715.0,-15825.0,33452.0,1.0
-1688.0,-15353.0,33378.0,1.0
-1665.0,-14898.0,33328.0,1.0
-1649.0,-14514.0,33427.0,1.0
-1653.0,-14287.0,33898.0,1.0
-1646.0,-13957.0,34137.0,1.0
-1635.0,-13589.0,34283.0,1.0
-1623.0,-13197.0,34369.0,1.0
-1614.0,-12828.0,34512.0,1.0
-1602.0,-12433.0,34580.0,1.0
-1593.0,-12042.0,34662.0,1.0
-1580.0,-11626.0,34663.0,1.0
-1563.0,-11179.0,34557.0,1.0
-1551.0,-10756.0,34510.0,1.0
-1517.0,-10197.0,34000.0,1.0
-1517.0,-9855.0,34190.0,1.0
-1508.0,-9454.0,34176.0,1.0
-1498.0,-9041.0,34107.0,1.0
-1490.0,-8640.0,34069.0,1.0
-1479.0,-8217.0,33922.0,1.0
-1471.0,-7811.0,33834.0,1.0
-1467.0,-7430.0,33832.0,1.0
-1481.0,-7126.0,34198.0,1.0
-1493.0,-6805.0,34511.0,1.0
-1503.0,-6471.0,34786.0,1.0
-1515.0,-6132.0,35060.0,1.0
-1519.0,-5758.0,35140.0,1.0
-1525.0,-5386.0,35241.0,1.0
-1532.0,-5014.0,35346.0,1.0
-1535.0,-4625.0,35331.0,1.0
-1537.0,-4235.0,35294.0,1.0
-1536.0,-3837.0,35166.0,1.0
-1538.0,-3444.0,35056.0,1.0
-1536.0,-3048.0,34877.0,1.0
-1537.0,-2661.0,34749.0,1.0
-1529.0,-2260.0,34357.0,1.0
-1.0,-3.0,47.0,0.0
-1533.0,-1506.0,34068.0,1.0
0.0,0.0,31.0,0.0
-1.0,-1.0,41.0,0.0
-2.0,-1.0,60.0,0.0
-2.0,0.0,63.0,0.0
-1.0,0.0,48.0,0.0
-1.0,0.0,33.0,0.0
-1.0,1.0,51.0,0.0
-2.0,1.0,60.0,0.0
-3.0,3.0,70.0,0.0
-3.0,4.0,71.0,0.0
-2.0,5.0,68.0,0.0
-3.0,5.0,72.0,0.0
-3.0,7.0,73.0,0.0
-3.0,7.0,71.0,0.0
-3.0,9.0,81.0,0.0
-4.0,11.0,88.0,0.0
-4.0,11.0,84.0,0.0
-5.0,14.0,97.0,0.0
-4.0,12.0,81.0,0.0
-4.0,16.0,96.0,0.0
-5.0,18.0,102.0,0.0
-5.0,19.0,100.0,0.0
-5.0,18.0,94.0,0.0
-5.0,21.0,101.0,0.0
-6.0,22.0,100.0,0.0
-7.0,28.0,119.0,0.0
-6.0,27.0,110.0,0.0
-7.0,32.0,125.0,0.0
-7.0,34.0,123.0,0.0
-6.0,30.0,107.0,0.0
-8.0,36.0,122.0,0.0
-7.0,36.0,120.0,0.0
-9.0,41.0,128.0,0.0
-7.0,40.0,121.0,0.0
-8.0,41.0,119.0,0.0
-9.0,47.0,132.0,0.0
-9.0,48.0,129.0,0.0
-9.0,52.0,135.0,0.0
-9.0,51.0,131.0,0.0
-10.0,55.0,134.0,0.0
-9.0,53.0,125.0,0.0
-10.0,56.0,129.0,0.0
-10.0,56.0,125.0,0.0
-10.0,59.0,129.0,0.0
-10.0,62.0,133.0,0.0
-11.0,60.0,124.0,0.0
-10.0,59.0,119.0,0.0
-10.0,58.0,114.0,0.0
-11.0,64.0,123.0,0.0
-10.0,61.0,114.0,0.0
-8.0,55.0,100.0,0.0
-11.0,68.0,121.0,0.0
-10.0,62.0,106.0,0.0
-10.0,65.0,110.0,0.0
-11.0,69.0,112.0,0.0
-12.0,72.0,115.0,0.0
-11.0,70.0,111.0,0.0
-12.0,77.0,118.0,0.0
-12.0,72.0,107.0,0.0
-12.0,73.0,107.0,0.0
-12.0,77.0,109.0,0.0
-13.0,80.0,112.0,0.0
-12.0,80.0,110.0,0.0
-13.0,82.0,108.0,0.0
-13.0,83.0,108.0,0.0
-13.0,84.0,106.0,0.0
-15.0,90.0,112.0,0.0
-14.0,87.0,106.0,0.0
-14.0,92.0,109.0,0.0
-15.0,92.0,108.0,0.0
-15.0,98.0,111.0,0.0
-15.0,99.0,111.0,0.0
-16.0,102.0,113.0,0.0
-17.0,106.0,114.0,0.0
-17.0,108.0,113.0,0.0
-17.0,111.0,114.0,0.0
-18.0,114.0,115.0,0.0
-19.0,118.0,116.0,0.0
27.0,-275.0,81.0,0.0
28.0,-273.0,84.0,0.0
29.0,-279.0,89.0,0.0
29.0,-275.0,91.0,0.0
30.0,-275.0,94.0,0.0
31.0,-272.0,96.0,0.0
32.0,-279.0,103.0,0.0
33.0,-279.0,106.0,0.0
33.0,-275.0,107.0,0.0
34.0,-275.0,111.0,0.0
34.0,-271.0,113.0,0.0
36.0,-277.0,119.0,0.0
36.0,-273.0,121.0,0.0
37.0,-268.0,123.0,0.0
37.0,-266.0,124.0,0.0
38.0,-270.0,129.0,0.0
39.0,-270.0,133.0,0.0
40.0,-272.0,138.0,0.0
41.0,-267.0,140.0,0.0
41.0,-267.0,143.0,0.0
44.0,-279.0,153.0,0.0
45.0,-284.0,160.0,0.0
45.0,-273.0,158.0,0.0
43.0,-252.0,149.0,0.0
39.0,-227.0,138.0,0.0
36.0,-206.0,128.0,0.0
37.0,-209.0,134.0,0.0
37.0,-201.0,131.0,0.0
36.0,-193.0,129.0,0.0
34.0,-178.0,122.0,0.0
32.0,-168.0,118.0,0.0
31.0,-155.0,111.0,0.0
33.0,-164.0,121.0,0.0
31.0,-152.0,114.0,0.0
31.0,-149.0,115.0,0.0
31.0,-143.0,113.0,0.0
28.0,-127.0,102.0,0.0
25.0,-113.0,93.0,0.0
24.0,-110.0,92.0,0.0
25.0,-110.0,94.0,0.0
23.0,-97.0,86.0,0.0
25.0,-103.0,94.0,0.0
23.0,-94.0,87.0,0.0
19.0,-76.0,72.0,0.0
19.0,-74.0,71.0,0.0
17.0,-68.0,67.0,0.0
21.0,-81.0,83.0,0.0
5707.0,-21440.0,22030.0,0.0
5704.0,-21021.0,22081.0,0.0
5711.0,-20647.0,22172.0,0.0
5327.0,-18888.0,20738.0,0.0
5337.0,-18562.0,20838.0,0.0
5348.0,-18237.0,20933.0,0.0
5476.0,-18312.0,21495.0,0.0
5643.0,-18501.0,22210.0,0.0
5797.0,-18632.0,22876.0,0.0
5964.0,-18790.0,23600.0,0.0
8377.0,-25863.0,33230.0,1.0
8459.0,-25592.0,33644.0,1.0
8398.0,-24893.0,33489.0,1.0
8298.0,-24093.0,33175.0,1.0
8171.0,-23234.0,32750.0,1.0
8064.0,-22453.0,32403.0,1.0
7963.0,-21704.0,32078.0,1.0
7855.0,-20954.0,31723.0,1.0
7760.0,-20255.0,31416.0,1.0
7663.0,-19566.0,31102.0,1.0
7562.0,-18882.0,30769.0,1.0
7454.0,-18196.0,30403.0,1.0
7344.0,-17523.0,30031.0,1.0
7263.0,-16933.0,29775.0,1.0
7192.0,-16375.0,29553.0,1.0
7193.0,-15990.0,29632.0,1.0
7256.0,-15738.0,29959.0,1.0
7305.0,-15459.0,30241.0,1.0
7349.0,-15162.0,30494.0,1.0
7386.0,-14853.0,30725.0,1.0
7401.0,-14497.0,30860.0,1.0
7369.0,-14051.0,30800.0,1.0
7407.0,-13743.0,31035.0,1.0
7371.0,-13298.0,30960.0,1.0
7333.0,-12857.0,30877.0,1.0
7302.0,-12431.0,30819.0,1.0
7255.0,-11983.0,30693.0,1.0
7218.0,-11560.0,30613.0,1.0
7192.0,-11159.0,30577.0,1.0
7156.0,-10745.0,30497.0,1.0
7065.0,-10258.0,30184.0,1.0
7019.0,-9842.0,30058.0,1.0
7017.0,-9493.0,30127.0,1.0
7016.0,-9144.0,30191.0,1.0
7019.0,-8803.0,30280.0,1.0
6999.0,-8433.0,30267.0,1.0
6988.0,-8078.0,30299.0,1.0
6976.0,-7722.0,30321.0,1.0
6980.0,-7386.0,30416.0,1.0
7084.0,-7147.0,30939.0,1.0
0.0,0.0,1.0,0.0
3.0,-2.0,12.0,0.0
4.0,-3.0,16.0,0.0
2.0,-2.0,9.0,0.0
1.0,-1.0,6.0,0.0
4.0,-3.0,15.0,0.0
0.0,0.0,0.0,0.0
7300.0,-4510.0,32545.0,1.0
2.0,-1.0,8.0,0.0
7204.0,-3741.0,32280.0,1.0
7100.0,-3335.0,31898.0,1.0
3.0,-1.0,11.0,0.0
4.0,-1.0,16.0,0.0
2.0,-1.0,10.0,0.0
4.0,-1.0,16.0,0.0
7.0,-1.0,31.0,0.0
4.0,-1.0,18.0,0.0
9.0,-1.0,39.0,0.0
9.0,0.0,39.0,0.0
10.0,0.0,45.0,0.0
8.0,0.0,37.0,0.0
10.0,0.0,46.0,0.0
12.0,1.0,54.0,0.0
13.0,1.0,58.0,0.0
16.0,3.0,76.0,0.0
14.0,3.0,63.0,0.0
11.0,3.0,52.0,0.0
13.0,4.0,60.0,0.0
10.0,4.0,48.0,0.0
17.0,8.0,78.0,0.0
14.0,7.0,63.0,0.0
12.0,7.0,58.0,0.0
17.0,10.0,80.0,0.0
19.0,14.0,93.0,0.0
17.0,13.0,82.0,0.0
17.0,14.0,82.0,0.0
18.0,16.0,88.0,0.0
18.0,17.0,91.0,0.0
19.0,19.0,95.0,0.0
22.0,23.0,106.0,0.0
22.0,24.0,106.0,0.0
23.0,28.0,113.0,0.0
22.0,27.0,110.0,0.0
22.0,28.0,107.0,0.0
21.0,29.0,104.0,0.0
19.0,28.0,95.0,0.0
22.0,32.0,107.0,0.0
22.0,35.0,112.0,0.0
22.0,35.0,108.0,0.0
21.0,37.0,111.0,0.0
21.0,37.0,107.0,0.0
21.0,38.0,105.0,0.0
17.0,33.0,88.0,0.0
20.0,39.0,102.0,0.0
19.0,39.0,98.0,0.0
20.0,42.0,102.0,0.0
16.0,37.0,88.0,0.0
18.0,40.0,93.0,0.0
18.0,42.0,93.0,0.0
18.0,46.0,97.0,0.0
20.0,49.0,103.0,0.0
16.0,43.0,87.0,0.0
17.0,46.0,91.0,0.0
15.0,42.0,80.0,0.0
16.0,44.0,83.0,0.0
16.0,50.0,91.0,0.0
16.0,51.0,91.0,0.0
16.0,53.0,91.0,0.0
16.0,53.0,90.0,0.0
17.0,57.0,93.0,0.0
16.0,57.0,91.0,0.0
15.0,55.0,86.0,0.0
15.0,59.0,89.0,0.0
15.0,57.0,86.0,0.0
15.0,58.0,86.0,0.0
16.0,65.0,92.0,0.0
16.0,69.0,95.0,0.0
16.0,70.0,94.0,0.0
16.0,70.0,93.0,0.0
16.0,77.0,99.0,0.0
15.0,72.0,91.0,0.0
16.0,78.0,97.0,0.0
16.0,81.0,99.0,0.0
17.0,89.0,106.0,0.0
17.0,93.0,108.0,0.0
15.0,86.0,98.0,0.0
17.0,96.0,106.0,0.0
16.0,97.0,105.0,0.0
17.0,101.0,107.0,0.0
18.0,112.0,117.0,0.0
16.0,104.0,106.0,0.0
17.0,111.0,111.0,0.0
16.0,114.0,111.0,0.0
16.0,118.0,112.0,0.0
16.0,121.0,113.0,0.0
19.0,-269.0,81.0,0.0
19.0,-268.0,84.0,0.0
21.0,-274.0,89.0,0.0
21.0,-267.0,90.0,0.0
22.0,-273.0,95.0,0.0
23.0,-272.0,98.0,0.0
24.0,-270.0,101.0,0.0
23.0,-269.0,104.0,0.0
24.0,-271.0,108.0,0.0
24.0,-265.0,109.0,0.0
26.0,-271.0,114.0,0.0
26.0,-267.0,116.0,0.0
27.0,-272.0,122.0,0.0
28.0,-268.0,123.0,0.0
29.0,-265.0,126.0,0.0
29.0,-267.0,130.0,0.0
30.0,-266.0,133.0,0.0
30.0,-261.0,134.0,0.0
31.0,-262.0,139.0,0.0
34.0,-279.0,152.0,0.0
34.0,-279.0,155.0,0.0
35.0,-276.0,158.0,0.0
33.0,-255.0,149.0,0.0
31.0,-234.0,141.0,0.0
29.0,-214.0,132.0,0.0
28.0,-204.0,129.0,0.0
27.0,-193.0,125.0,0.0
28.0,-194.0,128.0,0.0
28.0,-185.0,125.0,0.0
26.0,-170.0,118.0,0.0
25.0,-164.0,116.0,0.0
25.0,-158.0,115.0,0.0
24.0,-148.0,110.0,0.0
23.0,-139.0,105.0,0.0
23.0,-136.0,105.0,0.0
22.0,-126.0,100.0,0.0
22.0,-123.0,100.0,0.0
19.0,-104.0,87.0,0.0
19.0,-104.0,88.0,0.0
20.0,-102.0,89.0,0.0
17.0,-93.0,82.0,0.0
17.0,-85.0,78.0,0.0
16.0,-78.0,72.0,0.0
18.0,-89.0,84.0,0.0
15.0,-71.0,70.0,0.0
13.0,-61.0,61.0,0.0
4711.0,-21721.0,21992.0,0.0
4720.0,-21327.0,22072.0,0.0
4722.0,-20908.0,22119.0,0.0
4725.0,-20499.0,22169.0,0.0
4421.0,-18792.0,20775.0,0.0
4436.0,-18476.0,20883.0,0.0
4468.0,-18232.0,21068.0,0.0
4601.0,-18395.0,21736.0,0.0
4729.0,-18521.0,22378.0,0.0
4866.0,-18664.0,23064.0,0.0
6897.0,-25914.0,32754.0,1.0
6955.0,-25589.0,33084.0,1.0
6951.0,-25041.0,33123.0,1.0
6871.0,-24232.0,32797.0,1.0
6777.0,-23399.0,32411.0,1.0
6687.0,-22595.0,32036.0,1.0
6605.0,-21841.0,31703.0,1.0
6531.0,-21127.0,31403.0,1.0
6462.0,-20448.0,31129.0,1.0
6387.0,-19766.0,30826.0,1.0
6319.0,-19118.0,30553.0,1.0
6233.0,-18434.0,30195.0,1.0
6153.0,-17780.0,29862.0,1.0
6083.0,-17175.0,29582.0,1.0
6060.0,-16709.0,29526.0,1.0
6085.0,-16379.0,29705.0,1.0
6127.0,-16095.0,29968.0,1.0
6163.0,-15796.0,30208.0,1.0
6182.0,-15451.0,30360.0,1.0
6186.0,-15069.0,30438.0,1.0
6164.0,-14630.0,30392.0,1.0
6165.0,-14251.0,30464.0,1.0
6158.0,-13854.0,30490.0,1.0
6161.0,-13481.0,30563.0,1.0
6163.0,-13114.0,30645.0,1.0
6165.0,-12744.0,30718.0,1.0
6139.0,-12321.0,30650.0,1.0
6128.0,-11932.0,30662.0,1.0
6127.0,-11566.0,30724.0,1.0
6126.0,-11202.0,30789.0,1.0
6131.0,-10852.0,30885.0,1.0
6140.0,-10505.0,30995.0,1.0
6133.0,-10137.0,31034.0,1.0
6119.0,-9756.0,31028.0,1.0
6131.0,-9421.0,31165.0,1.0
6117.0,-9045.0,31167.0,1.0
6102.0,-8670.0,31160.0,1.0
6078.0,-8287.0,31118.0,1.0
6053.0,-7905.0,31065.0,1.0
6035.0,-7534.0,31045.0,1.0
6017.0,-7167.0,31031.0,1.0
5996.0,-6800.0,30998.0,1.0
6002.0,-6463.0,31107.0,1.0
5994.0,-6111.0,31144.0,1.0
5994.0,-5768.0,31226.0,1.0
6007.0,-5437.0,31378.0,1.0
7.0,-6.0,39.0,0.0
2.0,-1.0,13.0,0.0
4.0,-3.0,25.0,0.0
0.0,0.0,2.0,0.0
2.0,-1.0,10.0,0.0
2.0,-2.0,14.0,0.0
3.0,-1.0,16.0,0.0
5.0,-3.0,28.0,0.0
3.0,-1.0,16.0,0.0
3.0,-1.0,16.0,0.0
5.0,-1.0,22.0,0.0
5.0,-1.0,26.0,0.0
7.0,-1.0,39.0,0.0
5.0,-1.0,23.0,0.0
6.0,0.0,34.0,0.0
8.0,0.0,44.0,0.0
6.0,0.0,31.0,0.0
6.0,0.0,31.0,0.0
12.0,1.0,61.0,0.0
12.0,2.0,62.0,0.0
12.0,3.0,62.0,0.0
11.0,3.0,65.0,0.0
10.0,4.0,58.0,0.0
11.0,5.0,61.0,0.0
13.0,7.0,73.0,0.0
12.0,7.0,68.0,0.0
13.0,8.0,72.0,0.0
16.0,11.0,89.0,0.0
13.0,11.0,77.0,0.0
12.0,11.0,69.0,0.0
14.0,13.0,80.0,0.0
14.0,14.0,81.0,0.0
15.0,17.0,90.0,0.0
15.0,17.0,84.0,0.0
15.0,18.0,90.0,0.0
16.0,21.0,96.0,0.0
15.0,22.0,92.0,0.0
17.0,26.0,103.0,0.0
17.0,26.0,100.0,0.0
15.0,25.0,90.0,0.0
17.0,29.0,102.0,0.0
16.0,29.0,98.0,0.0
15.0,27.0,91.0,0.0
19.0,38.0,118.0,0.0
20.0,41.0,123.0,0.0
15.0,33.0,94.0,0.0
16.0,36.0,99.0,0.0
15.0,35.0,94.0,0.0
16.0,38.0,99.0,0.0
14.0,34.0,86.0,0.0
14.0,38.0,91.0,0.0
14.0,37.0,86.0,0.0
15.0,42.0,97.0,0.0
12.0,35.0,79.0,0.0
14.0,42.0,91.0,0.0
14.0,44.0,93.0,0.0
14.0,44.0,90.0,0.0
12.0,41.0,81.0,0.0
13.0,44.0,86.0,0.0
12.0,44.0,82.0,0.0
13.0,48.0,88.0,0.0
13.0,46.0,84.0,0.0
12.0,49.0,86.0,0.0
11.0,46.0,79.0,0.0
13.0,54.0,91.0,0.0
11.0,51.0,84.0,0.0
11.0,53.0,84.0,0.0
13.0,59.0,91.0,0.0
11.0,57.0,85.0,0.0
13.0,65.0,96.0,0.0
13.0,63.0,91.0,0.0
12.0,68.0,95.0,0.0
13.0,70.0,96.0,0.0
12.0,71.0,96.0,0.0
13.0,74.0,97.0,0.0
13.0,76.0,98.0,0.0
13.0,79.0,99.0,0.0
13.0,86.0,105.0,0.0
13.0,83.0,99.0,0.0
12.0,84.0,98.0,0.0
12.0,87.0,99.0,0.0
11.0,85.0,95.0,0.0
13.0,98.0,107.0,0.0
12.0,98.0,106.0,0.0
13.0,102.0,108.0,0.0
12.0,102.0,106.0,0.0
11.0,108.0,108.0,0.0
12.0,111.0,110.0,0.0
11.0,112.0,108.0,0.0
11.0,115.0,109.0,0.0
9.0,-281.0,86.0,0.0
10.0,-277.0,89.0,0.0
10.0,-275.0,91.0,0.0
11.0,-277.0,95.0,0.0
12.0,-269.0,96.0,0.0
13.0,-284.0,104.0,0.0
13.0,-274.0,104.0,0.0
14.0,-278.0,109.0,0.0
14.0,-276.0,111.0,0.0
14.0,-277.0,115.0,0.0
15.0,-275.0,118.0,0.0
16.0,-271.0,119.0,0.0
17.0,-276.0,125.0,0.0
17.0,-274.0,128.0,0.0
18.0,-269.0,130.0,0.0
18.0,-273.0,135.0,0.0
19.0,-266.0,136.0,0.0
19.0,-269.0,140.0,0.0
20.0,-266.0,143.0,0.0
22.0,-289.0,158.0,0.0
23.0,-282.0,159.0,0.0
23.0,-281.0,163.0,0.0
23.0,-268.0,158.0,0.0
21.0,-235.0,142.0,0.0
22.0,-239.0,148.0,0.0
21.0,-221.0,141.0,0.0
22.0,-225.0,147.0,0.0
20.0,-201.0,135.0,0.0
21.0,-208.0,141.0,0.0
19.0,-181.0,127.0,0.0
19.0,-177.0,127.0,0.0
17.0,-161.0,118.0,0.0
19.0,-164.0,122.0,0.0
18.0,-153.0,118.0,0.0
18.0,-146.0,115.0,0.0
18.0,-143.0,115.0,0.0
16.0,-131.0,107.0,0.0
14.0,-111.0,94.0,0.0
