//X,Y,Z,Classification
8.0,-126.0,93.0,0.0
8.0,-137.0,99.0,0.0
9.0,-146.0,104.0,0.0
8.0,-143.0,99.0,0.0
9.0,-148.0,100.0,0.0
10.0,-151.0,101.0,0.0
10.0,-165.0,107.0,0.0
10.0,-160.0,101.0,0.0
11.0,-167.0,103.0,0.0
13.0,-185.0,111.0,0.0
13.0,-190.0,112.0,0.0
14.0,-195.0,112.0,0.0
14.0,-197.0,111.0,0.0
14.0,-201.0,110.0,0.0
15.0,-212.0,112.0,0.0
16.0,-214.0,110.0,0.0
17.0,-223.0,112.0,0.0
17.0,-230.0,113.0,0.0
18.0,-234.0,112.0,0.0
18.0,-233.0,108.0,0.0
20.0,-249.0,112.0,0.0
21.0,-254.0,111.0,0.0
22.0,-259.0,110.0,0.0
22.0,-257.0,106.0,0.0
21.0,-257.0,103.0,0.0
22.0,-263.0,101.0,0.0
25.0,-292.0,110.0,0.0
28.0,-317.0,115.0,0.0
29.0,-320.0,112.0,0.0
29.0,-317.0,107.0,0.0
28.0,-310.0,102.0,0.0
30.0,-320.0,101.0,0.0
1618.0,13556.0,13349.0,0.0
1610.0,13545.0,13624.0,0.0
1590.0,13439.0,13808.0,0.0
1569.0,13331.0,13992.0,0.0
1563.0,13340.0,14303.0,0.0
1540.0,13197.0,14457.0,0.0
1520.0,13084.0,14643.0,0.0
1509.0,13054.0,14928.0,0.0
1498.0,13020.0,15214.0,0.0
1482.0,12933.0,15444.0,0.0
1470.0,12880.0,15720.0,0.0
1455.0,12791.0,15958.0,0.0
1445.0,12759.0,16270.0,0.0
1434.0,12704.0,16565.0,0.0
1421.0,12633.0,16842.0,0.0
1408.0,12555.0,17118.0,0.0
1400.0,12530.0,17473.0,0.0
1394.0,12507.0,17843.0,0.0
1388.0,12496.0,18242.0,0.0
1578.0,14239.0,21272.0,0.0
1558.0,14091.0,21549.0,0.0
1706.0,15467.0,24217.0,0.0
1662.0,15093.0,24201.0,0.0
1766.0,16060.0,26378.0,0.0
1734.0,15799.0,26589.0,0.0
1693.0,15438.0,26629.0,0.0
1578.0,14399.0,25465.0,0.0
1563.0,14265.0,25873.0,0.0
1548.0,14129.0,26293.0,0.0
1510.0,13789.0,26335.0,0.0
1463.0,13345.0,26170.0,0.0
1418.0,12918.0,26023.0,0.0
1382.0,12576.0,26031.0,0.0
1441.0,13089.0,27857.0,0.0
1435.0,13006.0,28474.0,0.0
1437.0,12981.0,29250.0,0.0
1473.0,13262.0,30775.0,0.0
1393.0,12484.0,29850.0,0.0
1417.0,12641.0,31164.0,0.0
1405.0,12461.0,31698.0,0.0
1385.0,12212.0,32076.0,0.0
1348.0,11795.0,32017.0,0.0
1310.0,11380.0,31946.0,0.0
1275.0,10962.0,31859.0,0.0
1238.0,10546.0,31760.0,0.0
1202.0,10123.0,31624.0,0.0
1165.0,9698.0,31460.0,0.0
1133.0,9301.0,31374.0,0.0
1111.0,8987.0,31560.0,0.0
1107.0,8809.0,32250.0,0.0
1107.0,8645.0,33048.0,0.0
1105.0,8457.0,33820.0,0.0
903.0,6761.0,28336.0,0.0
878.0,6419.0,28247.0,0.0
871.0,6197.0,28700.0,0.0
875.0,6043.0,29530.0,0.0
856.0,5723.0,29585.0,0.0
833.0,5378.0,29506.0,0.0
810.0,5027.0,29375.0,0.0
789.0,4687.0,29283.0,0.0
768.0,4349.0,29187.0,0.0
749.0,4015.0,29100.0,0.0
730.0,3683.0,28999.0,0.0
712.0,3353.0,28892.0,0.0
694.0,3027.0,28804.0,0.0
678.0,2705.0,28710.0,0.0
661.0,2384.0,28602.0,0.0
645.0,2059.0,28409.0,0.0
629.0,1745.0,28302.0,0.0
578.0,1348.0,26515.0,0.0
568.0,1060.0,26502.0,0.0
557.0,772.0,26422.0,0.0
548.0,486.0,26450.0,0.0
538.0,201.0,26378.0,0.0
552.0,-86.0,27498.0,0.0
571.0,-403.0,28892.0,0.0
704.0,-892.0,36091.0,1.0
686.0,-1265.0,35618.0,1.0
671.0,-1631.0,35228.0,1.0
655.0,-1987.0,34773.0,1.0
643.0,-2343.0,34466.0,1.0
631.0,-2689.0,34122.0,1.0
620.0,-3030.0,33791.0,1.0
609.0,-3364.0,33451.0,1.0
601.0,-3699.0,33179.0,1.0
592.0,-4023.0,32867.0,1.0
585.0,-4347.0,32592.0,1.0
579.0,-4668.0,32336.0,1.0
574.0,-4983.0,32067.0,1.0
569.0,-5292.0,31787.0,1.0
563.0,-5590.0,31480.0,1.0
558.0,-5877.0,31136.0,1.0
555.0,-6167.0,30847.0,1.0
553.0,-6458.0,30580.0,1.0
551.0,-6748.0,30332.0,1.0
549.0,-7011.0,29989.0,1.0
549.0,-7286.0,29710.0,1.0
549.0,-7566.0,29477.0,1.0
550.0,-7837.0,29222.0,1.0
552.0,-8123.0,29032.0,1.0
554.0,-8396.0,28807.0,1.0
557.0,-8675.0,28610.0,1.0
561.0,-8935.0,28363.0,1.0
566.0,-9198.0,28138.0,1.0
570.0,-9480.0,27975.0,1.0
580.0,-9811.0,27955.0,1.0
593.0,-10177.0,28028.0,1.0
606.0,-10550.0,28106.0,1.0
619.0,-10920.0,28162.0,1.0
633.0,-11306.0,28252.0,1.0
648.0,-11678.0,28293.0,1.0
663.0,-12062.0,28353.0,1.0
681.0,-12470.0,28456.0,1.0
700.0,-12886.0,28562.0,1.0
718.0,-13299.0,28650.0,1.0
740.0,-13753.0,28811.0,1.0
763.0,-14217.0,28975.0,1.0
790.0,-14755.0,29268.0,1.0
819.0,-15297.0,29548.0,1.0
849.0,-15856.0,29835.0,1.0
877.0,-16370.0,30017.0,1.0
907.0,-16895.0,30200.0,1.0
939.0,-17457.0,30430.0,1.0
974.0,-18049.0,30691.0,1.0
1009.0,-18647.0,30939.0,1.0
1048.0,-19281.0,31224.0,1.0
1087.0,-19895.0,31456.0,1.0
1128.0,-20544.0,31718.0,1.0
1172.0,-21235.0,32024.0,1.0
1220.0,-21956.0,32348.0,1.0
1267.0,-22660.0,32623.0,1.0
1318.0,-23419.0,32951.0,1.0
1375.0,-24246.0,33346.0,1.0
1060.0,-18549.0,24942.0,0.0
1062.0,-18441.0,24247.0,0.0
1064.0,-18312.0,23546.0,0.0
1061.0,-18116.0,22783.0,0.0
1068.0,-18065.0,22222.0,0.0
1096.0,-18390.0,22130.0,0.0
1122.0,-18642.0,21947.0,0.0
1233.0,-20300.0,23384.0,0.0
1265.0,-20633.0,23256.0,0.0
1302.0,-21023.0,23187.0,0.0
1343.0,-21481.0,23184.0,0.0
1381.0,-21857.0,23086.0,0.0
1421.0,-22265.0,23015.0,0.0
1466.0,-22744.0,23008.0,0.0
1505.0,-23108.0,22877.0,0.0
1552.0,-23573.0,22839.0,0.0
1595.0,-23977.0,22735.0,0.0
1644.0,-24450.0,22688.0,0.0
1669.0,-24556.0,22299.0,0.0
1678.0,-24425.0,21703.0,0.0
6.0,-103.0,90.0,0.0
7.0,-107.0,91.0,0.0
7.0,-115.0,96.0,0.0
8.0,-130.0,106.0,0.0
9.0,-131.0,105.0,0.0
8.0,-119.0,93.0,0.0
9.0,-126.0,96.0,0.0
10.0,-139.0,103.0,0.0
10.0,-144.0,106.0,0.0
9.0,-140.0,99.0,0.0
10.0,-147.0,102.0,0.0
11.0,-156.0,105.0,0.0
12.0,-164.0,108.0,0.0
13.0,-160.0,104.0,0.0
13.0,-167.0,105.0,0.0
14.0,-171.0,105.0,0.0
13.0,-175.0,105.0,0.0
15.0,-191.0,112.0,0.0
16.0,-199.0,115.0,0.0
16.0,-195.0,108.0,0.0
18.0,-214.0,117.0,0.0
17.0,-204.0,109.0,0.0
19.0,-227.0,117.0,0.0
19.0,-220.0,111.0,0.0
20.0,-227.0,112.0,0.0
21.0,-241.0,115.0,0.0
21.0,-244.0,113.0,0.0
22.0,-246.0,111.0,0.0
23.0,-254.0,111.0,0.0
24.0,-262.0,112.0,0.0
24.0,-254.0,105.0,0.0
25.0,-263.0,105.0,0.0
26.0,-271.0,105.0,0.0
28.0,-287.0,108.0,0.0
30.0,-311.0,114.0,0.0
31.0,-315.0,111.0,0.0
32.0,-319.0,109.0,0.0
32.0,-314.0,103.0,0.0
32.0,-316.0,100.0,0.0
1964.0,13546.0,13352.0,0.0
1965.0,13569.0,13660.0,0.0
1952.0,13497.0,13880.0,0.0
1926.0,13336.0,14009.0,0.0
1943.0,13467.0,14453.0,0.0
1924.0,13347.0,14634.0,0.0
1902.0,13200.0,14788.0,0.0
2018.0,14013.0,16040.0,0.0
2012.0,13970.0,16340.0,0.0
1760.0,12218.0,14604.0,0.0
1961.0,13617.0,16636.0,0.0
1971.0,13677.0,17079.0,0.0
1964.0,13627.0,17396.0,0.0
1840.0,12753.0,16645.0,0.0
1814.0,12555.0,16755.0,0.0
1993.0,13778.0,18804.0,0.0
1997.0,13781.0,19239.0,0.0
1799.0,12392.0,17699.0,0.0
1796.0,12343.0,18038.0,0.0
1788.0,12256.0,18330.0,0.0
1784.0,12194.0,18668.0,0.0
1779.0,12120.0,18997.0,0.0
1777.0,12060.0,19358.0,0.0
1771.0,11973.0,19686.0,0.0
1766.0,11889.0,20032.0,0.0
1761.0,11804.0,20383.0,0.0
1759.0,11727.0,20763.0,0.0
1756.0,11644.0,21143.0,0.0
1754.0,11556.0,21529.0,0.0
1751.0,11458.0,21910.0,0.0
1748.0,11359.0,22302.0,0.0
1749.0,11281.0,22753.0,0.0
1748.0,11177.0,23165.0,0.0
1747.0,11074.0,23598.0,0.0
1748.0,10972.0,24052.0,0.0
1749.0,10864.0,24511.0,0.0
1752.0,10769.0,25020.0,0.0
1754.0,10652.0,25502.0,0.0
1756.0,10529.0,25992.0,0.0
1760.0,10414.0,26525.0,0.0
1954.0,11401.0,29985.0,0.0
2047.0,11762.0,31969.0,0.0
2012.0,11370.0,31962.0,0.0
1972.0,10955.0,31879.0,0.0
1929.0,10519.0,31723.0,0.0
1897.0,10141.0,31723.0,0.0
1844.0,9649.0,31344.0,0.0
1809.0,9259.0,31272.0,0.0
1793.0,8962.0,31516.0,0.0
1808.0,8800.0,32268.0,0.0
1822.0,8632.0,33048.0,0.0
1831.0,8421.0,33725.0,0.0
1515.0,6751.0,28336.0,0.0
1522.0,6553.0,28879.0,0.0
1521.0,6313.0,29285.0,0.0
1517.0,6055.0,29636.0,0.0
1492.0,5712.0,29578.0,0.0
1466.0,5359.0,29448.0,0.0
1441.0,5013.0,29344.0,0.0
1420.0,4678.0,29278.0,0.0
1395.0,4334.0,29141.0,0.0
1372.0,3998.0,29027.0,0.0
1354.0,3674.0,28990.0,0.0
1333.0,3344.0,28872.0,0.0
1314.0,3020.0,28786.0,0.0
1295.0,2697.0,28680.0,0.0
1278.0,2379.0,28603.0,0.0
1261.0,2062.0,28527.0,0.0
1245.0,1747.0,28423.0,0.0
1230.0,1436.0,28343.0,0.0
1215.0,1127.0,28256.0,0.0
1126.0,767.0,26403.0,0.0
1118.0,483.0,26415.0,0.0
1109.0,198.0,26390.0,0.0
1149.0,-89.0,27561.0,0.0
1195.0,-404.0,28832.0,0.0
1489.0,-896.0,36149.0,1.0
1462.0,-1270.0,35705.0,1.0
1440.0,-1637.0,35317.0,1.0
1417.0,-1996.0,34913.0,1.0
1399.0,-2353.0,34602.0,1.0
1379.0,-2698.0,34230.0,1.0
1363.0,-3042.0,33923.0,1.0
1345.0,-3375.0,33566.0,1.0
1331.0,-3707.0,33260.0,1.0
1318.0,-4034.0,32975.0,1.0
1306.0,-4359.0,32701.0,1.0
1297.0,-4684.0,32461.0,1.0
1288.0,-5005.0,32228.0,1.0
1279.0,-5318.0,31968.0,1.0
1268.0,-5616.0,31651.0,1.0
1257.0,-5904.0,31309.0,1.0
1251.0,-6206.0,31071.0,1.0
1245.0,-6505.0,30829.0,1.0
1239.0,-6791.0,30549.0,1.0
1233.0,-7070.0,30267.0,1.0
1228.0,-7347.0,29986.0,1.0
1224.0,-7630.0,29758.0,1.0
1221.0,-7903.0,29499.0,1.0
1222.0,-8196.0,29324.0,1.0
1222.0,-8468.0,29087.0,1.0
1222.0,-8749.0,28886.0,1.0
1220.0,-9003.0,28613.0,1.0
1223.0,-9278.0,28411.0,1.0
1230.0,-9580.0,28302.0,1.0
1241.0,-9914.0,28283.0,1.0
1253.0,-10255.0,28272.0,1.0
1270.0,-10629.0,28348.0,1.0
1287.0,-11002.0,28407.0,1.0
1304.0,-11366.0,28435.0,1.0
1323.0,-11740.0,28477.0,1.0
1341.0,-12117.0,28517.0,1.0
1364.0,-12527.0,28619.0,1.0
1386.0,-12921.0,28674.0,1.0
1409.0,-13329.0,28748.0,1.0
1436.0,-13773.0,28888.0,1.0
1469.0,-14261.0,29100.0,1.0
1506.0,-14797.0,29390.0,1.0
1545.0,-15332.0,29653.0,1.0
1580.0,-15850.0,29861.0,1.0
1617.0,-16372.0,30060.0,1.0
1655.0,-16896.0,30241.0,1.0
1699.0,-17474.0,30498.0,1.0
1743.0,-18050.0,30734.0,1.0
1788.0,-18643.0,30973.0,1.0
1838.0,-19271.0,31249.0,1.0
1889.0,-19909.0,31518.0,1.0
1944.0,-20578.0,31814.0,1.0
1999.0,-21245.0,32083.0,1.0
2061.0,-21979.0,32425.0,1.0
2126.0,-22742.0,32784.0,1.0
2195.0,-23535.0,33161.0,1.0
2273.0,-24420.0,33634.0,1.0
2342.0,-25194.0,33925.0,1.0
1713.0,-18457.0,24300.0,0.0
1696.0,-18288.0,23548.0,0.0
1684.0,-18163.0,22874.0,0.0
1673.0,-18041.0,22224.0,0.0
1703.0,-18353.0,22117.0,0.0
1728.0,-18613.0,21944.0,0.0
1885.0,-20277.0,23390.0,0.0
1920.0,-20628.0,23283.0,0.0
1961.0,-21020.0,23218.0,0.0
2001.0,-21416.0,23148.0,0.0
2045.0,-21834.0,23096.0,0.0
2087.0,-22221.0,23003.0,0.0
2138.0,-22690.0,22988.0,0.0
2183.0,-23098.0,22902.0,0.0
2228.0,-23499.0,22802.0,0.0
2275.0,-23902.0,22700.0,0.0
2331.0,-24406.0,22683.0,0.0
8.0,-95.0,87.0,0.0
10.0,-108.0,97.0,0.0
10.0,-109.0,95.0,0.0
9.0,-95.0,81.0,0.0
10.0,-117.0,97.0,0.0
10.0,-108.0,88.0,0.0
11.0,-117.0,93.0,0.0
11.0,-126.0,98.0,0.0
13.0,-133.0,101.0,0.0
11.0,-126.0,94.0,0.0
14.0,-145.0,106.0,0.0
13.0,-141.0,100.0,0.0
15.0,-152.0,105.0,0.0
13.0,-137.0,94.0,0.0
15.0,-163.0,108.0,0.0
15.0,-153.0,100.0,0.0
18.0,-173.0,110.0,0.0
18.0,-171.0,105.0,0.0
20.0,-195.0,118.0,0.0
20.0,-188.0,111.0,0.0
21.0,-201.0,115.0,0.0
21.0,-196.0,109.0,0.0
22.0,-208.0,114.0,0.0
23.0,-218.0,116.0,0.0
23.0,-215.0,110.0,0.0
24.0,-225.0,114.0,0.0
25.0,-227.0,112.0,0.0
25.0,-235.0,112.0,0.0
27.0,-245.0,114.0,0.0
28.0,-254.0,115.0,0.0
29.0,-256.0,112.0,0.0
30.0,-267.0,114.0,0.0
29.0,-259.0,107.0,0.0
31.0,-270.0,108.0,0.0
31.0,-265.0,103.0,0.0
34.0,-289.0,108.0,0.0
36.0,-303.0,111.0,0.0
38.0,-317.0,112.0,0.0
37.0,-312.0,106.0,0.0
38.0,-312.0,102.0,0.0
37.0,-309.0,98.0,0.0
2134.0,13526.0,13335.0,0.0
2139.0,13557.0,13653.0,0.0
2130.0,13496.0,13883.0,0.0
2100.0,13303.0,13979.0,0.0
2113.0,13376.0,14360.0,0.0
2107.0,13333.0,14623.0,0.0
2083.0,13172.0,14760.0,0.0
2373.0,14989.0,17162.0,0.0
2322.0,14649.0,17140.0,0.0
1933.0,12180.0,14564.0,0.0
2137.0,13434.0,16418.0,0.0
2182.0,13698.0,17112.0,0.0
2191.0,13722.0,17522.0,0.0
2195.0,13711.0,17902.0,0.0
2206.0,13741.0,18345.0,0.0
2216.0,13764.0,18791.0,0.0
2224.0,13768.0,19227.0,0.0
2219.0,13689.0,19557.0,0.0
2218.0,13629.0,19922.0,0.0
2219.0,13573.0,20305.0,0.0
2265.0,13796.0,21127.0,0.0
2224.0,13474.0,21126.0,0.0
2191.0,13205.0,21204.0,0.0
2018.0,12087.0,19882.0,0.0
2082.0,12397.0,20896.0,0.0
2045.0,12096.0,20896.0,0.0
2016.0,11840.0,20971.0,0.0
2017.0,11752.0,21348.0,0.0
2441.0,14113.0,26304.0,0.0
2394.0,13718.0,26240.0,0.0
2334.0,13249.0,26022.0,0.0
2064.0,11606.0,23417.0,0.0
2393.0,13315.0,27608.0,0.0
2360.0,12988.0,27687.0,0.0
2394.0,13024.0,28559.0,0.0
2097.0,11269.0,25433.0,0.0
2085.0,11055.0,25693.0,0.0
2501.0,13078.0,31322.0,0.0
2055.0,10586.0,26143.0,0.0
2053.0,10414.0,26535.0,0.0
2303.0,11486.0,30222.0,0.0
2399.0,11758.0,31973.0,0.0
2354.0,11327.0,31856.0,0.0
2312.0,10907.0,31755.0,0.0
2281.0,10535.0,31785.0,0.0
2237.0,10108.0,31635.0,0.0
2189.0,9661.0,31398.0,0.0
2151.0,9261.0,31297.0,0.0
2138.0,8965.0,31543.0,0.0
2160.0,8806.0,32302.0,0.0
2182.0,8630.0,33055.0,0.0
2204.0,8446.0,33843.0,0.0
1820.0,6739.0,28296.0,0.0
1826.0,6522.0,28756.0,0.0
1797.0,6172.0,28643.0,0.0
1817.0,5985.0,29307.0,0.0
1810.0,5704.0,29552.0,0.0
1784.0,5356.0,29450.0,0.0
1759.0,5013.0,29359.0,0.0
1733.0,4669.0,29243.0,0.0
1711.0,4338.0,29186.0,0.0
1686.0,3997.0,29044.0,0.0
1664.0,3669.0,28959.0,0.0
1642.0,3338.0,28838.0,0.0
1623.0,3016.0,28765.0,0.0
1603.0,2692.0,28654.0,0.0
1583.0,2372.0,28551.0,0.0
1567.0,2058.0,28481.0,0.0
1551.0,1746.0,28415.0,0.0
1534.0,1433.0,28321.0,0.0
1519.0,1124.0,28222.0,0.0
1411.0,767.0,26406.0,0.0
1398.0,481.0,26326.0,0.0
1391.0,197.0,26327.0,0.0
1445.0,-89.0,27509.0,0.0
1507.0,-404.0,28810.0,0.0
1885.0,-897.0,36216.0,1.0
1853.0,-1271.0,35741.0,1.0
1825.0,-1639.0,35339.0,1.0
1798.0,-1996.0,34934.0,1.0
1777.0,-2353.0,34615.0,1.0
1756.0,-2702.0,34294.0,1.0
1736.0,-3045.0,33976.0,1.0
1720.0,-3387.0,33702.0,1.0
1700.0,-3717.0,33366.0,1.0
1683.0,-4041.0,33043.0,1.0
1671.0,-4370.0,32800.0,1.0
1660.0,-4698.0,32571.0,1.0
1647.0,-5013.0,32288.0,1.0
1635.0,-5324.0,32018.0,1.0
1623.0,-5628.0,31728.0,1.0
1612.0,-5924.0,31431.0,1.0
1603.0,-6224.0,31172.0,1.0
1594.0,-6524.0,30932.0,1.0
1587.0,-6817.0,30688.0,1.0
1579.0,-7097.0,30397.0,1.0
1572.0,-7377.0,30124.0,1.0
1566.0,-7653.0,29862.0,1.0
1566.0,-7950.0,29687.0,1.0
1561.0,-8228.0,29451.0,1.0
1562.0,-8512.0,29252.0,1.0
1560.0,-8790.0,29037.0,1.0
1559.0,-9064.0,28821.0,1.0
1562.0,-9347.0,28639.0,1.0
1568.0,-9656.0,28539.0,1.0
1578.0,-9975.0,28468.0,1.0
1593.0,-10320.0,28467.0,1.0
1614.0,-10711.0,28584.0,1.0
1629.0,-11061.0,28577.0,1.0
1646.0,-11414.0,28571.0,1.0
1665.0,-11781.0,28591.0,1.0
1685.0,-12156.0,28622.0,1.0
1709.0,-12552.0,28692.0,1.0
1732.0,-12945.0,28745.0,1.0
1760.0,-13374.0,28862.0,1.0
1791.0,-13820.0,29001.0,1.0
1827.0,-14304.0,29203.0,1.0
1870.0,-14842.0,29494.0,1.0
1911.0,-15361.0,29725.0,1.0
1952.0,-15887.0,29947.0,1.0
1993.0,-16405.0,30135.0,1.0
2036.0,-16938.0,30332.0,1.0
2084.0,-17505.0,30570.0,1.0
2132.0,-18076.0,30794.0,1.0
2184.0,-18684.0,31058.0,1.0
2237.0,-19287.0,31293.0,1.0
2293.0,-19921.0,31557.0,1.0
2353.0,-20588.0,31849.0,1.0
2419.0,-21294.0,32175.0,1.0
2484.0,-21998.0,32473.0,1.0
2561.0,-22795.0,32882.0,1.0
2642.0,-23634.0,33319.0,1.0
2727.0,-24498.0,33761.0,1.0
2803.0,-25279.0,34059.0,1.0
2039.0,-18460.0,24319.0,0.0
2019.0,-18331.0,23618.0,0.0
1995.0,-18156.0,22879.0,0.0
1977.0,-18032.0,22226.0,0.0
2003.0,-18301.0,22069.0,0.0
2034.0,-18618.0,21965.0,0.0
2211.0,-20253.0,23377.0,0.0
2250.0,-20644.0,23316.0,0.0
2289.0,-20998.0,23207.0,0.0
2332.0,-21400.0,23145.0,0.0
2380.0,-21835.0,23111.0,0.0
2426.0,-22254.0,23053.0,0.0
2469.0,-22622.0,22933.0,0.0
2520.0,-23067.0,22886.0,0.0
2573.0,-23521.0,22839.0,0.0
2625.0,-23962.0,22771.0,0.0
2672.0,-24360.0,22654.0,0.0
2675.0,-24327.0,22140.0,0.0
9.0,-91.0,81.0,0.0
10.0,-94.0,82.0,0.0
12.0,-115.0,98.0,0.0
10.0,-99.0,82.0,0.0
13.0,-121.0,99.0,0.0
12.0,-119.0,96.0,0.0
12.0,-115.0,89.0,0.0
14.0,-127.0,97.0,0.0
12.0,-113.0,85.0,0.0
14.0,-128.0,93.0,0.0
14.0,-130.0,92.0,0.0
15.0,-135.0,94.0,0.0
16.0,-143.0,97.0,0.0
16.0,-144.0,96.0,0.0
16.0,-148.0,96.0,0.0
18.0,-158.0,100.0,0.0
19.0,-170.0,106.0,0.0
20.0,-173.0,104.0,0.0
21.0,-183.0,107.0,0.0
20.0,-178.0,102.0,0.0
22.0,-192.0,108.0,0.0
21.0,-186.0,101.0,0.0
23.0,-193.0,102.0,0.0
24.0,-206.0,107.0,0.0
26.0,-215.0,109.0,0.0
27.0,-217.0,107.0,0.0
28.0,-226.0,109.0,0.0
28.0,-229.0,107.0,0.0
29.0,-236.0,107.0,0.0
31.0,-247.0,109.0,0.0
33.0,-260.0,111.0,0.0
32.0,-251.0,104.0,0.0
33.0,-260.0,105.0,0.0
34.0,-266.0,104.0,0.0
35.0,-268.0,101.0,0.0
37.0,-292.0,106.0,0.0
40.0,-304.0,107.0,0.0
40.0,-309.0,105.0,0.0
40.0,-305.0,101.0,0.0
39.0,-298.0,94.0,0.0
2309.0,13531.0,13342.0,0.0
2318.0,13571.0,13668.0,0.0
2304.0,13472.0,13861.0,0.0
2276.0,13289.0,13967.0,0.0
2296.0,13384.0,14371.0,0.0
2290.0,13323.0,14614.0,0.0
2261.0,13127.0,14712.0,0.0
2114.0,12247.0,14026.0,0.0
2114.0,12217.0,14296.0,0.0
2107.0,12149.0,14529.0,0.0
2141.0,12304.0,15040.0,0.0
2144.0,12287.0,15351.0,0.0
2157.0,12316.0,15729.0,0.0
2158.0,12274.0,16027.0,0.0
2176.0,12320.0,16451.0,0.0
2201.0,12416.0,16955.0,0.0
2225.0,12488.0,17442.0,0.0
2456.0,13714.0,19596.0,0.0
2451.0,13616.0,19910.0,0.0
2457.0,13569.0,20305.0,0.0
2501.0,13734.0,21038.0,0.0
2466.0,13450.0,21093.0,0.0
2434.0,13187.0,21180.0,0.0
2244.0,12068.0,19856.0,0.0
2335.0,12462.0,21010.0,0.0
2282.0,12076.0,20867.0,0.0
2258.0,11849.0,20993.0,0.0
2261.0,11756.0,21362.0,0.0
2739.0,14101.0,26289.0,0.0
2688.0,13697.0,26210.0,0.0
2619.0,13202.0,25938.0,0.0
2326.0,11598.0,23407.0,0.0
2516.0,12389.0,25696.0,0.0
2668.0,12974.0,27667.0,0.0
2717.0,13037.0,28596.0,0.0
2380.0,11263.0,25430.0,0.0
2372.0,11057.0,25707.0,0.0
2351.0,10791.0,25852.0,0.0
2353.0,10623.0,26243.0,0.0
2343.0,10398.0,26507.0,0.0
2621.0,11419.0,30055.0,0.0
2748.0,11745.0,31947.0,0.0
2704.0,11321.0,31850.0,0.0
2665.0,10925.0,31818.0,0.0
2626.0,10521.0,31753.0,0.0
2587.0,10122.0,31690.0,0.0
2528.0,9644.0,31353.0,0.0
2496.0,9269.0,31331.0,0.0
2478.0,8948.0,31494.0,0.0
2509.0,8790.0,32257.0,0.0
2536.0,8611.0,32998.0,0.0
2566.0,8424.0,33764.0,0.0
2125.0,6731.0,28274.0,0.0
2146.0,6542.0,28857.0,0.0
2140.0,6266.0,29088.0,0.0
2153.0,6037.0,29568.0,0.0
2130.0,5701.0,29549.0,0.0
2101.0,5351.0,29433.0,0.0
2073.0,5004.0,29317.0,0.0
2049.0,4668.0,29240.0,0.0
2023.0,4329.0,29135.0,0.0
1998.0,3994.0,29022.0,0.0
1974.0,3662.0,28914.0,0.0
1952.0,3336.0,28832.0,0.0
1934.0,3015.0,28770.0,0.0
1913.0,2692.0,28667.0,0.0
1894.0,2375.0,28593.0,0.0
1874.0,2056.0,28468.0,0.0
1856.0,1744.0,28395.0,0.0
1837.0,1431.0,28270.0,0.0
1822.0,1123.0,28198.0,0.0
1698.0,766.0,26406.0,0.0
1687.0,482.0,26368.0,0.0
1676.0,197.0,26325.0,0.0
1744.0,-89.0,27513.0,0.0
1817.0,-404.0,28787.0,0.0
2281.0,-898.0,36261.0,1.0
2246.0,-1273.0,35818.0,1.0
2215.0,-1641.0,35418.0,1.0
2187.0,-2002.0,35048.0,1.0
2162.0,-2359.0,34724.0,1.0
2141.0,-2713.0,34449.0,1.0
2116.0,-3055.0,34094.0,1.0
2098.0,-3399.0,33832.0,1.0
2077.0,-3731.0,33514.0,1.0
2057.0,-4060.0,33206.0,1.0
2038.0,-4382.0,32901.0,1.0
2026.0,-4712.0,32679.0,1.0
2010.0,-5027.0,32397.0,1.0
1996.0,-5336.0,32109.0,1.0
1984.0,-5652.0,31877.0,1.0
1970.0,-5950.0,31575.0,1.0
1957.0,-6244.0,31283.0,1.0
1950.0,-6550.0,31071.0,1.0
1941.0,-6848.0,30836.0,1.0
1931.0,-7131.0,30557.0,1.0
1923.0,-7417.0,30304.0,1.0
1915.0,-7695.0,30041.0,1.0
1909.0,-7977.0,29803.0,1.0
1908.0,-8274.0,29632.0,1.0
1907.0,-8562.0,29438.0,1.0
1906.0,-8849.0,29246.0,1.0
1905.0,-9133.0,29053.0,1.0
1907.0,-9423.0,28884.0,1.0
1916.0,-9741.0,28805.0,1.0
1928.0,-10077.0,28774.0,1.0
1944.0,-10428.0,28781.0,1.0
1961.0,-10779.0,28779.0,1.0
1976.0,-11127.0,28759.0,1.0
1996.0,-11488.0,28770.0,1.0
2016.0,-11856.0,28789.0,1.0
2038.0,-12230.0,28813.0,1.0
2061.0,-12614.0,28850.0,1.0
2086.0,-13009.0,28900.0,1.0
2115.0,-13428.0,28993.0,1.0
2148.0,-13861.0,29104.0,1.0
2189.0,-14353.0,29321.0,1.0
2235.0,-14881.0,29588.0,1.0
2279.0,-15387.0,29792.0,1.0
2323.0,-15897.0,29982.0,1.0
2369.0,-16422.0,30185.0,1.0
2417.0,-16964.0,30394.0,1.0
2468.0,-17527.0,30624.0,1.0
2521.0,-18097.0,30846.0,1.0
2581.0,-18715.0,31127.0,1.0
2639.0,-19316.0,31358.0,1.0
2702.0,-19961.0,31636.0,1.0
2768.0,-20626.0,31923.0,1.0
2840.0,-21331.0,32249.0,1.0
2924.0,-22129.0,32684.0,1.0
3010.0,-22943.0,33112.0,1.0
3100.0,-23784.0,33549.0,1.0
3188.0,-24602.0,33922.0,1.0
3265.0,-25334.0,34152.0,1.0
2366.0,-18461.0,24334.0,0.0
2336.0,-18314.0,23607.0,0.0
2304.0,-18141.0,22871.0,0.0
2279.0,-18011.0,22212.0,0.0
2311.0,-18327.0,22110.0,0.0
2336.0,-18593.0,21946.0,0.0
2535.0,-20231.0,23365.0,0.0
2575.0,-20594.0,23273.0,0.0
2619.0,-20991.0,23212.0,0.0
2657.0,-21340.0,23094.0,0.0
2713.0,-21819.0,23107.0,0.0
2753.0,-22163.0,22971.0,0.0
2810.0,-22649.0,22973.0,0.0
2857.0,-23045.0,22876.0,0.0
2912.0,-23497.0,22828.0,0.0
2963.0,-23916.0,22739.0,0.0
3025.0,-24405.0,22709.0,0.0
11.0,-88.0,80.0,0.0
3053.0,-24607.0,21927.0,0.0
9.0,-81.0,71.0,0.0
11.0,-95.0,81.0,0.0
13.0,-110.0,92.0,0.0
13.0,-111.0,91.0,0.0
13.0,-109.0,87.0,0.0
15.0,-121.0,94.0,0.0
13.0,-109.0,83.0,0.0
14.0,-120.0,89.0,0.0
14.0,-121.0,88.0,0.0
15.0,-127.0,90.0,0.0
16.0,-135.0,94.0,0.0
17.0,-138.0,94.0,0.0
17.0,-140.0,94.0,0.0
17.0,-138.0,90.0,0.0
20.0,-154.0,97.0,0.0
20.0,-159.0,98.0,0.0
22.0,-177.0,107.0,0.0
23.0,-181.0,107.0,0.0
23.0,-181.0,104.0,0.0
24.0,-192.0,108.0,0.0
25.0,-189.0,104.0,0.0
26.0,-203.0,108.0,0.0
27.0,-208.0,108.0,0.0
27.0,-206.0,103.0,0.0
28.0,-219.0,108.0,0.0
30.0,-229.0,110.0,0.0
31.0,-235.0,110.0,0.0
31.0,-234.0,106.0,0.0
33.0,-245.0,108.0,0.0
33.0,-246.0,105.0,0.0
34.0,-251.0,104.0,0.0
36.0,-266.0,106.0,0.0
35.0,-263.0,103.0,0.0
37.0,-269.0,101.0,0.0
40.0,-289.0,105.0,0.0
41.0,-292.0,103.0,0.0
41.0,-292.0,100.0,0.0
41.0,-296.0,97.0,0.0
42.0,-297.0,95.0,0.0
0.0,0.0,0.0,0.0
-23051.0,46867.0,38309.0,0.0
-23308.0,46502.0,38857.0,0.0
-23378.0,45762.0,39089.0,0.0
0.0,0.0,0.0,0.0
0.0,0.0,0.0,0.0
0.0,0.0,0.0,0.0
0.0,0.0,0.0,0.0
0.0,0.0,0.0,0.0
-19272.0,33575.0,32734.0,0.0
-19333.0,33017.0,32911.0,0.0
-18970.0,31755.0,32364.0,0.0
-19296.0,31655.0,32989.0,0.0
-20065.0,32251.0,34369.0,0.0
-18708.0,29459.0,32106.0,0.0
-18656.0,28774.0,32074.0,0.0
-18876.0,28512.0,32508.0,0.0
-18431.0,27257.0,31793.0,0.0
-18076.0,26167.0,31229.0,0.0
-18153.0,25718.0,31407.0,0.0
-18063.0,25037.0,31293.0,0.0
-17889.0,24256.0,31033.0,0.0
-18314.0,24285.0,31810.0,0.0
-18062.0,23416.0,31408.0,0.0
-17543.0,22227.0,30539.0,0.0
0.0,0.0,0.0,0.0
0.0,0.0,0.0,0.0
-17421.0,20569.0,30410.0,0.0
-17581.0,20262.0,30715.0,0.0
-17549.0,19733.0,30681.0,0.0
-17753.0,19472.0,31059.0,0.0
-17735.0,18965.0,31047.0,0.0
-17755.0,18503.0,31099.0,0.0
-19262.0,19553.0,33754.0,0.0
-19154.0,18930.0,33580.0,0.0
-19083.0,18354.0,33467.0,0.0
-19045.0,17815.0,33410.0,0.0
-18970.0,17249.0,33288.0,0.0
-18939.0,16730.0,33240.0,0.0
-18859.0,16173.0,33102.0,0.0
-18808.0,15650.0,33017.0,0.0
-18723.0,15105.0,32867.0,0.0
-18601.0,14538.0,32653.0,0.0
0.0,0.0,0.0,0.0
0.0,0.0,0.0,0.0
-18570.0,13132.0,32585.0,0.0
-18470.0,12609.0,32402.0,0.0
-18361.0,12087.0,32200.0,0.0
0.0,0.0,0.0,0.0
-18197.0,11103.0,31889.0,0.0
0.0,0.0,0.0,0.0
-18213.0,10246.0,31885.0,0.0
-18095.0,9755.0,31662.0,0.0
-18053.0,9309.0,31571.0,0.0
-18351.0,9034.0,32071.0,0.0
-18833.0,8835.0,32889.0,0.0
-19399.0,8653.0,33852.0,0.0
-19938.0,8437.0,34764.0,0.0
0.0,0.0,0.0,0.0
-17209.0,6499.0,29952.0,0.0
-17192.0,6105.0,29896.0,0.0
-17148.0,5704.0,29788.0,0.0
-17082.0,5300.0,29644.0,0.0
-17023.0,4902.0,29508.0,0.0
-16995.0,4518.0,29425.0,0.0
-16950.0,4132.0,29313.0,0.0
-16883.0,3744.0,29159.0,0.0
-16862.0,3371.0,29087.0,0.0
-16818.0,2996.0,28969.0,0.0
-11762.0,1839.0,20232.0,0.0
-11777.0,1587.0,20230.0,0.0
-11720.0,1327.0,20102.0,0.0
-11733.0,1076.0,20092.0,0.0
-11700.0,823.0,20004.0,0.0
-11674.0,571.0,19926.0,0.0
-11658.0,323.0,19864.0,0.0
-11634.0,75.0,19789.0,0.0
-11633.0,-169.0,19752.0,0.0
-11613.0,-414.0,19681.0,0.0
-11611.0,-659.0,19640.0,0.0
-11592.0,-901.0,19571.0,0.0
-11579.0,-1142.0,19509.0,0.0
-11567.0,-1383.0,19450.0,0.0
-11554.0,-1621.0,19385.0,0.0
-11539.0,-1859.0,19319.0,0.0
-11540.0,-2099.0,19277.0,0.0
-11539.0,-2338.0,19230.0,0.0
-11520.0,-2572.0,19154.0,0.0
-11529.0,-2812.0,19123.0,0.0
-11518.0,-3046.0,19059.0,0.0
-11518.0,-3283.0,19010.0,0.0
-11520.0,-3521.0,18965.0,0.0
-11517.0,-3755.0,18911.0,0.0
-11514.0,-3991.0,18856.0,0.0
-11522.0,-4230.0,18817.0,0.0
-11530.0,-4468.0,18777.0,0.0
-11521.0,-4701.0,18709.0,0.0
-11525.0,-4937.0,18660.0,0.0
-11518.0,-5169.0,18594.0,0.0
-11526.0,-5408.0,18551.0,0.0
-11534.0,-5647.0,18505.0,0.0
-11532.0,-5881.0,18443.0,0.0
-11521.0,-6111.0,18366.0,0.0
-11542.0,-6358.0,18339.0,0.0
-11548.0,-6596.0,18287.0,0.0
-11549.0,-6832.0,18225.0,0.0
-11558.0,-7074.0,18175.0,0.0
-11554.0,-7307.0,18103.0,0.0
-11555.0,-7544.0,18038.0,0.0
-11562.0,-7785.0,17981.0,0.0
-11579.0,-8033.0,17939.0,0.0
-11596.0,-8284.0,17897.0,0.0
-11608.0,-8529.0,17842.0,0.0
-11623.0,-8778.0,17792.0,0.0
-11628.0,-9022.0,17728.0,0.0
-11652.0,-9280.0,17688.0,0.0
-11656.0,-9524.0,17619.0,0.0
-11678.0,-9783.0,17574.0,0.0
-11697.0,-10041.0,17524.0,0.0
-11700.0,-10285.0,17447.0,0.0
-11728.0,-10553.0,17407.0,0.0
-11744.0,-10813.0,17349.0,0.0
-11768.0,-11080.0,17299.0,0.0
-11792.0,-11349.0,17247.0,0.0
-11819.0,-11623.0,17199.0,0.0
-11853.0,-11905.0,17159.0,0.0
-11882.0,-12184.0,17110.0,0.0
-11918.0,-12472.0,17068.0,0.0
-11961.0,-12772.0,17037.0,0.0
-11995.0,-13062.0,16987.0,0.0
-12036.0,-13364.0,16948.0,0.0
-12089.0,-13681.0,16922.0,0.0
-12164.0,-14026.0,16924.0,0.0
-12220.0,-14354.0,16897.0,0.0
-12264.0,-14671.0,16852.0,0.0
-12273.0,-14948.0,16757.0,0.0
-12265.0,-15205.0,16634.0,0.0
-12264.0,-15472.0,16522.0,0.0
-12279.0,-15761.0,16429.0,0.0
-12297.0,-16056.0,16337.0,0.0
-12145.0,-16126.0,16019.0,0.0
-12270.0,-16566.0,16066.0,0.0
-17709.0,-24304.0,23013.0,0.0
-17755.0,-24769.0,22897.0,0.0
-17670.0,-25049.0,22607.0,0.0
-17261.0,-24861.0,21906.0,0.0
0.0,0.0,0.0,0.0
-1128.0,-1678.0,1409.0,0.0
0.0,0.0,0.0,0.0
-1088.0,-1667.0,1334.0,0.0
-1107.0,-1723.0,1345.0,0.0
-1094.0,-1727.0,1317.0,0.0
-1077.0,-1726.0,1284.0,0.0
-1075.0,-1749.0,1269.0,0.0
-1097.0,-1811.0,1282.0,0.0
-1055.0,-1768.0,1221.0,0.0
-1057.0,-1797.0,1210.0,0.0
-1059.0,-1827.0,1199.0,0.0
-1049.0,-1835.0,1175.0,0.0
-1040.0,-1843.0,1150.0,0.0
-65.0,-118.0,72.0,0.0
-63.0,-116.0,68.0,0.0
-63.0,-118.0,68.0,0.0
-68.0,-128.0,72.0,0.0
-71.0,-135.0,74.0,0.0
-77.0,-148.0,78.0,0.0
-72.0,-141.0,73.0,0.0
-79.0,-157.0,79.0,0.0
-79.0,-159.0,77.0,0.0
-82.0,-168.0,79.0,0.0
-88.0,-181.0,83.0,0.0
-90.0,-189.0,84.0,0.0
-90.0,-193.0,84.0,0.0
-102.0,-220.0,92.0,0.0
-105.0,-227.0,93.0,0.0
-106.0,-235.0,92.0,0.0
-110.0,-246.0,94.0,0.0
-131.0,-296.0,109.0,0.0
-140.0,-323.0,115.0,0.0
-137.0,-320.0,110.0,0.0
-135.0,-317.0,105.0,0.0
-136.0,-325.0,104.0,0.0
-129.0,-312.0,96.0,0.0
-126.0,-308.0,91.0,0.0
-123.0,-306.0,86.0,0.0
-122.0,-307.0,83.0,0.0
-123.0,-313.0,81.0,0.0
-123.0,-316.0,78.0,0.0
-121.0,-318.0,75.0,0.0
-121.0,-321.0,72.0,0.0
-121.0,-324.0,69.0,0.0
-124.0,-335.0,68.0,0.0
123.0,-323.0,65.0,0.0
118.0,-307.0,65.0,0.0
111.0,-285.0,64.0,0.0
111.0,-283.0,66.0,0.0
115.0,-287.0,71.0,0.0
113.0,-277.0,71.0,0.0
113.0,-275.0,74.0,0.0
114.0,-274.0,77.0,0.0
113.0,-267.0,78.0,0.0
113.0,-264.0,80.0,0.0
114.0,-263.0,84.0,0.0
114.0,-260.0,85.0,0.0
113.0,-256.0,87.0,0.0
116.0,-258.0,91.0,0.0
117.0,-258.0,94.0,0.0
121.0,-263.0,100.0,0.0
121.0,-259.0,102.0,0.0
123.0,-259.0,105.0,0.0
123.0,-256.0,107.0,0.0
127.0,-260.0,113.0,0.0
123.0,-248.0,111.0,0.0
124.0,-248.0,114.0,0.0
130.0,-256.0,121.0,0.0
128.0,-247.0,120.0,0.0
127.0,-244.0,121.0,0.0
130.0,-246.0,126.0,0.0
133.0,-248.0,132.0,0.0
143.0,-264.0,144.0,0.0
152.0,-275.0,153.0,0.0
146.0,-262.0,150.0,0.0
144.0,-255.0,150.0,0.0
138.0,-239.0,145.0,0.0
127.0,-218.0,136.0,0.0
122.0,-206.0,131.0,0.0
119.0,-198.0,129.0,0.0
114.0,-187.0,126.0,0.0
99.0,-160.0,110.0,0.0
97.0,-155.0,109.0,0.0
91.0,-143.0,104.0,0.0
92.0,-144.0,106.0,0.0
85.0,-130.0,99.0,0.0
82.0,-125.0,97.0,0.0
74.0,-110.0,88.0,0.0
82.0,-119.0,98.0,0.0
76.0,-109.0,92.0,0.0
66.0,-94.0,81.0,0.0
67.0,-93.0,82.0,0.0
64.0,-88.0,80.0,0.0
18365.0,-24603.0,22709.0,0.0
18294.0,-24107.0,22796.0,0.0
18205.0,-23593.0,22856.0,0.0
18128.0,-23101.0,22927.0,0.0
18077.0,-22648.0,23028.0,0.0
17990.0,-22152.0,23078.0,0.0
17931.0,-21697.0,23161.0,0.0
17862.0,-21233.0,23227.0,0.0
17819.0,-20805.0,23324.0,0.0
17752.0,-20353.0,23386.0,0.0
16757.0,-18860.0,22213.0,0.0
16777.0,-18532.0,22378.0,0.0
16765.0,-18169.0,22497.0,0.0
16820.0,-17878.0,22703.0,0.0
17471.0,-18210.0,23719.0,0.0
17424.0,-17801.0,23789.0,0.0
17367.0,-17387.0,23843.0,0.0
16121.0,-15809.0,22253.0,0.0
16293.0,-15645.0,22610.0,0.0
16877.0,-15862.0,23542.0,0.0
17205.0,-15820.0,24123.0,0.0
17158.0,-15430.0,24178.0,0.0
17157.0,-15082.0,24294.0,0.0
17142.0,-14723.0,24388.0,0.0
17117.0,-14357.0,24469.0,0.0
17089.0,-13991.0,24540.0,0.0
17070.0,-13632.0,24624.0,0.0
17062.0,-13285.0,24723.0,0.0
17045.0,-12932.0,24806.0,0.0
17017.0,-12570.0,24870.0,0.0
17010.0,-12226.0,24962.0,0.0
16991.0,-11875.0,25038.0,0.0
16975.0,-11526.0,25113.0,0.0
16968.0,-11185.0,25201.0,0.0
16953.0,-10839.0,25276.0,0.0
16937.0,-10494.0,25349.0,0.0
16927.0,-10152.0,25428.0,0.0
16928.0,-9818.0,25522.0,0.0
16905.0,-9470.0,25576.0,0.0
16907.0,-9137.0,25669.0,0.0
16911.0,-8804.0,25763.0,0.0
16909.0,-8470.0,25847.0,0.0
16876.0,-8120.0,25881.0,0.0
16890.0,-7793.0,25986.0,0.0
16879.0,-7454.0,26051.0,0.0
16866.0,-7115.0,26111.0,0.0
16874.0,-6783.0,26201.0,0.0
16866.0,-6447.0,26267.0,0.0
16872.0,-6114.0,26353.0,0.0
16870.0,-5780.0,26424.0,0.0
16881.0,-5449.0,26515.0,0.0
16868.0,-5110.0,26568.0,0.0
16861.0,-4772.0,26627.0,0.0
16877.0,-4440.0,26722.0,0.0
16889.0,-4106.0,26809.0,0.0
16898.0,-3771.0,26891.0,0.0
16901.0,-3434.0,26962.0,0.0
16892.0,-3093.0,27012.0,0.0
16908.0,-2757.0,27101.0,0.0
16181.0,-2312.0,25993.0,0.0
8.0,-1.0,14.0,0.0
13.0,-1.0,22.0,0.0
16986.0,-1398.0,27467.0,0.0
18.0,-1.0,30.0,0.0
10.0,0.0,17.0,0.0
17.0,-1.0,28.0,0.0
24.0,0.0,39.0,0.0
20.0,0.0,34.0,0.0
27.0,0.0,44.0,0.0
22.0,0.0,37.0,0.0
25.0,1.0,42.0,0.0
32.0,3.0,54.0,0.0
32.0,3.0,54.0,0.0
34.0,4.0,57.0,0.0
36.0,5.0,61.0,0.0
36.0,6.0,61.0,0.0
30.0,6.0,50.0,0.0
39.0,8.0,66.0,0.0
44.0,11.0,73.0,0.0
45.0,11.0,76.0,0.0
43.0,12.0,72.0,0.0
53.0,17.0,89.0,0.0
46.0,15.0,78.0,0.0
51.0,18.0,87.0,0.0
53.0,20.0,91.0,0.0
46.0,18.0,77.0,0.0
50.0,21.0,85.0,0.0
51.0,22.0,87.0,0.0
51.0,23.0,86.0,0.0
55.0,27.0,94.0,0.0
54.0,27.0,91.0,0.0
55.0,29.0,94.0,0.0
54.0,30.0,92.0,0.0
58.0,34.0,100.0,0.0
63.0,37.0,106.0,0.0
66.0,41.0,111.0,0.0
62.0,41.0,106.0,0.0
61.0,41.0,104.0,0.0
64.0,45.0,108.0,0.0
64.0,46.0,109.0,0.0
66.0,49.0,112.0,0.0
56.0,44.0,95.0,0.0
63.0,50.0,108.0,0.0
63.0,52.0,108.0,0.0
60.0,51.0,101.0,0.0
60.0,53.0,102.0,0.0
56.0,50.0,95.0,0.0
59.0,54.0,100.0,0.0
59.0,56.0,100.0,0.0
57.0,56.0,97.0,0.0
62.0,63.0,106.0,0.0
61.0,63.0,104.0,0.0
60.0,64.0,103.0,0.0
62.0,68.0,106.0,0.0
63.0,70.0,107.0,0.0
64.0,74.0,109.0,0.0
65.0,76.0,111.0,0.0
64.0,77.0,108.0,0.0
66.0,80.0,111.0,0.0
67.0,84.0,113.0,0.0
66.0,85.0,111.0,0.0
67.0,89.0,114.0,0.0
71.0,95.0,120.0,0.0
70.0,96.0,118.0,0.0
71.0,99.0,119.0,0.0
67.0,97.0,113.0,0.0
73.0,108.0,123.0,0.0
73.0,110.0,122.0,0.0
73.0,113.0,123.0,0.0
75.0,117.0,126.0,0.0
74.0,118.0,123.0,0.0
77.0,125.0,128.0,0.0
78.0,130.0,129.0,0.0
76.0,130.0,127.0,0.0
76.0,131.0,125.0,0.0
78.0,139.0,129.0,0.0
78.0,142.0,129.0,0.0
77.0,143.0,126.0,0.0
78.0,146.0,128.0,0.0
80.0,154.0,131.0,0.0
79.0,156.0,130.0,0.0
82.0,165.0,134.0,0.0
79.0,161.0,128.0,0.0
81.0,169.0,132.0,0.0
117.0,-317.0,65.0,0.0
111.0,-296.0,63.0,0.0
111.0,-292.0,66.0,0.0
110.0,-286.0,68.0,0.0
108.0,-276.0,69.0,0.0
113.0,-286.0,74.0,0.0
109.0,-271.0,74.0,0.0
111.0,-273.0,78.0,0.0
107.0,-260.0,77.0,0.0
110.0,-265.0,82.0,0.0
114.0,-272.0,87.0,0.0
110.0,-255.0,84.0,0.0
115.0,-265.0,91.0,0.0
111.0,-253.0,90.0,0.0
117.0,-263.0,98.0,0.0
117.0,-258.0,99.0,0.0
117.0,-254.0,101.0,0.0
120.0,-259.0,106.0,0.0
120.0,-254.0,107.0,0.0
122.0,-255.0,111.0,0.0
123.0,-255.0,115.0,0.0
121.0,-247.0,115.0,0.0
126.0,-255.0,121.0,0.0
122.0,-244.0,119.0,0.0
123.0,-242.0,122.0,0.0
128.0,-248.0,129.0,0.0
129.0,-246.0,131.0,0.0
140.0,-263.0,144.0,0.0
144.0,-266.0,151.0,0.0
148.0,-272.0,157.0,0.0
142.0,-255.0,151.0,0.0
134.0,-237.0,144.0,0.0
126.0,-221.0,138.0,0.0
126.0,-217.0,139.0,0.0
116.0,-197.0,130.0,0.0
111.0,-186.0,127.0,0.0
103.0,-171.0,119.0,0.0
103.0,-167.0,118.0,0.0
100.0,-162.0,118.0,0.0
97.0,-154.0,115.0,0.0
89.0,-139.0,106.0,0.0
84.0,-130.0,101.0,0.0
70.0,-107.0,87.0,0.0
80.0,-119.0,98.0,0.0
76.0,-110.0,94.0,0.0
67.0,-97.0,83.0,0.0
66.0,-94.0,83.0,0.0
66.0,-93.0,84.0,0.0
17870.0,-24453.0,22710.0,0.0
17806.0,-23968.0,22801.0,0.0
17743.0,-23487.0,22887.0,0.0
17685.0,-23019.0,22978.0,0.0
17588.0,-22506.0,23015.0,0.0
17541.0,-22061.0,23112.0,0.0
17491.0,-21616.0,23202.0,0.0
17398.0,-21123.0,23232.0,0.0
17365.0,-20709.0,23340.0,0.0
17297.0,-20255.0,23396.0,0.0
17216.0,-19791.0,23431.0,0.0
16672.0,-18809.0,22828.0,0.0
16654.0,-18435.0,22941.0,0.0
16932.0,-18384.0,23459.0,0.0
17040.0,-18140.0,23741.0,0.0
16962.0,-17700.0,23765.0,0.0
16948.0,-17331.0,23876.0,0.0
16910.0,-16938.0,23950.0,0.0
16065.0,-15757.0,22874.0,0.0
16756.0,-16086.0,23980.0,0.0
16762.0,-15744.0,24109.0,0.0
16721.0,-15360.0,24170.0,0.0
16725.0,-15018.0,24292.0,0.0
16716.0,-14667.0,24393.0,0.0
16702.0,-14312.0,24487.0,0.0
16669.0,-13942.0,24550.0,0.0
16653.0,-13588.0,24637.0,0.0
16655.0,-13250.0,24748.0,0.0
16629.0,-12890.0,24815.0,0.0
16603.0,-12533.0,24880.0,0.0
16594.0,-12189.0,24969.0,0.0
16576.0,-11840.0,25043.0,0.0
16576.0,-11504.0,25142.0,0.0
16532.0,-11138.0,25174.0,0.0
16539.0,-10809.0,25279.0,0.0
16521.0,-10464.0,25346.0,0.0
16515.0,-10127.0,25430.0,0.0
16515.0,-9794.0,25520.0,0.0
16502.0,-9453.0,25590.0,0.0
16505.0,-9122.0,25683.0,0.0
16481.0,-8777.0,25734.0,0.0
16481.0,-8445.0,25819.0,0.0
16485.0,-8115.0,25910.0,0.0
16468.0,-7775.0,25966.0,0.0
16465.0,-7442.0,26042.0,0.0
16467.0,-7111.0,26127.0,0.0
16456.0,-6774.0,26186.0,0.0
16459.0,-6443.0,26267.0,0.0
16458.0,-6111.0,26342.0,0.0
16462.0,-5781.0,26424.0,0.0
16463.0,-5448.0,26498.0,0.0
16467.0,-5116.0,26577.0,0.0
16476.0,-4785.0,26663.0,0.0
16466.0,-4447.0,26715.0,0.0
16483.0,-4118.0,26812.0,0.0
16470.0,-3779.0,26856.0,0.0
16495.0,-3448.0,26962.0,0.0
20.0,-4.0,34.0,0.0
16409.0,-2759.0,26949.0,0.0
16174.0,-2388.0,26622.0,0.0
13.0,-1.0,22.0,0.0
16538.0,-1762.0,27343.0,0.0
19.0,-2.0,32.0,0.0
18.0,-1.0,30.0,0.0
20.0,-1.0,34.0,0.0
26.0,-1.0,43.0,0.0
26.0,0.0,43.0,0.0
31.0,0.0,53.0,0.0
22.0,0.0,37.0,0.0
38.0,2.0,65.0,0.0
33.0,2.0,58.0,0.0
28.0,2.0,48.0,0.0
29.0,3.0,48.0,0.0
36.0,4.0,61.0,0.0
37.0,5.0,63.0,0.0
24.0,4.0,40.0,0.0
36.0,7.0,62.0,0.0
31.0,7.0,55.0,0.0
38.0,9.0,65.0,0.0
51.0,13.0,87.0,0.0
38.0,11.0,65.0,0.0
46.0,14.0,80.0,0.0
49.0,16.0,84.0,0.0
54.0,20.0,94.0,0.0
44.0,16.0,76.0,0.0
51.0,21.0,89.0,0.0
55.0,23.0,96.0,0.0
46.0,21.0,80.0,0.0
59.0,27.0,102.0,0.0
53.0,26.0,92.0,0.0
52.0,27.0,91.0,0.0
64.0,34.0,110.0,0.0
60.0,34.0,105.0,0.0
55.0,33.0,98.0,0.0
59.0,36.0,104.0,0.0
59.0,38.0,103.0,0.0
64.0,42.0,111.0,0.0
62.0,42.0,107.0,0.0
64.0,45.0,112.0,0.0
65.0,48.0,114.0,0.0
60.0,46.0,105.0,0.0
65.0,51.0,114.0,0.0
56.0,46.0,99.0,0.0
56.0,47.0,99.0,0.0
56.0,48.0,98.0,0.0
56.0,49.0,98.0,0.0
61.0,56.0,106.0,0.0
55.0,51.0,95.0,0.0
56.0,55.0,98.0,0.0
58.0,57.0,100.0,0.0
60.0,61.0,104.0,0.0
60.0,62.0,104.0,0.0
56.0,60.0,97.0,0.0
60.0,66.0,105.0,0.0
59.0,69.0,104.0,0.0
59.0,68.0,102.0,0.0
61.0,72.0,106.0,0.0
62.0,76.0,107.0,0.0
63.0,80.0,110.0,0.0
62.0,79.0,108.0,0.0
64.0,85.0,111.0,0.0
64.0,87.0,112.0,0.0
64.0,88.0,110.0,0.0
64.0,91.0,112.0,0.0
64.0,93.0,112.0,0.0
67.0,100.0,117.0,0.0
68.0,103.0,119.0,0.0
68.0,105.0,117.0,0.0
71.0,111.0,122.0,0.0
68.0,109.0,117.0,0.0
69.0,112.0,119.0,0.0
70.0,116.0,119.0,0.0
74.0,128.0,128.0,0.0
74.0,128.0,126.0,0.0
72.0,129.0,124.0,0.0
73.0,134.0,125.0,0.0
76.0,141.0,129.0,0.0
74.0,141.0,127.0,0.0
75.0,145.0,127.0,0.0
75.0,148.0,127.0,0.0
76.0,152.0,128.0,0.0
76.0,155.0,128.0,0.0
75.0,156.0,126.0,0.0
77.0,162.0,128.0,0.0
119.0,-329.0,69.0,0.0
109.0,-300.0,66.0,0.0
111.0,-299.0,69.0,0.0
112.0,-298.0,72.0,0.0
108.0,-283.0,71.0,0.0
107.0,-277.0,73.0,0.0
108.0,-277.0,77.0,0.0
111.0,-280.0,81.0,0.0
109.0,-272.0,82.0,0.0
108.0,-265.0,83.0,0.0
108.0,-262.0,85.0,0.0
110.0,-265.0,89.0,0.0
112.0,-266.0,93.0,0.0
114.0,-267.0,96.0,0.0
114.0,-262.0,99.0,0.0
115.0,-263.0,101.0,0.0
118.0,-265.0,105.0,0.0
118.0,-260.0,108.0,0.0
122.0,-265.0,113.0,0.0
121.0,-259.0,114.0,0.0
121.0,-257.0,117.0,0.0
125.0,-260.0,122.0,0.0
126.0,-259.0,125.0,0.0
124.0,-252.0,124.0,0.0
126.0,-252.0,128.0,0.0
124.0,-244.0,129.0,0.0
132.0,-258.0,139.0,0.0
138.0,-264.0,146.0,0.0
144.0,-274.0,156.0,0.0
137.0,-257.0,150.0,0.0
138.0,-253.0,152.0,0.0
133.0,-241.0,148.0,0.0
127.0,-227.0,144.0,0.0
115.0,-204.0,131.0,0.0
111.0,-193.0,128.0,0.0
110.0,-188.0,128.0,0.0
104.0,-176.0,123.0,0.0
99.0,-165.0,118.0,0.0
91.0,-150.0,110.0,0.0
97.0,-156.0,117.0,0.0
89.0,-141.0,109.0,0.0
80.0,-126.0,100.0,0.0
76.0,-118.0,95.0,0.0
75.0,-112.0,94.0,0.0
75.0,-112.0,96.0,0.0
72.0,-106.0,92.0,0.0
63.0,-91.0,82.0,0.0
61.0,-88.0,80.0,0.0
17413.0,-24348.0,22747.0,0.0
17336.0,-23845.0,22816.0,0.0
17276.0,-23369.0,22905.0,0.0
17224.0,-22908.0,22997.0,0.0
17151.0,-22425.0,23060.0,0.0
17077.0,-21945.0,23118.0,0.0
17024.0,-21497.0,23199.0,0.0
16969.0,-21051.0,23276.0,0.0
16907.0,-20601.0,23339.0,0.0
16859.0,-20171.0,23419.0,0.0
16807.0,-19742.0,23490.0,0.0
16239.0,-18720.0,22831.0,0.0
16561.0,-18731.0,23422.0,0.0
16596.0,-18411.0,23605.0,0.0
16601.0,-18058.0,23744.0,0.0
16558.0,-17654.0,23814.0,0.0
16537.0,-17279.0,23912.0,0.0
16471.0,-16858.0,23943.0,0.0
16059.0,-16095.0,23465.0,0.0
16179.0,-15871.0,23761.0,0.0
16375.0,-15717.0,24168.0,0.0
16334.0,-15333.0,24225.0,0.0
16326.0,-14982.0,24328.0,0.0
16301.0,-14617.0,24407.0,0.0
16271.0,-14249.0,24473.0,0.0
16263.0,-13901.0,24569.0,0.0
16225.0,-13531.0,24621.0,0.0
16219.0,-13188.0,24718.0,0.0
16210.0,-12844.0,24810.0,0.0
16197.0,-12497.0,24894.0,0.0
16182.0,-12151.0,24971.0,0.0
16179.0,-11814.0,25068.0,0.0
16164.0,-11468.0,25141.0,0.0
16141.0,-11119.0,25202.0,0.0
16152.0,-10794.0,25316.0,0.0
16137.0,-10453.0,25387.0,0.0
16106.0,-10100.0,25428.0,0.0
16127.0,-9782.0,25553.0,0.0
16099.0,-9434.0,25597.0,0.0
16101.0,-9104.0,25688.0,0.0
16088.0,-8766.0,25753.0,0.0
16079.0,-8431.0,25824.0,0.0
16090.0,-8107.0,25926.0,0.0
16080.0,-7771.0,25991.0,0.0
16078.0,-7440.0,26068.0,0.0
16073.0,-7108.0,26141.0,0.0
16065.0,-6774.0,26206.0,0.0
16070.0,-6445.0,26290.0,0.0
16065.0,-6113.0,26358.0,0.0
16071.0,-5785.0,26443.0,0.0
16070.0,-5453.0,26511.0,0.0
16073.0,-5122.0,26589.0,0.0
16071.0,-4790.0,26656.0,0.0
16064.0,-4456.0,26713.0,0.0
16093.0,-4131.0,26829.0,0.0
16078.0,-3793.0,26872.0,0.0
16086.0,-3461.0,26950.0,0.0
13.0,-3.0,23.0,0.0
19.0,-4.0,32.0,0.0
16124.0,-2460.0,27204.0,0.0
16116.0,-2121.0,27250.0,0.0
15.0,-2.0,28.0,0.0
17.0,-1.0,30.0,0.0
19.0,-1.0,34.0,0.0
23.0,-1.0,40.0,0.0
24.0,-1.0,41.0,0.0
21.0,0.0,37.0,0.0
30.0,0.0,51.0,0.0
26.0,0.0,46.0,0.0
24.0,0.0,43.0,0.0
29.0,1.0,51.0,0.0
30.0,2.0,52.0,0.0
33.0,3.0,58.0,0.0
34.0,4.0,59.0,0.0
41.0,6.0,72.0,0.0
40.0,7.0,71.0,0.0
45.0,9.0,78.0,0.0
44.0,10.0,77.0,0.0
37.0,9.0,67.0,0.0
39.0,10.0,68.0,0.0
44.0,13.0,78.0,0.0
50.0,15.0,90.0,0.0
48.0,16.0,85.0,0.0
50.0,18.0,87.0,0.0
44.0,17.0,78.0,0.0
50.0,21.0,90.0,0.0
57.0,25.0,102.0,0.0
55.0,25.0,97.0,0.0
57.0,27.0,100.0,0.0
57.0,28.0,101.0,0.0
62.0,32.0,110.0,0.0
58.0,32.0,103.0,0.0
57.0,32.0,101.0,0.0
56.0,33.0,99.0,0.0
63.0,40.0,113.0,0.0
60.0,39.0,108.0,0.0
63.0,43.0,113.0,0.0
61.0,44.0,111.0,0.0
63.0,46.0,113.0,0.0
68.0,51.0,121.0,0.0
59.0,46.0,108.0,0.0
59.0,47.0,105.0,0.0
55.0,46.0,99.0,0.0
57.0,49.0,103.0,0.0
60.0,53.0,109.0,0.0
60.0,55.0,107.0,0.0
60.0,56.0,109.0,0.0
55.0,53.0,99.0,0.0
56.0,55.0,99.0,0.0
56.0,57.0,102.0,0.0
54.0,57.0,98.0,0.0
56.0,60.0,101.0,0.0
54.0,60.0,98.0,0.0
57.0,65.0,103.0,0.0
58.0,67.0,104.0,0.0
58.0,69.0,104.0,0.0
58.0,71.0,105.0,0.0
56.0,70.0,99.0,0.0
60.0,76.0,107.0,0.0
61.0,81.0,111.0,0.0
63.0,84.0,112.0,0.0
61.0,85.0,110.0,0.0
63.0,88.0,112.0,0.0
63.0,92.0,114.0,0.0
63.0,92.0,112.0,0.0
66.0,100.0,118.0,0.0
67.0,103.0,119.0,0.0
69.0,109.0,122.0,0.0
67.0,108.0,119.0,0.0
68.0,112.0,121.0,0.0
68.0,112.0,119.0,0.0
70.0,119.0,124.0,0.0
69.0,122.0,123.0,0.0
72.0,129.0,128.0,0.0
72.0,130.0,126.0,0.0
74.0,137.0,129.0,0.0
74.0,141.0,130.0,0.0
75.0,145.0,131.0,0.0
75.0,149.0,131.0,0.0
74.0,149.0,129.0,0.0
76.0,156.0,132.0,0.0
76.0,159.0,131.0,0.0
77.0,162.0,132.0,0.0
73.0,160.0,127.0,0.0
112.0,-321.0,68.0,0.0
109.0,-305.0,68.0,0.0
106.0,-293.0,70.0,0.0
106.0,-289.0,71.0,0.0
105.0,-283.0,73.0,0.0
106.0,-281.0,76.0,0.0
105.0,-275.0,77.0,0.0
105.0,-274.0,80.0,0.0
104.0,-266.0,81.0,0.0
108.0,-270.0,86.0,0.0
108.0,-268.0,88.0,0.0
110.0,-270.0,92.0,0.0
108.0,-262.0,92.0,0.0
110.0,-263.0,96.0,0.0
114.0,-269.0,102.0,0.0
111.0,-259.0,101.0,0.0
113.0,-260.0,105.0,0.0
114.0,-258.0,107.0,0.0
117.0,-261.0,113.0,0.0
120.0,-264.0,118.0,0.0
120.0,-261.0,119.0,0.0
117.0,-252.0,119.0,0.0
123.0,-260.0,126.0,0.0
123.0,-256.0,128.0,0.0
120.0,-247.0,127.0,0.0
126.0,-254.0,134.0,0.0
132.0,-264.0,143.0,0.0
140.0,-275.0,154.0,0.0
143.0,-278.0,159.0,0.0
137.0,-261.0,154.0,0.0
132.0,-250.0,150.0,0.0
125.0,-232.0,144.0,0.0
120.0,-220.0,140.0,0.0
115.0,-207.0,135.0,0.0
106.0,-189.0,126.0,0.0
100.0,-177.0,121.0,0.0
87.0,-150.0,105.0,0.0
90.0,-153.0,110.0,0.0
91.0,-154.0,113.0,0.0
85.0,-141.0,107.0,0.0
83.0,-136.0,105.0,0.0
74.0,-120.0,95.0,0.0
75.0,-118.0,97.0,0.0
82.0,-126.0,106.0,0.0
66.0,-101.0,86.0,0.0
64.0,-96.0,84.0,0.0
64.0,-95.0,85.0,0.0
17016.0,-24724.0,22685.0,0.0
16946.0,-24224.0,22762.0,0.0
16897.0,-23758.0,22863.0,0.0
16820.0,-23258.0,22923.0,0.0
16747.0,-22770.0,22985.0,0.0
16699.0,-22319.0,23076.0,0.0
16639.0,-21858.0,23148.0,0.0
16574.0,-21393.0,23208.0,0.0
16520.0,-20950.0,23283.0,0.0
16464.0,-20507.0,23351.0,0.0
16412.0,-20073.0,23420.0,0.0
16362.0,-19644.0,23488.0,0.0
15665.0,-18459.0,22622.0,0.0
15668.0,-18112.0,22756.0,0.0
16226.0,-18399.0,23700.0,0.0
16162.0,-17971.0,23738.0,0.0
16132.0,-17583.0,23824.0,0.0
16080.0,-17174.0,23873.0,0.0
16041.0,-16782.0,23938.0,0.0
16003.0,-16395.0,24005.0,0.0
15953.0,-15999.0,24050.0,0.0
15950.0,-15650.0,24163.0,0.0
15950.0,-15306.0,24279.0,0.0
15922.0,-14937.0,24352.0,0.0
15885.0,-14562.0,24408.0,0.0
15865.0,-14205.0,24488.0,0.0
15862.0,-13863.0,24591.0,0.0
15837.0,-13503.0,24658.0,0.0
15804.0,-13140.0,24713.0,0.0
15804.0,-12804.0,24817.0,0.0
15794.0,-12462.0,24903.0,0.0
15780.0,-12118.0,24982.0,0.0
15761.0,-11770.0,25050.0,0.0
15783.0,-11453.0,25183.0,0.0
15736.0,-11088.0,25203.0,0.0
15723.0,-10748.0,25277.0,0.0
15738.0,-10428.0,25393.0,0.0
15725.0,-10089.0,25463.0,0.0
15704.0,-9746.0,25519.0,0.0
15712.0,-9421.0,25620.0,0.0
15703.0,-9087.0,25693.0,0.0
15685.0,-8748.0,25749.0,0.0
15683.0,-8419.0,25830.0,0.0
15682.0,-8089.0,25911.0,0.0
15682.0,-7761.0,25991.0,0.0
15673.0,-7428.0,26058.0,0.0
15679.0,-7102.0,26147.0,0.0
15667.0,-6769.0,26204.0,0.0
15674.0,-6443.0,26294.0,0.0
15655.0,-6106.0,26335.0,0.0
15645.0,-5775.0,26393.0,0.0
15688.0,-5461.0,26537.0,0.0
15676.0,-5126.0,26587.0,0.0
15674.0,-4796.0,26654.0,0.0
15687.0,-4469.0,26746.0,0.0
15678.0,-4135.0,26798.0,0.0
15678.0,-3804.0,26863.0,0.0
15691.0,-3474.0,26952.0,0.0
15689.0,-3141.0,27012.0,0.0
15715.0,-2812.0,27119.0,0.0
15.0,-2.0,26.0,0.0
15740.0,-2145.0,27287.0,0.0
13.0,-2.0,23.0,0.0
18.0,-2.0,32.0,0.0
20.0,-1.0,36.0,0.0
19.0,-1.0,33.0,0.0
21.0,-1.0,37.0,0.0
27.0,0.0,50.0,0.0
25.0,0.0,45.0,0.0
25.0,0.0,44.0,0.0
28.0,1.0,50.0,0.0
27.0,1.0,48.0,0.0
23.0,2.0,41.0,0.0
29.0,3.0,53.0,0.0
29.0,3.0,53.0,0.0
40.0,6.0,72.0,0.0
36.0,6.0,65.0,0.0
36.0,7.0,64.0,0.0
38.0,9.0,69.0,0.0
43.0,11.0,78.0,0.0
41.0,11.0,74.0,0.0
38.0,12.0,70.0,0.0
49.0,16.0,89.0,0.0
44.0,15.0,81.0,0.0
44.0,16.0,81.0,0.0
44.0,17.0,80.0,0.0
49.0,20.0,91.0,0.0
53.0,23.0,97.0,0.0
53.0,24.0,96.0,0.0
54.0,26.0,98.0,0.0
56.0,29.0,104.0,0.0
60.0,32.0,111.0,0.0
58.0,33.0,107.0,0.0
58.0,34.0,107.0,0.0
56.0,34.0,103.0,0.0
58.0,37.0,107.0,0.0
57.0,38.0,105.0,0.0
61.0,42.0,112.0,0.0
63.0,45.0,117.0,0.0
60.0,45.0,110.0,0.0
64.0,48.0,117.0,0.0
62.0,50.0,115.0,0.0
55.0,45.0,102.0,0.0
61.0,51.0,113.0,0.0
54.0,47.0,100.0,0.0
54.0,50.0,101.0,0.0
52.0,48.0,95.0,0.0
58.0,55.0,108.0,0.0
58.0,57.0,107.0,0.0
55.0,56.0,103.0,0.0
57.0,59.0,105.0,0.0
53.0,57.0,97.0,0.0
55.0,59.0,100.0,0.0
53.0,60.0,100.0,0.0
53.0,62.0,98.0,0.0
56.0,67.0,105.0,0.0
54.0,65.0,100.0,0.0
56.0,69.0,102.0,0.0
59.0,75.0,108.0,0.0
59.0,76.0,107.0,0.0
59.0,80.0,109.0,0.0
59.0,81.0,108.0,0.0
60.0,84.0,111.0,0.0
62.0,88.0,113.0,0.0
63.0,93.0,116.0,0.0
61.0,92.0,113.0,0.0
61.0,92.0,110.0,0.0
64.0,100.0,116.0,0.0
65.0,104.0,118.0,0.0
65.0,107.0,120.0,0.0
65.0,109.0,118.0,0.0
66.0,112.0,120.0,0.0
66.0,116.0,121.0,0.0
70.0,124.0,126.0,0.0
69.0,124.0,125.0,0.0
68.0,127.0,123.0,0.0
70.0,133.0,126.0,0.0
71.0,136.0,127.0,0.0
69.0,138.0,125.0,0.0
72.0,144.0,129.0,0.0
71.0,146.0,127.0,0.0
74.0,155.0,132.0,0.0
75.0,160.0,133.0,0.0
73.0,158.0,129.0,0.0
71.0,159.0,127.0,0.0
105.0,-304.0,66.0,0.0
99.0,-285.0,65.0,0.0
99.0,-283.0,67.0,0.0
98.0,-276.0,69.0,0.0
101.0,-280.0,74.0,0.0
98.0,-268.0,73.0,0.0
102.0,-276.0,79.0,0.0
100.0,-266.0,79.0,0.0
103.0,-269.0,83.0,0.0
105.0,-271.0,87.0,0.0
104.0,-265.0,88.0,0.0
106.0,-267.0,92.0,0.0
103.0,-257.0,92.0,0.0
106.0,-258.0,96.0,0.0
109.0,-265.0,101.0,0.0
111.0,-265.0,105.0,0.0
110.0,-257.0,105.0,0.0
113.0,-262.0,111.0,0.0
113.0,-258.0,113.0,0.0
115.0,-261.0,117.0,0.0
112.0,-250.0,115.0,0.0
116.0,-254.0,121.0,0.0
119.0,-258.0,126.0,0.0
117.0,-249.0,125.0,0.0
116.0,-245.0,127.0,0.0
120.0,-249.0,134.0,0.0
123.0,-251.0,138.0,0.0
138.0,-279.0,157.0,0.0
131.0,-260.0,150.0,0.0
128.0,-251.0,149.0,0.0
125.0,-242.0,147.0,0.0
120.0,-228.0,143.0,0.0
108.0,-201.0,129.0,0.0
116.0,-214.0,141.0,0.0
100.0,-182.0,123.0,0.0
98.0,-175.0,121.0,0.0
91.0,-161.0,114.0,0.0
86.0,-148.0,108.0,0.0
88.0,-153.0,114.0,0.0
79.0,-135.0,103.0,0.0
76.0,-126.0,99.0,0.0
74.0,-121.0,97.0,0.0
76.0,-122.0,100.0,0.0
61.0,-99.0,82.0,0.0
58.0,-91.0,79.0,0.0
58.0,-89.0,78.0,0.0
58.0,-89.0,81.0,0.0
58.0,-87.0,80.0,0.0
16483.0,-24100.0,22773.0,0.0
16434.0,-23633.0,22869.0,0.0
16370.0,-23150.0,22942.0,0.0
16300.0,-22666.0,23002.0,0.0
16258.0,-22224.0,23099.0,0.0
16227.0,-21800.0,23207.0,0.0
16147.0,-21316.0,23243.0,0.0
16096.0,-20873.0,23316.0,0.0
16041.0,-20432.0,23380.0,0.0
15956.0,-19955.0,23397.0,0.0
15490.0,-19018.0,22849.0,0.0
15405.0,-18562.0,22856.0,0.0
15629.0,-18477.0,23320.0,0.0
15802.0,-18324.0,23710.0,0.0
15756.0,-17916.0,23771.0,0.0
15714.0,-17514.0,23834.0,0.0
15667.0,-17111.0,23888.0,0.0
15624.0,-16716.0,23945.0,0.0
15605.0,-16348.0,24036.0,0.0
15557.0,-15954.0,24081.0,0.0
15532.0,-15586.0,24160.0,0.0
15502.0,-15215.0,24228.0,0.0
15488.0,-14860.0,24318.0,0.0
15483.0,-14517.0,24422.0,0.0
15470.0,-14166.0,24508.0,0.0
15447.0,-13808.0,24581.0,0.0
15439.0,-13465.0,24673.0,0.0
15410.0,-13105.0,24733.0,0.0
15412.0,-12773.0,24839.0,0.0
15411.0,-12438.0,24935.0,0.0
15387.0,-12088.0,24997.0,0.0
15354.0,-11731.0,25042.0,0.0
15362.0,-11407.0,25152.0,0.0
15340.0,-11060.0,25210.0,0.0
15337.0,-10728.0,25298.0,0.0
15340.0,-10402.0,25395.0,0.0
15320.0,-10060.0,25453.0,0.0
15298.0,-9718.0,25504.0,0.0
15305.0,-9395.0,25604.0,0.0
15290.0,-9058.0,25664.0,0.0
15294.0,-8734.0,25756.0,0.0
15295.0,-8407.0,25841.0,0.0
15293.0,-8079.0,25919.0,0.0
15267.0,-7739.0,25956.0,0.0
15275.0,-7417.0,26050.0,0.0
15282.0,-7093.0,26140.0,0.0
15293.0,-6772.0,26237.0,0.0
15290.0,-6443.0,26306.0,0.0
15282.0,-6112.0,26367.0,0.0
15286.0,-5788.0,26447.0,0.0
15282.0,-5458.0,26513.0,0.0
15287.0,-5132.0,26592.0,0.0
15273.0,-4799.0,26639.0,0.0
15290.0,-4476.0,26736.0,0.0
15303.0,-4149.0,26826.0,0.0
15288.0,-3816.0,26866.0,0.0
15314.0,-3491.0,26977.0,0.0
15302.0,-3157.0,27020.0,0.0
8.0,-2.0,14.0,0.0
4.0,-1.0,7.0,0.0
15334.0,-2164.0,27262.0,0.0
10.0,-1.0,20.0,0.0
22.0,-2.0,40.0,0.0
8.0,-1.0,15.0,0.0
14.0,0.0,26.0,0.0
19.0,0.0,35.0,0.0
23.0,0.0,42.0,0.0
22.0,0.0,40.0,0.0
21.0,0.0,38.0,0.0
22.0,1.0,40.0,0.0
30.0,2.0,55.0,0.0
31.0,3.0,58.0,0.0
28.0,2.0,52.0,0.0
31.0,4.0,58.0,0.0
27.0,4.0,50.0,0.0
26.0,4.0,48.0,0.0
31.0,6.0,58.0,0.0
35.0,7.0,66.0,0.0
31.0,8.0,59.0,0.0
37.0,10.0,71.0,0.0
37.0,11.0,68.0,0.0
44.0,14.0,82.0,0.0
48.0,16.0,90.0,0.0
45.0,17.0,84.0,0.0
44.0,17.0,83.0,0.0
38.0,15.0,71.0,0.0
44.0,20.0,84.0,0.0
46.0,21.0,87.0,0.0
42.0,21.0,80.0,0.0
48.0,25.0,90.0,0.0
53.0,29.0,98.0,0.0
53.0,30.0,101.0,0.0
53.0,31.0,101.0,0.0
55.0,35.0,105.0,0.0
51.0,33.0,97.0,0.0
55.0,37.0,104.0,0.0
62.0,43.0,117.0,0.0
53.0,39.0,101.0,0.0
58.0,44.0,110.0,0.0
60.0,46.0,112.0,0.0
58.0,46.0,108.0,0.0
56.0,46.0,105.0,0.0
52.0,45.0,99.0,0.0
55.0,49.0,104.0,0.0
50.0,47.0,97.0,0.0
46.0,44.0,88.0,0.0
46.0,45.0,88.0,0.0
48.0,49.0,92.0,0.0
50.0,52.0,96.0,0.0
48.0,51.0,92.0,0.0
47.0,52.0,90.0,0.0
49.0,55.0,95.0,0.0
50.0,58.0,96.0,0.0
52.0,62.0,101.0,0.0
52.0,62.0,98.0,0.0
53.0,65.0,100.0,0.0
52.0,67.0,100.0,0.0
55.0,71.0,103.0,0.0
55.0,74.0,106.0,0.0
54.0,75.0,103.0,0.0
58.0,80.0,108.0,0.0
54.0,79.0,104.0,0.0
54.0,78.0,102.0,0.0
54.0,82.0,103.0,0.0
55.0,86.0,105.0,0.0
62.0,97.0,116.0,0.0
58.0,93.0,109.0,0.0
62.0,101.0,116.0,0.0
60.0,101.0,112.0,0.0
63.0,108.0,119.0,0.0
62.0,109.0,117.0,0.0
65.0,116.0,122.0,0.0
65.0,120.0,122.0,0.0
65.0,120.0,121.0,0.0
66.0,125.0,122.0,0.0
67.0,130.0,124.0,0.0
67.0,133.0,125.0,0.0
67.0,137.0,126.0,0.0
68.0,140.0,126.0,0.0
66.0,140.0,123.0,0.0
69.0,148.0,127.0,0.0
71.0,155.0,131.0,0.0
69.0,155.0,127.0,0.0
68.0,154.0,124.0,0.0
102.0,-306.0,68.0,0.0
98.0,-290.0,67.0,0.0
99.0,-289.0,70.0,0.0
95.0,-273.0,70.0,0.0
98.0,-276.0,74.0,0.0
97.0,-270.0,75.0,0.0
