//X,Y,Z,Classification
956.0,-308.0,1966.0,0.0
956.0,-285.0,1971.0,0.0
968.0,-265.0,2001.0,0.0
953.0,-237.0,1976.0,0.0
12582.0,-2813.0,26119.0,1.0
954.0,-189.0,1984.0,0.0
12388.0,-2156.0,25833.0,1.0
12278.0,-1831.0,25658.0,1.0
7.0,-1.0,16.0,0.0
5.0,0.0,13.0,0.0
5.0,0.0,13.0,0.0
2.0,0.0,5.0,0.0
12.0,-1.0,28.0,0.0
9.0,0.0,21.0,0.0
19.0,0.0,41.0,0.0
4.0,0.0,9.0,0.0
16.0,1.0,35.0,0.0
14.0,1.0,30.0,0.0
21.0,2.0,46.0,0.0
19.0,3.0,42.0,0.0
12.0,1.0,29.0,0.0
17.0,3.0,39.0,0.0
21.0,5.0,46.0,0.0
20.0,5.0,44.0,0.0
21.0,5.0,47.0,0.0
26.0,7.0,58.0,0.0
30.0,10.0,65.0,0.0
28.0,9.0,62.0,0.0
27.0,10.0,60.0,0.0
25.0,10.0,57.0,0.0
35.0,15.0,77.0,0.0
34.0,16.0,75.0,0.0
32.0,16.0,73.0,0.0
37.0,19.0,83.0,0.0
34.0,18.0,76.0,0.0
32.0,18.0,71.0,0.0
32.0,19.0,72.0,0.0
38.0,24.0,83.0,0.0
34.0,23.0,76.0,0.0
36.0,25.0,82.0,0.0
38.0,28.0,85.0,0.0
36.0,28.0,83.0,0.0
36.0,28.0,82.0,0.0
40.0,33.0,90.0,0.0
40.0,34.0,89.0,0.0
38.0,34.0,88.0,0.0
37.0,34.0,84.0,0.0
38.0,36.0,85.0,0.0
35.0,34.0,79.0,0.0
33.0,33.0,75.0,0.0
32.0,33.0,73.0,0.0
30.0,33.0,69.0,0.0
32.0,36.0,74.0,0.0
34.0,39.0,78.0,0.0
32.0,38.0,73.0,0.0
33.0,40.0,76.0,0.0
35.0,43.0,80.0,0.0
36.0,47.0,83.0,0.0
36.0,47.0,82.0,0.0
36.0,49.0,84.0,0.0
38.0,54.0,88.0,0.0
38.0,54.0,87.0,0.0
37.0,54.0,85.0,0.0
38.0,57.0,87.0,0.0
40.0,62.0,91.0,0.0
41.0,64.0,92.0,0.0
43.0,68.0,96.0,0.0
41.0,69.0,94.0,0.0
41.0,70.0,94.0,0.0
42.0,73.0,95.0,0.0
42.0,75.0,97.0,0.0
44.0,79.0,98.0,0.0
42.0,79.0,98.0,0.0
44.0,84.0,100.0,0.0
45.0,87.0,103.0,0.0
48.0,95.0,109.0,0.0
51.0,101.0,114.0,0.0
47.0,98.0,108.0,0.0
49.0,103.0,111.0,0.0
52.0,111.0,116.0,0.0
50.0,111.0,114.0,0.0
53.0,118.0,119.0,0.0
53.0,123.0,121.0,0.0
54.0,127.0,122.0,0.0
56.0,134.0,125.0,0.0
53.0,130.0,120.0,0.0
55.0,137.0,123.0,0.0
55.0,141.0,124.0,0.0
53.0,141.0,121.0,0.0
54.0,144.0,121.0,0.0
74.0,-266.0,64.0,0.0
76.0,-267.0,68.0,0.0
75.0,-260.0,69.0,0.0
75.0,-257.0,71.0,0.0
76.0,-255.0,74.0,0.0
78.0,-259.0,77.0,0.0
79.0,-261.0,82.0,0.0
81.0,-261.0,85.0,0.0
82.0,-262.0,87.0,0.0
82.0,-258.0,90.0,0.0
83.0,-260.0,94.0,0.0
84.0,-256.0,96.0,0.0
87.0,-262.0,101.0,0.0
84.0,-250.0,99.0,0.0
87.0,-255.0,105.0,0.0
92.0,-265.0,113.0,0.0
88.0,-249.0,109.0,0.0
92.0,-257.0,115.0,0.0
93.0,-259.0,120.0,0.0
93.0,-253.0,121.0,0.0
93.0,-251.0,123.0,0.0
98.0,-258.0,130.0,0.0
95.0,-249.0,129.0,0.0
95.0,-243.0,129.0,0.0
98.0,-249.0,137.0,0.0
102.0,-253.0,142.0,0.0
103.0,-254.0,147.0,0.0
101.0,-245.0,145.0,0.0
100.0,-239.0,145.0,0.0
94.0,-222.0,139.0,0.0
94.0,-217.0,139.0,0.0
86.0,-197.0,129.0,0.0
84.0,-188.0,127.0,0.0
74.0,-165.0,113.0,0.0
73.0,-161.0,114.0,0.0
71.0,-154.0,112.0,0.0
67.0,-143.0,105.0,0.0
62.0,-129.0,98.0,0.0
59.0,-122.0,95.0,0.0
61.0,-123.0,98.0,0.0
50.0,-99.0,81.0,0.0
52.0,-102.0,85.0,0.0
10480.0,-20070.0,17098.0,0.0
10452.0,-19700.0,17178.0,0.0
10435.0,-19355.0,17273.0,0.0
10387.0,-18955.0,17313.0,0.0
10375.0,-18627.0,17413.0,0.0
10479.0,-18505.0,17705.0,0.0
10714.0,-18609.0,18221.0,0.0
10810.0,-18464.0,18503.0,0.0
11030.0,-18524.0,18999.0,0.0
11283.0,-18627.0,19554.0,0.0
11557.0,-18750.0,20147.0,0.0
892.0,-1423.0,1566.0,0.0
890.0,-1394.0,1571.0,0.0
900.0,-1385.0,1598.0,0.0
911.0,-1377.0,1626.0,0.0
907.0,-1347.0,1628.0,0.0
0.0,0.0,0.0,0.0
905.0,-1293.0,1642.0,0.0
902.0,-1264.0,1644.0,0.0
913.0,-1255.0,1673.0,0.0
14260.0,-19222.0,26231.0,1.0
14272.0,-18857.0,26381.0,1.0
936.0,-1213.0,1740.0,0.0
921.0,-1170.0,1721.0,0.0
918.0,-1141.0,1723.0,0.0
921.0,-1120.0,1735.0,0.0
925.0,-1101.0,1751.0,0.0
936.0,-1090.0,1780.0,0.0
931.0,-1059.0,1777.0,0.0
929.0,-1033.0,1781.0,0.0
965.0,-1048.0,1857.0,0.0
943.0,-1000.0,1822.0,0.0
927.0,-959.0,1799.0,0.0
941.0,-949.0,1831.0,0.0
934.0,-919.0,1826.0,0.0
957.0,-916.0,1876.0,0.0
946.0,-883.0,1863.0,0.0
14673.0,-13320.0,28975.0,1.0
949.0,-837.0,1882.0,0.0
945.0,-811.0,1881.0,0.0
914.0,-760.0,1825.0,0.0
942.0,-760.0,1887.0,0.0
944.0,-738.0,1898.0,0.0
946.0,-716.0,1908.0,0.0
941.0,-688.0,1903.0,0.0
951.0,-672.0,1931.0,0.0
14040.0,-9574.0,28567.0,1.0
952.0,-625.0,1944.0,0.0
950.0,-599.0,1944.0,0.0
950.0,-576.0,1951.0,0.0
953.0,-554.0,1964.0,0.0
949.0,-528.0,1960.0,0.0
962.0,-512.0,1993.0,0.0
954.0,-484.0,1984.0,0.0
13319.0,-6421.0,27733.0,1.0
13231.0,-6049.0,27623.0,1.0
952.0,-412.0,1994.0,0.0
12959.0,-5276.0,27200.0,1.0
949.0,-363.0,2000.0,0.0
939.0,-336.0,1984.0,0.0
970.0,-322.0,2054.0,0.0
12538.0,-3845.0,26578.0,1.0
12422.0,-3497.0,26396.0,1.0
941.0,-241.0,2006.0,0.0
12276.0,-2836.0,26210.0,1.0
12136.0,-2496.0,25972.0,1.0
934.0,-168.0,2005.0,0.0
11993.0,-1856.0,25779.0,1.0
928.0,-120.0,1999.0,0.0
11935.0,-1238.0,25766.0,1.0
12.0,-1.0,26.0,0.0
7.0,0.0,15.0,0.0
19.0,-1.0,43.0,0.0
12.0,0.0,26.0,0.0
12.0,0.0,27.0,0.0
15.0,0.0,36.0,0.0
15.0,1.0,36.0,0.0
16.0,1.0,36.0,0.0
12.0,1.0,26.0,0.0
22.0,2.0,51.0,0.0
27.0,4.0,63.0,0.0
22.0,4.0,52.0,0.0
23.0,5.0,52.0,0.0
22.0,5.0,50.0,0.0
24.0,6.0,54.0,0.0
29.0,8.0,66.0,0.0
27.0,9.0,62.0,0.0
33.0,12.0,74.0,0.0
31.0,12.0,69.0,0.0
34.0,14.0,78.0,0.0
36.0,16.0,81.0,0.0
29.0,14.0,66.0,0.0
36.0,18.0,82.0,0.0
36.0,19.0,82.0,0.0
36.0,20.0,83.0,0.0
38.0,23.0,88.0,0.0
33.0,20.0,77.0,0.0
36.0,23.0,83.0,0.0
40.0,27.0,92.0,0.0
42.0,30.0,97.0,0.0
37.0,28.0,85.0,0.0
39.0,30.0,90.0,0.0
39.0,31.0,89.0,0.0
35.0,30.0,81.0,0.0
39.0,34.0,92.0,0.0
37.0,33.0,85.0,0.0
37.0,35.0,86.0,0.0
41.0,39.0,93.0,0.0
34.0,34.0,79.0,0.0
37.0,38.0,86.0,0.0
34.0,37.0,81.0,0.0
34.0,39.0,81.0,0.0
34.0,38.0,79.0,0.0
36.0,42.0,84.0,0.0
31.0,38.0,72.0,0.0
33.0,41.0,77.0,0.0
31.0,41.0,75.0,0.0
33.0,44.0,79.0,0.0
35.0,46.0,81.0,0.0
33.0,47.0,80.0,0.0
37.0,53.0,87.0,0.0
37.0,53.0,86.0,0.0
38.0,56.0,89.0,0.0
38.0,59.0,90.0,0.0
40.0,63.0,95.0,0.0
38.0,62.0,90.0,0.0
41.0,67.0,96.0,0.0
42.0,71.0,98.0,0.0
43.0,75.0,102.0,0.0
42.0,75.0,99.0,0.0
42.0,78.0,100.0,0.0
44.0,82.0,104.0,0.0
45.0,85.0,104.0,0.0
44.0,86.0,104.0,0.0
45.0,90.0,106.0,0.0
47.0,97.0,113.0,0.0
47.0,98.0,110.0,0.0
51.0,109.0,121.0,0.0
50.0,110.0,118.0,0.0
50.0,110.0,116.0,0.0
50.0,115.0,118.0,0.0
51.0,118.0,119.0,0.0
53.0,126.0,124.0,0.0
52.0,126.0,122.0,0.0
54.0,133.0,126.0,0.0
52.0,134.0,124.0,0.0
52.0,136.0,123.0,0.0
53.0,140.0,124.0,0.0
52.0,140.0,122.0,0.0
53.0,147.0,125.0,0.0
69.0,-259.0,64.0,0.0
69.0,-255.0,66.0,0.0
68.0,-247.0,66.0,0.0
69.0,-246.0,69.0,0.0
69.0,-243.0,71.0,0.0
73.0,-252.0,77.0,0.0
72.0,-245.0,77.0,0.0
76.0,-254.0,83.0,0.0
75.0,-248.0,84.0,0.0
79.0,-255.0,90.0,0.0
77.0,-247.0,90.0,0.0
79.0,-249.0,94.0,0.0
81.0,-251.0,98.0,0.0
81.0,-250.0,101.0,0.0
85.0,-258.0,106.0,0.0
84.0,-253.0,108.0,0.0
85.0,-250.0,110.0,0.0
85.0,-247.0,112.0,0.0
85.0,-242.0,112.0,0.0
88.0,-246.0,118.0,0.0
88.0,-242.0,120.0,0.0
89.0,-243.0,124.0,0.0
90.0,-243.0,127.0,0.0
87.0,-230.0,123.0,0.0
90.0,-235.0,130.0,0.0
95.0,-244.0,138.0,0.0
96.0,-244.0,142.0,0.0
98.0,-244.0,145.0,0.0
87.0,-213.0,131.0,0.0
87.0,-211.0,132.0,0.0
83.0,-198.0,128.0,0.0
79.0,-187.0,123.0,0.0
76.0,-175.0,119.0,0.0
76.0,-175.0,121.0,0.0
67.0,-150.0,107.0,0.0
64.0,-141.0,103.0,0.0
64.0,-139.0,103.0,0.0
60.0,-129.0,98.0,0.0
59.0,-125.0,98.0,0.0
56.0,-115.0,92.0,0.0
47.0,-97.0,79.0,0.0
47.0,-95.0,81.0,0.0
47.0,-93.0,79.0,0.0
10125.0,-19612.0,17187.0,0.0
10101.0,-19253.0,17266.0,0.0
10075.0,-18892.0,17339.0,0.0
10050.0,-18541.0,17414.0,0.0
10196.0,-18501.0,17783.0,0.0
10492.0,-18723.0,18416.0,0.0
10493.0,-18413.0,18534.0,0.0
10754.0,-18552.0,19113.0,0.0
10985.0,-18628.0,19641.0,0.0
11262.0,-18769.0,20255.0,0.0
861.0,-1411.0,1560.0,0.0
869.0,-1398.0,1581.0,0.0
887.0,-1403.0,1625.0,0.0
13285.0,-20615.0,24435.0,1.0
861.0,-1313.0,1594.0,0.0
893.0,-1336.0,1661.0,0.0
889.0,-1304.0,1661.0,0.0
886.0,-1276.0,1665.0,0.0
895.0,-1263.0,1689.0,0.0
907.0,-1257.0,1722.0,0.0
13906.0,-18869.0,26490.0,1.0
909.0,-1209.0,1740.0,0.0
14091.0,-18352.0,27090.0,1.0
896.0,-1143.0,1733.0,0.0
886.0,-1107.0,1720.0,0.0
896.0,-1094.0,1746.0,0.0
897.0,-1072.0,1756.0,0.0
908.0,-1062.0,1785.0,0.0
894.0,-1020.0,1765.0,0.0
904.0,-1009.0,1792.0,0.0
907.0,-988.0,1805.0,0.0
900.0,-956.0,1796.0,0.0
14652.0,-15188.0,29357.0,1.0
14595.0,-14747.0,29353.0,1.0
906.0,-893.0,1832.0,0.0
14385.0,-13785.0,29141.0,1.0
884.0,-824.0,1798.0,0.0
923.0,-836.0,1883.0,0.0
904.0,-796.0,1853.0,0.0
911.0,-779.0,1873.0,0.0
14023.0,-11626.0,28903.0,1.0
921.0,-739.0,1906.0,0.0
13879.0,-10794.0,28794.0,1.0
13809.0,-10384.0,28739.0,1.0
940.0,-683.0,1964.0,0.0
13695.0,-9597.0,28679.0,1.0
13650.0,-9217.0,28674.0,1.0
926.0,-601.0,1951.0,0.0
13507.0,-8428.0,28540.0,1.0
927.0,-554.0,1967.0,0.0
912.0,-523.0,1940.0,0.0
950.0,-519.0,2026.0,0.0
13075.0,-6821.0,27939.0,1.0
935.0,-463.0,2005.0,0.0
925.0,-436.0,1990.0,0.0
900.0,-401.0,1940.0,0.0
910.0,-382.0,1967.0,0.0
12445.0,-4898.0,26948.0,1.0
12459.0,-4583.0,27046.0,1.0
12283.0,-4203.0,26730.0,1.0
904.0,-286.0,1974.0,0.0
12140.0,-3528.0,26548.0,1.0
12066.0,-3194.0,26447.0,1.0
919.0,-220.0,2021.0,0.0
11991.0,-2552.0,26405.0,1.0
911.0,-171.0,2011.0,0.0
914.0,-147.0,2023.0,0.0
903.0,-122.0,2002.0,0.0
10.0,-1.0,25.0,0.0
0.0,0.0,2.0,0.0
10.0,-1.0,24.0,0.0
5.0,0.0,12.0,0.0
13.0,0.0,30.0,0.0
11.0,0.0,27.0,0.0
11.0,0.0,26.0,0.0
13.0,0.0,30.0,0.0
8.0,0.0,21.0,0.0
15.0,1.0,34.0,0.0
16.0,1.0,38.0,0.0
17.0,2.0,39.0,0.0
13.0,2.0,30.0,0.0
20.0,4.0,46.0,0.0
17.0,4.0,41.0,0.0
25.0,7.0,58.0,0.0
30.0,9.0,72.0,0.0
22.0,7.0,52.0,0.0
25.0,10.0,60.0,0.0
25.0,9.0,57.0,0.0
27.0,11.0,63.0,0.0
27.0,12.0,63.0,0.0
30.0,15.0,70.0,0.0
33.0,17.0,78.0,0.0
30.0,16.0,72.0,0.0
32.0,18.0,74.0,0.0
27.0,17.0,66.0,0.0
34.0,21.0,81.0,0.0
34.0,23.0,82.0,0.0
36.0,25.0,85.0,0.0
33.0,24.0,78.0,0.0
34.0,26.0,82.0,0.0
32.0,25.0,76.0,0.0
34.0,29.0,81.0,0.0
33.0,28.0,78.0,0.0
31.0,28.0,75.0,0.0
34.0,32.0,81.0,0.0
33.0,32.0,80.0,0.0
36.0,36.0,86.0,0.0
31.0,31.0,73.0,0.0
27.0,29.0,65.0,0.0
28.0,31.0,69.0,0.0
27.0,31.0,66.0,0.0
29.0,33.0,70.0,0.0
29.0,35.0,70.0,0.0
32.0,40.0,78.0,0.0
30.0,38.0,74.0,0.0
31.0,41.0,75.0,0.0
30.0,41.0,73.0,0.0
32.0,45.0,78.0,0.0
32.0,45.0,77.0,0.0
31.0,45.0,75.0,0.0
34.0,51.0,82.0,0.0
34.0,52.0,82.0,0.0
34.0,55.0,84.0,0.0
34.0,56.0,83.0,0.0
37.0,61.0,90.0,0.0
34.0,59.0,84.0,0.0
39.0,69.0,95.0,0.0
39.0,69.0,94.0,0.0
39.0,71.0,96.0,0.0
42.0,78.0,102.0,0.0
39.0,76.0,97.0,0.0
41.0,80.0,99.0,0.0
42.0,84.0,102.0,0.0
40.0,84.0,99.0,0.0
44.0,92.0,106.0,0.0
42.0,92.0,105.0,0.0
43.0,95.0,105.0,0.0
45.0,101.0,110.0,0.0
48.0,111.0,118.0,0.0
45.0,105.0,108.0,0.0
47.0,112.0,114.0,0.0
47.0,116.0,115.0,0.0
48.0,122.0,118.0,0.0
48.0,123.0,117.0,0.0
50.0,130.0,122.0,0.0
47.0,126.0,114.0,0.0
50.0,136.0,122.0,0.0
51.0,141.0,123.0,0.0
49.0,140.0,120.0,0.0
69.0,-263.0,65.0,0.0
67.0,-255.0,66.0,0.0
66.0,-250.0,68.0,0.0
66.0,-242.0,68.0,0.0
68.0,-246.0,73.0,0.0
72.0,-256.0,79.0,0.0
73.0,-257.0,82.0,0.0
71.0,-248.0,82.0,0.0
72.0,-245.0,84.0,0.0
76.0,-253.0,90.0,0.0
78.0,-258.0,95.0,0.0
77.0,-251.0,95.0,0.0
78.0,-252.0,99.0,0.0
82.0,-257.0,104.0,0.0
83.0,-259.0,108.0,0.0
83.0,-254.0,109.0,0.0
84.0,-253.0,112.0,0.0
84.0,-251.0,115.0,0.0
87.0,-256.0,120.0,0.0
87.0,-251.0,122.0,0.0
87.0,-248.0,124.0,0.0
86.0,-241.0,123.0,0.0
90.0,-249.0,131.0,0.0
89.0,-243.0,131.0,0.0
91.0,-244.0,135.0,0.0
92.0,-243.0,139.0,0.0
93.0,-243.0,143.0,0.0
93.0,-240.0,144.0,0.0
89.0,-227.0,140.0,0.0
82.0,-204.0,129.0,0.0
80.0,-197.0,127.0,0.0
78.0,-188.0,125.0,0.0
76.0,-180.0,122.0,0.0
69.0,-162.0,113.0,0.0
65.0,-151.0,108.0,0.0
61.0,-140.0,102.0,0.0
58.0,-131.0,98.0,0.0
56.0,-126.0,97.0,0.0
54.0,-118.0,93.0,0.0
52.0,-113.0,90.0,0.0
46.0,-98.0,80.0,0.0
47.0,-97.0,82.0,0.0
9837.0,-19914.0,17135.0,0.0
9806.0,-19533.0,17200.0,0.0
9776.0,-19161.0,17266.0,0.0
9770.0,-18840.0,17372.0,0.0
9746.0,-18486.0,17444.0,0.0
9904.0,-18478.0,17841.0,0.0
10175.0,-18669.0,18446.0,0.0
10228.0,-18452.0,18656.0,0.0
10465.0,-18560.0,19203.0,0.0
10693.0,-18640.0,19737.0,0.0
10961.0,-18777.0,20349.0,0.0
847.0,-1427.0,1583.0,0.0
12685.0,-20975.0,23814.0,1.0
12768.0,-20736.0,24100.0,1.0
12922.0,-20608.0,24522.0,1.0
13019.0,-20385.0,24836.0,1.0
881.0,-1354.0,1691.0,0.0
875.0,-1320.0,1687.0,0.0
867.0,-1282.0,1680.0,0.0
885.0,-1285.0,1723.0,0.0
862.0,-1227.0,1688.0,0.0
863.0,-1203.0,1696.0,0.0
882.0,-1206.0,1742.0,0.0
13701.0,-18336.0,27157.0,1.0
889.0,-1165.0,1771.0,0.0
870.0,-1117.0,1741.0,0.0
873.0,-1096.0,1753.0,0.0
870.0,-1069.0,1755.0,0.0
14098.0,-16924.0,28543.0,1.0
14204.0,-16666.0,28874.0,1.0
866.0,-993.0,1769.0,0.0
895.0,-1001.0,1834.0,0.0
885.0,-967.0,1822.0,0.0
886.0,-944.0,1831.0,0.0
880.0,-914.0,1826.0,0.0
14125.0,-14289.0,29376.0,1.0
892.0,-878.0,1863.0,0.0
895.0,-858.0,1877.0,0.0
885.0,-825.0,1862.0,0.0
862.0,-779.0,1818.0,0.0
13741.0,-12074.0,29076.0,1.0
903.0,-770.0,1918.0,0.0
885.0,-731.0,1887.0,0.0
13574.0,-10852.0,29003.0,1.0
905.0,-700.0,1943.0,0.0
898.0,-671.0,1934.0,0.0
898.0,-647.0,1939.0,0.0
919.0,-638.0,1989.0,0.0
872.0,-582.0,1892.0,0.0
902.0,-578.0,1963.0,0.0
885.0,-545.0,1933.0,0.0
892.0,-526.0,1955.0,0.0
908.0,-511.0,1994.0,0.0
908.0,-486.0,1999.0,0.0
884.0,-451.0,1953.0,0.0
12459.0,-6037.0,27562.0,1.0
881.0,-404.0,1955.0,0.0
12273.0,-5302.0,27293.0,1.0
12217.0,-4955.0,27237.0,1.0
12140.0,-4605.0,27133.0,1.0
892.0,-315.0,2000.0,0.0
896.0,-293.0,2012.0,0.0
11938.0,-3582.0,26878.0,1.0
899.0,-247.0,2030.0,0.0
893.0,-221.0,2021.0,0.0
892.0,-197.0,2025.0,0.0
11713.0,-2268.0,26617.0,1.0
907.0,-151.0,2066.0,0.0
0.0,0.0,0.0,0.0
6.0,-1.0,15.0,0.0
8.0,-1.0,20.0,0.0
8.0,-1.0,18.0,0.0
14.0,0.0,34.0,0.0
9.0,0.0,22.0,0.0
2.0,0.0,6.0,0.0
11.0,0.0,27.0,0.0
19.0,1.0,44.0,0.0
13.0,1.0,32.0,0.0
13.0,1.0,30.0,0.0
18.0,2.0,42.0,0.0
19.0,3.0,47.0,0.0
24.0,5.0,59.0,0.0
21.0,4.0,49.0,0.0
21.0,5.0,52.0,0.0
24.0,7.0,60.0,0.0
29.0,9.0,69.0,0.0
34.0,12.0,82.0,0.0
24.0,9.0,59.0,0.0
31.0,13.0,74.0,0.0
24.0,10.0,59.0,0.0
31.0,14.0,74.0,0.0
31.0,15.0,74.0,0.0
33.0,17.0,81.0,0.0
30.0,17.0,73.0,0.0
33.0,19.0,81.0,0.0
33.0,20.0,79.0,0.0
34.0,23.0,84.0,0.0
36.0,24.0,87.0,0.0
36.0,26.0,88.0,0.0
35.0,26.0,85.0,0.0
35.0,28.0,87.0,0.0
38.0,30.0,92.0,0.0
32.0,27.0,79.0,0.0
38.0,33.0,94.0,0.0
35.0,32.0,87.0,0.0
38.0,36.0,94.0,0.0
33.0,33.0,84.0,0.0
33.0,34.0,82.0,0.0
34.0,35.0,83.0,0.0
33.0,36.0,82.0,0.0
30.0,35.0,77.0,0.0
27.0,31.0,68.0,0.0
29.0,35.0,72.0,0.0
27.0,34.0,69.0,0.0
27.0,35.0,70.0,0.0
29.0,39.0,73.0,0.0
29.0,38.0,71.0,0.0
31.0,42.0,76.0,0.0
29.0,42.0,74.0,0.0
31.0,46.0,78.0,0.0
30.0,45.0,75.0,0.0
33.0,52.0,83.0,0.0
33.0,52.0,82.0,0.0
35.0,55.0,86.0,0.0
33.0,56.0,83.0,0.0
35.0,59.0,87.0,0.0
37.0,66.0,94.0,0.0
37.0,66.0,93.0,0.0
36.0,66.0,91.0,0.0
39.0,73.0,97.0,0.0
39.0,76.0,99.0,0.0
37.0,73.0,94.0,0.0
40.0,80.0,99.0,0.0
39.0,81.0,99.0,0.0
42.0,88.0,105.0,0.0
39.0,86.0,100.0,0.0
43.0,95.0,108.0,0.0
46.0,103.0,115.0,0.0
45.0,103.0,112.0,0.0
43.0,103.0,110.0,0.0
43.0,104.0,109.0,0.0
45.0,112.0,115.0,0.0
46.0,115.0,115.0,0.0
46.0,119.0,116.0,0.0
48.0,126.0,121.0,0.0
47.0,127.0,119.0,0.0
47.0,130.0,119.0,0.0
47.0,133.0,119.0,0.0
48.0,137.0,120.0,0.0
48.0,140.0,120.0,0.0
66.0,-261.0,66.0,0.0
64.0,-252.0,67.0,0.0
69.0,-263.0,73.0,0.0
68.0,-259.0,74.0,0.0
70.0,-263.0,79.0,0.0
71.0,-260.0,81.0,0.0
72.0,-262.0,85.0,0.0
72.0,-258.0,87.0,0.0
72.0,-251.0,87.0,0.0
75.0,-262.0,94.0,0.0
78.0,-265.0,98.0,0.0
79.0,-266.0,102.0,0.0
78.0,-258.0,102.0,0.0
77.0,-254.0,104.0,0.0
81.0,-260.0,109.0,0.0
82.0,-260.0,113.0,0.0
83.0,-261.0,117.0,0.0
83.0,-256.0,118.0,0.0
85.0,-257.0,122.0,0.0
87.0,-258.0,126.0,0.0
87.0,-254.0,128.0,0.0
88.0,-254.0,131.0,0.0
90.0,-257.0,136.0,0.0
86.0,-239.0,131.0,0.0
87.0,-241.0,135.0,0.0
91.0,-247.0,142.0,0.0
92.0,-249.0,147.0,0.0
88.0,-232.0,140.0,0.0
88.0,-229.0,142.0,0.0
83.0,-212.0,134.0,0.0
84.0,-215.0,140.0,0.0
77.0,-193.0,128.0,0.0
69.0,-170.0,116.0,0.0
68.0,-167.0,116.0,0.0
63.0,-150.0,108.0,0.0
65.0,-151.0,111.0,0.0
59.0,-137.0,103.0,0.0
63.0,-144.0,111.0,0.0
59.0,-131.0,104.0,0.0
46.0,-102.0,83.0,0.0
42.0,-92.0,77.0,0.0
42.0,-89.0,76.0,0.0
9519.0,-19836.0,17149.0,0.0
9499.0,-19477.0,17230.0,0.0
9462.0,-19087.0,17279.0,0.0
9445.0,-18744.0,17362.0,0.0
9443.0,-18432.0,17468.0,0.0
9669.0,-18562.0,18001.0,0.0
9860.0,-18613.0,18470.0,0.0
9958.0,-18482.0,18766.0,0.0
10176.0,-18566.0,19291.0,0.0
10414.0,-18677.0,19858.0,0.0
10659.0,-18785.0,20440.0,0.0
12206.0,-21135.0,23535.0,1.0
12296.0,-20914.0,23838.0,1.0
12411.0,-20731.0,24188.0,1.0
829.0,-1361.0,1626.0,0.0
839.0,-1351.0,1654.0,0.0
12729.0,-20118.0,25193.0,1.0
823.0,-1278.0,1639.0,0.0
0.0,0.0,0.0,0.0
857.0,-1278.0,1722.0,0.0
13082.0,-19136.0,26391.0,1.0
13161.0,-18870.0,26673.0,1.0
13257.0,-18626.0,26990.0,1.0
849.0,-1169.0,1738.0,0.0
867.0,-1169.0,1783.0,0.0
13462.0,-17759.0,27765.0,1.0
856.0,-1104.0,1773.0,0.0
13691.0,-17285.0,28470.0,1.0
845.0,-1045.0,1767.0,0.0
849.0,-1024.0,1782.0,0.0
0.0,0.0,0.0,0.0
0.0,0.0,0.0,0.0
880.0,-988.0,1866.0,0.0
861.0,-943.0,1833.0,0.0
854.0,-912.0,1825.0,0.0
876.0,-912.0,1879.0,0.0
13705.0,-13881.0,29485.0,1.0
873.0,-860.0,1886.0,0.0
866.0,-829.0,1876.0,0.0
875.0,-814.0,1903.0,0.0
864.0,-780.0,1885.0,0.0
13379.0,-11729.0,29273.0,1.0
13353.0,-11343.0,29309.0,1.0
13278.0,-10921.0,29237.0,1.0
13243.0,-10534.0,29251.0,1.0
873.0,-670.0,1935.0,0.0
876.0,-649.0,1947.0,0.0
874.0,-624.0,1950.0,0.0
877.0,-602.0,1962.0,0.0
888.0,-586.0,1992.0,0.0
885.0,-560.0,1991.0,0.0
872.0,-529.0,1969.0,0.0
878.0,-509.0,1987.0,0.0
12365.0,-6838.0,28034.0,1.0
12248.0,-6443.0,27841.0,1.0
12139.0,-6061.0,27667.0,1.0
882.0,-417.0,2017.0,0.0
886.0,-396.0,2032.0,0.0
869.0,-364.0,1999.0,0.0
11940.0,-4672.0,27494.0,1.0
878.0,-320.0,2029.0,0.0
11753.0,-3963.0,27198.0,1.0
874.0,-271.0,2031.0,0.0
11732.0,-3318.0,27277.0,1.0
867.0,-222.0,2022.0,0.0
870.0,-198.0,2035.0,0.0
873.0,-175.0,2046.0,0.0
871.0,-152.0,2046.0,0.0
6.0,-1.0,16.0,0.0
14.0,-1.0,36.0,0.0
9.0,-1.0,23.0,0.0
12.0,-1.0,32.0,0.0
20.0,0.0,49.0,0.0
16.0,0.0,38.0,0.0
12.0,0.0,31.0,0.0
18.0,0.0,45.0,0.0
13.0,1.0,32.0,0.0
13.0,1.0,32.0,0.0
17.0,1.0,42.0,0.0
19.0,3.0,46.0,0.0
18.0,3.0,45.0,0.0
22.0,5.0,55.0,0.0
20.0,4.0,49.0,0.0
30.0,8.0,74.0,0.0
22.0,6.0,54.0,0.0
25.0,7.0,61.0,0.0
22.0,7.0,53.0,0.0
33.0,13.0,83.0,0.0
30.0,12.0,76.0,0.0
28.0,12.0,71.0,0.0
28.0,14.0,70.0,0.0
35.0,18.0,87.0,0.0
30.0,16.0,76.0,0.0
32.0,18.0,82.0,0.0
41.0,25.0,102.0,0.0
36.0,23.0,91.0,0.0
30.0,20.0,76.0,0.0
33.0,23.0,84.0,0.0
32.0,24.0,83.0,0.0
33.0,26.0,85.0,0.0
32.0,26.0,82.0,0.0
33.0,28.0,85.0,0.0
37.0,32.0,93.0,0.0
37.0,34.0,94.0,0.0
39.0,37.0,100.0,0.0
33.0,32.0,84.0,0.0
34.0,34.0,86.0,0.0
34.0,35.0,86.0,0.0
31.0,32.0,78.0,0.0
31.0,34.0,79.0,0.0
31.0,36.0,80.0,0.0
31.0,36.0,80.0,0.0
33.0,40.0,84.0,0.0
25.0,32.0,65.0,0.0
25.0,33.0,66.0,0.0
28.0,38.0,74.0,0.0
28.0,38.0,73.0,0.0
28.0,41.0,75.0,0.0
27.0,40.0,71.0,0.0
28.0,43.0,73.0,0.0
30.0,46.0,77.0,0.0
33.0,52.0,86.0,0.0
30.0,50.0,79.0,0.0
30.0,51.0,80.0,0.0
32.0,56.0,84.0,0.0
33.0,58.0,86.0,0.0
34.0,62.0,90.0,0.0
34.0,63.0,89.0,0.0
36.0,69.0,95.0,0.0
38.0,73.0,98.0,0.0
36.0,72.0,96.0,0.0
38.0,77.0,98.0,0.0
39.0,81.0,101.0,0.0
39.0,84.0,103.0,0.0
40.0,87.0,104.0,0.0
39.0,87.0,102.0,0.0
41.0,95.0,109.0,0.0
41.0,96.0,107.0,0.0
43.0,102.0,112.0,0.0
43.0,106.0,115.0,0.0
43.0,107.0,113.0,0.0
44.0,111.0,115.0,0.0
46.0,118.0,119.0,0.0
44.0,119.0,117.0,0.0
45.0,123.0,118.0,0.0
43.0,122.0,115.0,0.0
47.0,133.0,123.0,0.0
47.0,136.0,123.0,0.0
46.0,137.0,121.0,0.0
48.0,144.0,124.0,0.0
65.0,-270.0,69.0,0.0
65.0,-262.0,70.0,0.0
67.0,-268.0,75.0,0.0
67.0,-265.0,77.0,0.0
69.0,-267.0,80.0,0.0
70.0,-267.0,84.0,0.0
70.0,-264.0,86.0,0.0
73.0,-270.0,91.0,0.0
72.0,-263.0,92.0,0.0
76.0,-272.0,98.0,0.0
76.0,-270.0,101.0,0.0
77.0,-266.0,103.0,0.0
78.0,-267.0,106.0,0.0
79.0,-267.0,110.0,0.0
79.0,-264.0,112.0,0.0
84.0,-273.0,119.0,0.0
82.0,-266.0,119.0,0.0
83.0,-265.0,123.0,0.0
85.0,-265.0,127.0,0.0
86.0,-266.0,131.0,0.0
87.0,-264.0,133.0,0.0
87.0,-261.0,136.0,0.0
90.0,-265.0,142.0,0.0
83.0,-241.0,132.0,0.0
86.0,-248.0,140.0,0.0
94.0,-264.0,153.0,0.0
92.0,-258.0,152.0,0.0
87.0,-239.0,145.0,0.0
86.0,-231.0,144.0,0.0
82.0,-218.0,139.0,0.0
80.0,-209.0,137.0,0.0
76.0,-194.0,131.0,0.0
73.0,-186.0,128.0,0.0
71.0,-175.0,123.0,0.0
65.0,-160.0,115.0,0.0
62.0,-151.0,111.0,0.0
63.0,-151.0,114.0,0.0
53.0,-124.0,97.0,0.0
54.0,-124.0,98.0,0.0
56.0,-128.0,104.0,0.0
51.0,-115.0,95.0,0.0
45.0,-99.0,85.0,0.0
39.0,-85.0,74.0,0.0
41.0,-87.0,78.0,0.0
9158.0,-19029.0,17303.0,0.0
9153.0,-18708.0,17405.0,0.0
9193.0,-18482.0,17593.0,0.0
9397.0,-18578.0,18094.0,0.0
9539.0,-18545.0,18479.0,0.0
9675.0,-18490.0,18851.0,0.0
9903.0,-18603.0,19407.0,0.0
10125.0,-18695.0,19956.0,0.0
800.0,-1454.0,1588.0,0.0
11859.0,-21136.0,23629.0,1.0
11943.0,-20910.0,23923.0,1.0
820.0,-1410.0,1652.0,0.0
817.0,-1382.0,1656.0,0.0
838.0,-1389.0,1705.0,0.0
12386.0,-20147.0,25322.0,1.0
12412.0,-19810.0,25496.0,1.0
833.0,-1305.0,1722.0,0.0
829.0,-1274.0,1721.0,0.0
840.0,-1266.0,1752.0,0.0
832.0,-1229.0,1742.0,0.0
12883.0,-18624.0,27074.0,1.0
844.0,-1196.0,1783.0,0.0
817.0,-1133.0,1732.0,0.0
13120.0,-17809.0,27927.0,1.0
13172.0,-17494.0,28152.0,1.0
836.0,-1087.0,1796.0,0.0
842.0,-1069.0,1814.0,0.0
843.0,-1047.0,1825.0,0.0
13466.0,-16330.0,29241.0,1.0
858.0,-1015.0,1871.0,0.0
13640.0,-15761.0,29838.0,1.0
831.0,-937.0,1826.0,0.0
13544.0,-14881.0,29844.0,1.0
841.0,-901.0,1862.0,0.0
13412.0,-13978.0,29761.0,1.0
13335.0,-13524.0,29693.0,1.0
858.0,-845.0,1917.0,0.0
13163.0,-12611.0,29507.0,1.0
863.0,-803.0,1944.0,0.0
860.0,-776.0,1941.0,0.0
12990.0,-11359.0,29402.0,1.0
852.0,-722.0,1937.0,0.0
841.0,-689.0,1917.0,0.0
851.0,-673.0,1945.0,0.0
12756.0,-9738.0,29228.0,1.0
855.0,-629.0,1966.0,0.0
863.0,-611.0,1991.0,0.0
864.0,-588.0,1997.0,0.0
12319.0,-8042.0,28553.0,1.0
850.0,-531.0,1977.0,0.0
12072.0,-7214.0,28138.0,1.0
11994.0,-6836.0,28032.0,1.0
865.0,-469.0,2029.0,0.0
869.0,-448.0,2043.0,0.0
11919.0,-5805.0,28079.0,1.0
11863.0,-5450.0,28020.0,1.0
862.0,-372.0,2042.0,0.0
854.0,-346.0,2029.0,0.0
11551.0,-4345.0,27488.0,1.0
11529.0,-4015.0,27502.0,1.0
866.0,-277.0,2071.0,0.0
862.0,-253.0,2066.0,0.0
836.0,-222.0,2010.0,0.0
11387.0,-2693.0,27420.0,1.0
856.0,-178.0,2068.0,0.0
846.0,-152.0,2047.0,0.0
866.0,-132.0,2100.0,0.0
12.0,-1.0,30.0,0.0
6.0,0.0,18.0,0.0
9.0,-1.0,24.0,0.0
12.0,0.0,30.0,0.0
14.0,0.0,35.0,0.0
11.0,0.0,29.0,0.0
16.0,0.0,42.0,0.0
16.0,1.0,41.0,0.0
17.0,1.0,44.0,0.0
15.0,1.0,39.0,0.0
24.0,3.0,63.0,0.0
23.0,4.0,60.0,0.0
21.0,4.0,54.0,0.0
27.0,6.0,71.0,0.0
29.0,7.0,75.0,0.0
26.0,8.0,68.0,0.0
29.0,9.0,75.0,0.0
31.0,11.0,79.0,0.0
35.0,14.0,88.0,0.0
35.0,15.0,91.0,0.0
32.0,15.0,83.0,0.0
32.0,16.0,83.0,0.0
29.0,15.0,76.0,0.0
36.0,20.0,92.0,0.0
37.0,21.0,96.0,0.0
35.0,22.0,91.0,0.0
37.0,25.0,98.0,0.0
39.0,27.0,100.0,0.0
33.0,23.0,87.0,0.0
36.0,27.0,93.0,0.0
40.0,32.0,105.0,0.0
37.0,29.0,96.0,0.0
37.0,31.0,97.0,0.0
40.0,35.0,106.0,0.0
35.0,33.0,92.0,0.0
36.0,35.0,95.0,0.0
39.0,38.0,101.0,0.0
38.0,39.0,99.0,0.0
37.0,39.0,98.0,0.0
38.0,42.0,100.0,0.0
30.0,34.0,79.0,0.0
32.0,37.0,84.0,0.0
31.0,38.0,83.0,0.0
35.0,44.0,93.0,0.0
29.0,38.0,77.0,0.0
29.0,39.0,79.0,0.0
26.0,36.0,69.0,0.0
29.0,42.0,79.0,0.0
29.0,42.0,76.0,0.0
31.0,47.0,83.0,0.0
31.0,48.0,83.0,0.0
29.0,46.0,77.0,0.0
31.0,52.0,84.0,0.0
31.0,52.0,84.0,0.0
32.0,55.0,87.0,0.0
31.0,55.0,85.0,0.0
33.0,60.0,88.0,0.0
33.0,62.0,91.0,0.0
36.0,69.0,97.0,0.0
33.0,66.0,92.0,0.0
35.0,69.0,93.0,0.0
34.0,69.0,91.0,0.0
37.0,76.0,98.0,0.0
37.0,80.0,101.0,0.0
37.0,81.0,100.0,0.0
41.0,90.0,109.0,0.0
39.0,91.0,108.0,0.0
39.0,92.0,106.0,0.0
40.0,96.0,108.0,0.0
42.0,103.0,114.0,0.0
41.0,104.0,112.0,0.0
42.0,107.0,112.0,0.0
44.0,114.0,119.0,0.0
44.0,118.0,120.0,0.0
43.0,119.0,118.0,0.0
45.0,126.0,122.0,0.0
45.0,128.0,122.0,0.0
44.0,130.0,120.0,0.0
44.0,134.0,121.0,0.0
46.0,141.0,125.0,0.0
46.0,144.0,125.0,0.0
58.0,-250.0,65.0,0.0
61.0,-260.0,70.0,0.0
60.0,-253.0,71.0,0.0
62.0,-254.0,74.0,0.0
64.0,-259.0,79.0,0.0
64.0,-256.0,82.0,0.0
65.0,-256.0,84.0,0.0
67.0,-257.0,87.0,0.0
66.0,-250.0,88.0,0.0
68.0,-257.0,93.0,0.0
71.0,-262.0,100.0,0.0
71.0,-256.0,100.0,0.0
73.0,-259.0,104.0,0.0
75.0,-261.0,109.0,0.0
75.0,-258.0,110.0,0.0
76.0,-257.0,113.0,0.0
75.0,-251.0,114.0,0.0
79.0,-259.0,121.0,0.0
79.0,-255.0,123.0,0.0
78.0,-250.0,124.0,0.0
80.0,-251.0,128.0,0.0
79.0,-247.0,129.0,0.0
82.0,-251.0,135.0,0.0
77.0,-232.0,127.0,0.0
81.0,-241.0,137.0,0.0
85.0,-247.0,144.0,0.0
84.0,-243.0,145.0,0.0
81.0,-227.0,138.0,0.0
80.0,-223.0,139.0,0.0
75.0,-206.0,132.0,0.0
74.0,-198.0,130.0,0.0
72.0,-192.0,130.0,0.0
69.0,-180.0,124.0,0.0
63.0,-162.0,115.0,0.0
60.0,-153.0,111.0,0.0
59.0,-148.0,109.0,0.0
53.0,-131.0,100.0,0.0
49.0,-119.0,92.0,0.0
53.0,-126.0,101.0,0.0
47.0,-111.0,90.0,0.0
41.0,-95.0,79.0,0.0
44.0,-99.0,85.0,0.0
36.0,-81.0,71.0,0.0
38.0,-86.0,77.0,0.0
8852.0,-18962.0,17318.0,0.0
8846.0,-18637.0,17414.0,0.0
8938.0,-18521.0,17704.0,0.0
9137.0,-18618.0,18208.0,0.0
9235.0,-18502.0,18512.0,0.0
9389.0,-18491.0,18928.0,0.0
9611.0,-18605.0,19486.0,0.0
9834.0,-18710.0,20051.0,0.0
786.0,-1470.0,1612.0,0.0
777.0,-1427.0,1601.0,0.0
791.0,-1429.0,1641.0,0.0
787.0,-1394.0,1639.0,0.0
783.0,-1361.0,1638.0,0.0
11838.0,-20210.0,24893.0,1.0
799.0,-1340.0,1691.0,0.0
804.0,-1322.0,1708.0,0.0
12180.0,-19641.0,25981.0,1.0
783.0,-1241.0,1681.0,0.0
808.0,-1253.0,1740.0,0.0
816.0,-1241.0,1766.0,0.0
803.0,-1197.0,1746.0,0.0
799.0,-1165.0,1743.0,0.0
810.0,-1157.0,1776.0,0.0
802.0,-1122.0,1766.0,0.0
817.0,-1117.0,1805.0,0.0
819.0,-1095.0,1816.0,0.0
12929.0,-16911.0,28765.0,1.0
841.0,-1075.0,1880.0,0.0
13080.0,-16333.0,29322.0,1.0
822.0,-1003.0,1851.0,0.0
797.0,-949.0,1803.0,0.0
828.0,-962.0,1879.0,0.0
13235.0,-14974.0,30103.0,1.0
13135.0,-14480.0,29983.0,1.0
825.0,-886.0,1891.0,0.0
839.0,-877.0,1931.0,0.0
12932.0,-13133.0,29819.0,1.0
822.0,-811.0,1903.0,0.0
825.0,-791.0,1917.0,0.0
820.0,-762.0,1911.0,0.0
12664.0,-11407.0,29579.0,1.0
832.0,-726.0,1951.0,0.0
821.0,-693.0,1931.0,0.0
12497.0,-10187.0,29457.0,1.0
831.0,-653.0,1965.0,0.0
824.0,-624.0,1956.0,0.0
829.0,-604.0,1971.0,0.0
12083.0,-8475.0,28815.0,1.0
831.0,-559.0,1990.0,0.0
833.0,-536.0,1998.0,0.0
11779.0,-7257.0,28324.0,1.0
834.0,-489.0,2012.0,0.0
840.0,-470.0,2034.0,0.0
833.0,-443.0,2021.0,0.0
813.0,-409.0,1978.0,0.0
837.0,-397.0,2040.0,0.0
11582.0,-5161.0,28290.0,1.0
830.0,-346.0,2032.0,0.0
11334.0,-4404.0,27822.0,1.0
829.0,-298.0,2041.0,0.0
11276.0,-3737.0,27814.0,1.0
833.0,-253.0,2063.0,0.0
829.0,-228.0,2057.0,0.0
832.0,-204.0,2070.0,0.0
825.0,-179.0,2056.0,0.0
826.0,-155.0,2063.0,0.0
3.0,-1.0,9.0,0.0
6.0,-1.0,16.0,0.0
6.0,-1.0,15.0,0.0
4.0,0.0,12.0,0.0
13.0,-1.0,34.0,0.0
7.0,0.0,20.0,0.0
12.0,0.0,31.0,0.0
12.0,0.0,33.0,0.0
13.0,1.0,36.0,0.0
10.0,0.0,29.0,0.0
16.0,1.0,43.0,0.0
20.0,3.0,54.0,0.0
22.0,4.0,58.0,0.0
21.0,4.0,55.0,0.0
20.0,4.0,53.0,0.0
21.0,6.0,54.0,0.0
22.0,6.0,57.0,0.0
24.0,8.0,63.0,0.0
23.0,8.0,62.0,0.0
16.0,6.0,42.0,0.0
22.0,10.0,60.0,0.0
24.0,11.0,64.0,0.0
25.0,12.0,67.0,0.0
22.0,12.0,60.0,0.0
27.0,16.0,74.0,0.0
31.0,18.0,85.0,0.0
30.0,19.0,81.0,0.0
24.0,16.0,64.0,0.0
31.0,23.0,85.0,0.0
28.0,21.0,76.0,0.0
31.0,24.0,83.0,0.0
25.0,21.0,69.0,0.0
33.0,27.0,88.0,0.0
29.0,26.0,80.0,0.0
31.0,28.0,84.0,0.0
29.0,28.0,79.0,0.0
38.0,36.0,101.0,0.0
32.0,32.0,87.0,0.0
32.0,34.0,88.0,0.0
28.0,31.0,77.0,0.0
28.0,32.0,77.0,0.0
30.0,35.0,83.0,0.0
27.0,33.0,75.0,0.0
24.0,30.0,66.0,0.0
26.0,35.0,74.0,0.0
23.0,31.0,65.0,0.0
20.0,28.0,56.0,0.0
25.0,36.0,70.0,0.0
25.0,36.0,69.0,0.0
23.0,34.0,64.0,0.0
26.0,40.0,72.0,0.0
27.0,43.0,75.0,0.0
27.0,43.0,75.0,0.0
28.0,47.0,77.0,0.0
27.0,48.0,77.0,0.0
28.0,50.0,78.0,0.0
27.0,50.0,77.0,0.0
28.0,52.0,80.0,0.0
30.0,57.0,83.0,0.0
30.0,59.0,85.0,0.0
32.0,64.0,90.0,0.0
31.0,63.0,87.0,0.0
32.0,68.0,89.0,0.0
32.0,70.0,92.0,0.0
34.0,74.0,95.0,0.0
34.0,77.0,95.0,0.0
35.0,82.0,99.0,0.0
34.0,81.0,97.0,0.0
36.0,89.0,104.0,0.0
37.0,92.0,105.0,0.0
38.0,96.0,107.0,0.0
38.0,100.0,110.0,0.0
39.0,105.0,111.0,0.0
39.0,105.0,110.0,0.0
39.0,109.0,111.0,0.0
41.0,116.0,116.0,0.0
39.0,116.0,113.0,0.0
40.0,120.0,114.0,0.0
40.0,123.0,114.0,0.0
40.0,127.0,115.0,0.0
42.0,134.0,119.0,0.0
42.0,138.0,120.0,0.0
58.0,-257.0,68.0,0.0
58.0,-252.0,69.0,0.0
59.0,-260.0,74.0,0.0
61.0,-258.0,77.0,0.0
63.0,-264.0,81.0,0.0
65.0,-267.0,86.0,0.0
63.0,-257.0,85.0,0.0
66.0,-263.0,90.0,0.0
65.0,-256.0,91.0,0.0
68.0,-263.0,96.0,0.0
69.0,-262.0,100.0,0.0
71.0,-269.0,106.0,0.0
71.0,-261.0,106.0,0.0
72.0,-260.0,110.0,0.0
73.0,-262.0,113.0,0.0
76.0,-267.0,119.0,0.0
75.0,-259.0,118.0,0.0
75.0,-255.0,121.0,0.0
77.0,-256.0,124.0,0.0
80.0,-263.0,131.0,0.0
79.0,-257.0,132.0,0.0
79.0,-253.0,133.0,0.0
82.0,-257.0,139.0,0.0
77.0,-239.0,133.0,0.0
81.0,-248.0,142.0,0.0
82.0,-246.0,144.0,0.0
83.0,-245.0,147.0,0.0
79.0,-231.0,142.0,0.0
72.0,-205.0,129.0,0.0
71.0,-203.0,131.0,0.0
67.0,-188.0,124.0,0.0
65.0,-178.0,120.0,0.0
66.0,-179.0,124.0,0.0
60.0,-160.0,114.0,0.0
58.0,-152.0,111.0,0.0
54.0,-139.0,104.0,0.0
48.0,-121.0,92.0,0.0
56.0,-141.0,110.0,0.0
49.0,-122.0,98.0,0.0
43.0,-105.0,86.0,0.0
43.0,-103.0,86.0,0.0
39.0,-92.0,78.0,0.0
35.0,-82.0,73.0,0.0
40.0,-90.0,81.0,0.0
8560.0,-18921.0,17353.0,0.0
8542.0,-18570.0,17423.0,0.0
8631.0,-18452.0,17711.0,0.0
8872.0,-18650.0,18313.0,0.0
8925.0,-18446.0,18529.0,0.0
9104.0,-18495.0,19006.0,0.0
9333.0,-18635.0,19594.0,0.0
9550.0,-18737.0,20156.0,0.0
742.0,-1430.0,1575.0,0.0
11117.0,-21053.0,23712.0,1.0
11212.0,-20854.0,24036.0,1.0
11272.0,-20588.0,24285.0,1.0
11355.0,-20361.0,24584.0,1.0
756.0,-1331.0,1646.0,0.0
761.0,-1316.0,1666.0,0.0
793.0,-1345.0,1743.0,0.0
768.0,-1277.0,1695.0,0.0
790.0,-1289.0,1752.0,0.0
783.0,-1252.0,1744.0,0.0
775.0,-1215.0,1734.0,0.0
12102.0,-18572.0,27164.0,1.0
779.0,-1172.0,1759.0,0.0
12249.0,-18029.0,27725.0,1.0
12350.0,-17793.0,28065.0,1.0
794.0,-1120.0,1814.0,0.0
811.0,-1118.0,1858.0,0.0
12586.0,-16965.0,28935.0,1.0
800.0,-1056.0,1850.0,0.0
813.0,-1046.0,1884.0,0.0
12796.0,-16079.0,29749.0,1.0
796.0,-975.0,1857.0,0.0
12897.0,-15426.0,30198.0,1.0
822.0,-958.0,1932.0,0.0
803.0,-912.0,1894.0,0.0
807.0,-893.0,1912.0,0.0
12691.0,-13661.0,30123.0,1.0
819.0,-858.0,1954.0,0.0
800.0,-814.0,1913.0,0.0
0.0,0.0,0.0,0.0
804.0,-771.0,1936.0,0.0
804.0,-746.0,1939.0,0.0
811.0,-729.0,1964.0,0.0
12280.0,-10680.0,29798.0,1.0
812.0,-683.0,1978.0,0.0
817.0,-662.0,1995.0,0.0
817.0,-639.0,2002.0,0.0
814.0,-613.0,2001.0,0.0
818.0,-591.0,2014.0,0.0
798.0,-553.0,1972.0,0.0
815.0,-541.0,2019.0,0.0
795.0,-505.0,1976.0,0.0
822.0,-499.0,2049.0,0.0
11555.0,-6672.0,28839.0,1.0
809.0,-445.0,2027.0,0.0
799.0,-416.0,2006.0,0.0
11448.0,-5608.0,28797.0,1.0
802.0,-369.0,2025.0,0.0
816.0,-353.0,2065.0,0.0
11120.0,-4469.0,28181.0,1.0
818.0,-305.0,2080.0,0.0
804.0,-277.0,2050.0,0.0
802.0,-252.0,2049.0,0.0
794.0,-226.0,2034.0,0.0
808.0,-206.0,2074.0,0.0
10805.0,-2428.0,27773.0,1.0
797.0,-156.0,2054.0,0.0
10740.0,-1774.0,27734.0,1.0
4.0,0.0,13.0,0.0
4.0,-1.0,14.0,0.0
8.0,-1.0,23.0,0.0
12.0,-1.0,34.0,0.0
10.0,0.0,26.0,0.0
10.0,0.0,27.0,0.0
8.0,0.0,23.0,0.0
14.0,0.0,37.0,0.0
7.0,0.0,19.0,0.0
15.0,1.0,42.0,0.0
21.0,3.0,58.0,0.0
17.0,3.0,47.0,0.0
16.0,3.0,43.0,0.0
18.0,5.0,51.0,0.0
18.0,5.0,50.0,0.0
17.0,5.0,49.0,0.0
28.0,9.0,77.0,0.0
23.0,8.0,62.0,0.0
23.0,9.0,62.0,0.0
23.0,11.0,65.0,0.0
24.0,12.0,69.0,0.0
30.0,15.0,82.0,0.0
23.0,12.0,63.0,0.0
24.0,14.0,68.0,0.0
27.0,17.0,74.0,0.0
27.0,18.0,76.0,0.0
30.0,21.0,84.0,0.0
27.0,19.0,75.0,0.0
32.0,24.0,90.0,0.0
31.0,24.0,86.0,0.0
30.0,25.0,86.0,0.0
32.0,28.0,89.0,0.0
34.0,32.0,96.0,0.0
32.0,30.0,92.0,0.0
32.0,31.0,89.0,0.0
32.0,32.0,89.0,0.0
32.0,34.0,93.0,0.0
32.0,35.0,90.0,0.0
32.0,36.0,90.0,0.0
33.0,39.0,93.0,0.0
32.0,39.0,93.0,0.0
27.0,34.0,77.0,0.0
28.0,36.0,79.0,0.0
28.0,37.0,80.0,0.0
25.0,34.0,71.0,0.0
27.0,38.0,78.0,0.0
24.0,35.0,70.0,0.0
25.0,38.0,72.0,0.0
24.0,37.0,68.0,0.0
23.0,38.0,67.0,0.0
24.0,39.0,69.0,0.0
24.0,41.0,69.0,0.0
25.0,44.0,73.0,0.0
27.0,49.0,80.0,0.0
27.0,50.0,78.0,0.0
29.0,55.0,84.0,0.0
28.0,54.0,81.0,0.0
29.0,57.0,84.0,0.0
29.0,60.0,86.0,0.0
31.0,64.0,89.0,0.0
31.0,66.0,91.0,0.0
30.0,66.0,88.0,0.0
31.0,70.0,92.0,0.0
31.0,71.0,90.0,0.0
33.0,77.0,97.0,0.0
33.0,80.0,98.0,0.0
36.0,89.0,107.0,0.0
33.0,85.0,99.0,0.0
35.0,92.0,105.0,0.0
35.0,93.0,104.0,0.0
37.0,100.0,109.0,0.0
37.0,105.0,112.0,0.0
37.0,105.0,110.0,0.0
39.0,111.0,114.0,0.0
39.0,115.0,115.0,0.0
38.0,116.0,113.0,0.0
38.0,120.0,114.0,0.0
40.0,127.0,119.0,0.0
40.0,129.0,119.0,0.0
39.0,129.0,116.0,0.0
40.0,136.0,119.0,0.0
54.0,-252.0,67.0,0.0
54.0,-249.0,69.0,0.0
58.0,-262.0,75.0,0.0
56.0,-248.0,74.0,0.0
58.0,-252.0,78.0,0.0
59.0,-252.0,81.0,0.0
62.0,-260.0,87.0,0.0
60.0,-249.0,87.0,0.0
61.0,-248.0,89.0,0.0
63.0,-254.0,94.0,0.0
64.0,-256.0,98.0,0.0
66.0,-258.0,102.0,0.0
68.0,-262.0,107.0,0.0
68.0,-256.0,107.0,0.0
69.0,-255.0,111.0,0.0
72.0,-260.0,116.0,0.0
71.0,-256.0,118.0,0.0
73.0,-256.0,121.0,0.0
74.0,-257.0,126.0,0.0
74.0,-252.0,127.0,0.0
74.0,-250.0,129.0,0.0
75.0,-249.0,131.0,0.0
72.0,-234.0,127.0,0.0
73.0,-236.0,132.0,0.0
77.0,-247.0,141.0,0.0
75.0,-234.0,138.0,0.0
74.0,-227.0,136.0,0.0
72.0,-220.0,136.0,0.0
68.0,-203.0,128.0,0.0
66.0,-196.0,126.0,0.0
64.0,-188.0,124.0,0.0
60.0,-171.0,117.0,0.0
57.0,-161.0,112.0,0.0
52.0,-144.0,104.0,0.0
49.0,-135.0,99.0,0.0
52.0,-138.0,104.0,0.0
46.0,-123.0,94.0,0.0
48.0,-124.0,98.0,0.0
40.0,-103.0,83.0,0.0
40.0,-101.0,84.0,0.0
35.0,-87.0,73.0,0.0
37.0,-92.0,79.0,0.0
39.0,-94.0,82.0,0.0
34.0,-80.0,73.0,0.0
8261.0,-18862.0,17370.0,0.0
8245.0,-18512.0,17439.0,0.0
8358.0,-18452.0,17781.0,0.0
8656.0,-18791.0,18523.0,0.0
8629.0,-18411.0,18566.0,0.0
8837.0,-18533.0,19119.0,0.0
9054.0,-18662.0,19695.0,0.0
9246.0,-18726.0,20219.0,0.0
723.0,-1440.0,1592.0,0.0
734.0,-1434.0,1621.0,0.0
10819.0,-20769.0,24022.0,1.0
10917.0,-20579.0,24359.0,1.0
734.0,-1361.0,1649.0,0.0
11099.0,-20159.0,25000.0,1.0
734.0,-1310.0,1664.0,0.0
742.0,-1299.0,1688.0,0.0
733.0,-1258.0,1674.0,0.0
11431.0,-19224.0,26214.0,1.0
765.0,-1262.0,1765.0,0.0
753.0,-1218.0,1744.0,0.0
11700.0,-18521.0,27172.0,1.0
752.0,-1167.0,1756.0,0.0
11909.0,-18082.0,27885.0,1.0
758.0,-1126.0,1782.0,0.0
771.0,-1123.0,1823.0,0.0
744.0,-1060.0,1766.0,0.0
767.0,-1067.0,1825.0,0.0
12243.0,-16637.0,29219.0,1.0
772.0,-1025.0,1851.0,0.0
12371.0,-16033.0,29737.0,1.0
783.0,-991.0,1891.0,0.0
755.0,-933.0,1831.0,0.0
772.0,-928.0,1875.0,0.0
769.0,-902.0,1876.0,0.0
774.0,-883.0,1893.0,0.0
12362.0,-13728.0,30332.0,1.0
12302.0,-13283.0,30282.0,1.0
794.0,-833.0,1963.0,0.0
792.0,-806.0,1963.0,0.0
781.0,-772.0,1941.0,0.0
776.0,-743.0,1936.0,0.0
777.0,-720.0,1945.0,0.0
791.0,-710.0,1985.0,0.0
11751.0,-10191.0,29553.0,1.0
784.0,-656.0,1979.0,0.0
795.0,-641.0,2012.0,0.0
778.0,-605.0,1977.0,0.0
790.0,-590.0,2013.0,0.0
772.0,-553.0,1971.0,0.0
765.0,-525.0,1959.0,0.0
782.0,-513.0,2007.0,0.0
773.0,-484.0,1991.0,0.0
785.0,-468.0,2025.0,0.0
778.0,-442.0,2014.0,0.0
794.0,-426.0,2061.0,0.0
11194.0,-5667.0,29087.0,1.0
794.0,-379.0,2071.0,0.0
781.0,-348.0,2040.0,0.0
790.0,-329.0,2070.0,0.0
789.0,-304.0,2072.0,0.0
798.0,-284.0,2101.0,0.0
778.0,-253.0,2053.0,0.0
784.0,-231.0,2076.0,0.0
773.0,-204.0,2051.0,0.0
783.0,-183.0,2082.0,0.0
771.0,-157.0,2054.0,0.0
775.0,-134.0,2071.0,0.0
0.0,0.0,1.0,0.0
0.0,0.0,0.0,0.0
5.0,-1.0,15.0,0.0
5.0,0.0,16.0,0.0
8.0,0.0,25.0,0.0
11.0,0.0,31.0,0.0
9.0,0.0,28.0,0.0
10.0,0.0,29.0,0.0
11.0,0.0,33.0,0.0
11.0,0.0,33.0,0.0
18.0,3.0,49.0,0.0
13.0,2.0,38.0,0.0
14.0,3.0,41.0,0.0
15.0,3.0,44.0,0.0
12.0,3.0,35.0,0.0
21.0,6.0,59.0,0.0
21.0,7.0,59.0,0.0
19.0,7.0,57.0,0.0
23.0,10.0,67.0,0.0
25.0,11.0,71.0,0.0
26.0,13.0,74.0,0.0
23.0,12.0,67.0,0.0
22.0,12.0,64.0,0.0
25.0,15.0,72.0,0.0
26.0,16.0,76.0,0.0
25.0,17.0,74.0,0.0
25.0,18.0,73.0,0.0
25.0,18.0,72.0,0.0
24.0,18.0,68.0,0.0
25.0,20.0,72.0,0.0
30.0,25.0,87.0,0.0
24.0,22.0,72.0,0.0
31.0,29.0,92.0,0.0
27.0,25.0,77.0,0.0
30.0,30.0,87.0,0.0
27.0,27.0,78.0,0.0
27.0,29.0,79.0,0.0
28.0,32.0,84.0,0.0
25.0,30.0,76.0,0.0
25.0,31.0,75.0,0.0
27.0,34.0,80.0,0.0
24.0,32.0,72.0,0.0
23.0,30.0,68.0,0.0
24.0,34.0,71.0,0.0
21.0,30.0,63.0,0.0
19.0,29.0,58.0,0.0
20.0,29.0,59.0,0.0
23.0,36.0,70.0,0.0
20.0,32.0,60.0,0.0
21.0,34.0,64.0,0.0
20.0,35.0,62.0,0.0
23.0,42.0,72.0,0.0
25.0,45.0,74.0,0.0
23.0,42.0,69.0,0.0
25.0,48.0,77.0,0.0
25.0,49.0,76.0,0.0
24.0,48.0,72.0,0.0
25.0,51.0,76.0,0.0
26.0,55.0,80.0,0.0
27.0,58.0,82.0,0.0
27.0,61.0,84.0,0.0
28.0,64.0,87.0,0.0
29.0,68.0,89.0,0.0
29.0,69.0,88.0,0.0
30.0,72.0,91.0,0.0
30.0,74.0,92.0,0.0
30.0,79.0,94.0,0.0
32.0,86.0,101.0,0.0
32.0,86.0,99.0,0.0
34.0,93.0,105.0,0.0
34.0,95.0,104.0,0.0
34.0,99.0,106.0,0.0
33.0,98.0,103.0,0.0
36.0,106.0,110.0,0.0
36.0,113.0,114.0,0.0
36.0,113.0,111.0,0.0
36.0,116.0,112.0,0.0
36.0,120.0,113.0,0.0
35.0,119.0,111.0,0.0
37.0,127.0,114.0,0.0
36.0,126.0,112.0,0.0
53.0,-259.0,70.0,0.0
53.0,-256.0,71.0,0.0
55.0,-259.0,75.0,0.0
55.0,-254.0,76.0,0.0
59.0,-268.0,85.0,0.0
58.0,-260.0,85.0,0.0
61.0,-267.0,90.0,0.0
60.0,-262.0,91.0,0.0
60.0,-253.0,92.0,0.0
63.0,-264.0,99.0,0.0
64.0,-265.0,102.0,0.0
65.0,-264.0,105.0,0.0
67.0,-268.0,110.0,0.0
68.0,-265.0,113.0,0.0
68.0,-264.0,115.0,0.0
70.0,-267.0,120.0,0.0
70.0,-264.0,123.0,0.0
70.0,-259.0,124.0,0.0
72.0,-261.0,129.0,0.0
74.0,-262.0,132.0,0.0
73.0,-256.0,133.0,0.0
73.0,-251.0,134.0,0.0
76.0,-260.0,142.0,0.0
74.0,-248.0,139.0,0.0
76.0,-247.0,142.0,0.0
73.0,-234.0,138.0,0.0
71.0,-227.0,137.0,0.0
68.0,-214.0,133.0,0.0
64.0,-196.0,124.0,0.0
62.0,-191.0,124.0,0.0
65.0,-193.0,129.0,0.0
58.0,-170.0,116.0,0.0
60.0,-173.0,122.0,0.0
49.0,-141.0,101.0,0.0
50.0,-140.0,103.0,0.0
47.0,-131.0,99.0,0.0
54.0,-147.0,113.0,0.0
44.0,-119.0,94.0,0.0
40.0,-108.0,87.0,0.0
36.0,-92.0,77.0,0.0
43.0,-109.0,92.0,0.0
40.0,-100.0,86.0,0.0
36.0,-90.0,80.0,0.0
7963.0,-19116.0,17278.0,0.0
7957.0,-18784.0,17368.0,0.0
33.0,-77.0,73.0,0.0
8122.0,-18536.0,17932.0,0.0
8367.0,-18773.0,18577.0,0.0
8359.0,-18438.0,18662.0,0.0
8564.0,-18565.0,19223.0,0.0
8750.0,-18638.0,19742.0,0.0
8967.0,-18768.0,20336.0,0.0
701.0,-1443.0,1599.0,0.0
10378.0,-20959.0,23772.0,1.0
10474.0,-20772.0,24108.0,1.0
10532.0,-20508.0,24357.0,1.0
718.0,-1375.0,1671.0,0.0
10728.0,-20126.0,25039.0,1.0
10814.0,-19909.0,25357.0,1.0
730.0,-1318.0,1720.0,0.0
734.0,-1303.0,1740.0,0.0
739.0,-1284.0,1758.0,0.0
738.0,-1258.0,1763.0,0.0
11272.0,-18807.0,27000.0,1.0
11299.0,-18472.0,27177.0,1.0
714.0,-1145.0,1727.0,0.0
751.0,-1179.0,1824.0,0.0
733.0,-1126.0,1787.0,0.0
733.0,-1100.0,1792.0,0.0
750.0,-1101.0,1840.0,0.0
744.0,-1070.0,1834.0,0.0
733.0,-1029.0,1813.0,0.0
11913.0,-16325.0,29530.0,1.0
11987.0,-16040.0,29821.0,1.0
744.0,-972.0,1859.0,0.0
0.0,0.0,0.0,0.0
753.0,-935.0,1894.0,0.0
12168.0,-14723.0,30685.0,1.0
751.0,-885.0,1900.0,0.0
742.0,-851.0,1887.0,0.0
773.0,-861.0,1968.0,0.0
756.0,-819.0,1933.0,0.0
757.0,-797.0,1942.0,0.0
755.0,-770.0,1940.0,0.0
752.0,-744.0,1941.0,0.0
762.0,-730.0,1973.0,0.0
11516.0,-10673.0,29866.0,1.0
11370.0,-10183.0,29571.0,1.0
11236.0,-9714.0,29308.0,1.0
11263.0,-9388.0,29463.0,1.0
768.0,-617.0,2019.0,0.0
737.0,-568.0,1941.0,0.0
769.0,-569.0,2031.0,0.0
772.0,-548.0,2043.0,0.0
767.0,-520.0,2036.0,0.0
763.0,-493.0,2029.0,0.0
777.0,-479.0,2075.0,0.0
11024.0,-6457.0,29467.0,1.0
777.0,-432.0,2085.0,0.0
764.0,-401.0,2055.0,0.0
752.0,-371.0,2027.0,0.0
10725.0,-4951.0,28962.0,1.0
10652.0,-4586.0,28835.0,1.0
766.0,-306.0,2079.0,0.0
766.0,-282.0,2084.0,0.0
758.0,-256.0,2067.0,0.0
769.0,-235.0,2102.0,0.0
769.0,-211.0,2108.0,0.0
10341.0,-2511.0,28396.0,1.0
10268.0,-2169.0,28261.0,1.0
752.0,-135.0,2076.0,0.0
4.0,-1.0,14.0,0.0
5.0,0.0,17.0,0.0
5.0,0.0,18.0,0.0
5.0,0.0,18.0,0.0
6.0,0.0,19.0,0.0
13.0,0.0,39.0,0.0
12.0,0.0,33.0,0.0
9.0,0.0,29.0,0.0
9.0,0.0,27.0,0.0
12.0,1.0,36.0,0.0
18.0,3.0,54.0,0.0
15.0,2.0,43.0,0.0
19.0,4.0,57.0,0.0
19.0,4.0,57.0,0.0
16.0,4.0,48.0,0.0
21.0,6.0,62.0,0.0
20.0,7.0,61.0,0.0
17.0,6.0,51.0,0.0
27.0,12.0,78.0,0.0
19.0,8.0,56.0,0.0
27.0,14.0,79.0,0.0
24.0,13.0,73.0,0.0
20.0,11.0,59.0,0.0
27.0,16.0,78.0,0.0
24.0,16.0,71.0,0.0
25.0,17.0,76.0,0.0
28.0,20.0,83.0,0.0
28.0,22.0,87.0,0.0
30.0,24.0,88.0,0.0
27.0,23.0,82.0,0.0
27.0,24.0,83.0,0.0
31.0,29.0,96.0,0.0
31.0,30.0,96.0,0.0
31.0,32.0,95.0,0.0
26.0,26.0,77.0,0.0
30.0,33.0,91.0,0.0
27.0,30.0,81.0,0.0
30.0,34.0,90.0,0.0
29.0,34.0,86.0,0.0
25.0,32.0,77.0,0.0
23.0,30.0,71.0,0.0
26.0,35.0,80.0,0.0
28.0,39.0,86.0,0.0
25.0,35.0,76.0,0.0
25.0,36.0,76.0,0.0
25.0,38.0,77.0,0.0
23.0,36.0,72.0,0.0
21.0,34.0,66.0,0.0
25.0,42.0,78.0,0.0
21.0,34.0,64.0,0.0
22.0,39.0,69.0,0.0
22.0,41.0,71.0,0.0
22.0,43.0,72.0,0.0
24.0,45.0,74.0,0.0
24.0,48.0,77.0,0.0
24.0,49.0,77.0,0.0
25.0,52.0,80.0,0.0
26.0,55.0,82.0,0.0
27.0,59.0,86.0,0.0
27.0,62.0,87.0,0.0
26.0,58.0,81.0,0.0
29.0,67.0,91.0,0.0
29.0,68.0,90.0,0.0
27.0,69.0,89.0,0.0
29.0,72.0,91.0,0.0
29.0,75.0,93.0,0.0
30.0,80.0,96.0,0.0
32.0,86.0,102.0,0.0
31.0,87.0,100.0,0.0
32.0,90.0,102.0,0.0
34.0,98.0,108.0,0.0
32.0,95.0,103.0,0.0
34.0,102.0,108.0,0.0
36.0,110.0,114.0,0.0
36.0,113.0,114.0,0.0
35.0,114.0,113.0,0.0
35.0,116.0,112.0,0.0
35.0,119.0,113.0,0.0
35.0,124.0,115.0,0.0
35.0,126.0,115.0,0.0
35.0,130.0,116.0,0.0
49.0,-250.0,67.0,0.0
50.0,-250.0,70.0,0.0
51.0,-252.0,74.0,0.0
52.0,-252.0,76.0,0.0
54.0,-257.0,81.0,0.0
55.0,-258.0,85.0,0.0
55.0,-252.0,85.0,0.0
56.0,-254.0,90.0,0.0
56.0,-249.0,91.0,0.0
59.0,-259.0,97.0,0.0
60.0,-254.0,99.0,0.0
60.0,-253.0,102.0,0.0
61.0,-256.0,106.0,0.0
62.0,-253.0,109.0,0.0
65.0,-258.0,114.0,0.0
64.0,-254.0,115.0,0.0
64.0,-251.0,117.0,0.0
66.0,-250.0,120.0,0.0
67.0,-250.0,124.0,0.0
68.0,-254.0,129.0,0.0
69.0,-252.0,131.0,0.0
66.0,-237.0,127.0,0.0
68.0,-240.0,132.0,0.0
67.0,-235.0,132.0,0.0
70.0,-240.0,139.0,0.0
67.0,-224.0,133.0,0.0
64.0,-210.0,128.0,0.0
60.0,-195.0,122.0,0.0
61.0,-196.0,126.0,0.0
57.0,-180.0,119.0,0.0
53.0,-166.0,111.0,0.0
50.0,-154.0,106.0,0.0
47.0,-144.0,102.0,0.0
52.0,-156.0,113.0,0.0
54.0,-157.0,116.0,0.0
43.0,-124.0,94.0,0.0
41.0,-116.0,90.0,0.0
39.0,-109.0,86.0,0.0
44.0,-119.0,98.0,0.0
33.0,-90.0,74.0,0.0
34.0,-92.0,78.0,0.0
34.0,-88.0,78.0,0.0
30.0,-80.0,71.0,0.0
29.0,-75.0,68.0,0.0
7662.0,-18725.0,17380.0,0.0
28.0,-68.0,64.0,0.0
7861.0,-18569.0,18031.0,0.0
8042.0,-18672.0,18546.0,0.0
8076.0,-18432.0,18725.0,0.0
8278.0,-18567.0,19293.0,0.0
8462.0,-18650.0,19823.0,0.0
8658.0,-18745.0,20382.0,0.0
9996.0,-21259.0,23647.0,1.0
685.0,-1434.0,1631.0,0.0
10116.0,-20749.0,24161.0,1.0
10182.0,-20504.0,24431.0,1.0
684.0,-1354.0,1652.0,0.0
10363.0,-20103.0,25091.0,1.0
694.0,-1321.0,1688.0,0.0
706.0,-1318.0,1725.0,0.0
10621.0,-19450.0,26051.0,1.0
10704.0,-19218.0,26362.0,1.0
10824.0,-19050.0,26769.0,1.0
10844.0,-18702.0,26925.0,1.0
10911.0,-18436.0,27201.0,1.0
10988.0,-18182.0,27498.0,1.0
705.0,-1144.0,1774.0,0.0
712.0,-1129.0,1796.0,0.0
11236.0,-17432.0,28439.0,1.0
715.0,-1086.0,1818.0,0.0
11378.0,-16880.0,29011.0,1.0
11462.0,-16618.0,29329.0,1.0
11532.0,-16332.0,29613.0,1.0
11589.0,-16025.0,29861.0,1.0
0.0,0.0,0.0,0.0
722.0,-950.0,1873.0,0.0
716.0,-919.0,1867.0,0.0
730.0,-913.0,1910.0,0.0
731.0,-891.0,1919.0,0.0
11687.0,-13845.0,30713.0,1.0
11642.0,-13412.0,30690.0,1.0
734.0,-823.0,1945.0,0.0
724.0,-787.0,1921.0,0.0
11417.0,-12042.0,30375.0,1.0
735.0,-751.0,1963.0,0.0
719.0,-712.0,1927.0,0.0
11074.0,-10610.0,29729.0,1.0
11050.0,-10231.0,29748.0,1.0
0.0,0.0,0.0,0.0
741.0,-638.0,2007.0,0.0
744.0,-617.0,2022.0,0.0
729.0,-581.0,1988.0,0.0
10861.0,-8317.0,29650.0,1.0
10841.0,-7955.0,29673.0,1.0
733.0,-515.0,2015.0,0.0
739.0,-495.0,2037.0,0.0
741.0,-472.0,2045.0,0.0
732.0,-445.0,2027.0,0.0
726.0,-418.0,2017.0,0.0
725.0,-394.0,2018.0,0.0
733.0,-374.0,2046.0,0.0
728.0,-348.0,2036.0,0.0
10431.0,-4655.0,29223.0,1.0
734.0,-304.0,2063.0,0.0
740.0,-282.0,2085.0,0.0
737.0,-258.0,2083.0,0.0
719.0,-229.0,2037.0,0.0
730.0,-208.0,2069.0,0.0
739.0,-187.0,2101.0,0.0
726.0,-160.0,2069.0,0.0
0.0,0.0,0.0,0.0
720.0,-112.0,2063.0,0.0
0.0,0.0,0.0,0.0
2.0,0.0,8.0,0.0
5.0,0.0,18.0,0.0
7.0,0.0,24.0,0.0
3.0,0.0,11.0,0.0
1.0,0.0,5.0,0.0
10.0,0.0,30.0,0.0
9.0,0.0,27.0,0.0
8.0,1.0,26.0,0.0
6.0,1.0,22.0,0.0
8.0,1.0,24.0,0.0
8.0,1.0,24.0,0.0
17.0,4.0,50.0,0.0
14.0,4.0,45.0,0.0
20.0,6.0,61.0,0.0
22.0,8.0,66.0,0.0
14.0,6.0,46.0,0.0
18.0,7.0,57.0,0.0
14.0,7.0,45.0,0.0
17.0,8.0,52.0,0.0
23.0,12.0,71.0,0.0
18.0,11.0,58.0,0.0
26.0,16.0,81.0,0.0
21.0,14.0,64.0,0.0
25.0,17.0,76.0,0.0
21.0,16.0,65.0,0.0
26.0,20.0,79.0,0.0
22.0,19.0,70.0,0.0
25.0,21.0,77.0,0.0
22.0,20.0,70.0,0.0
25.0,23.0,76.0,0.0
25.0,25.0,80.0,0.0
22.0,23.0,71.0,0.0
28.0,30.0,88.0,0.0
25.0,27.0,78.0,0.0
25.0,29.0,79.0,0.0
26.0,32.0,85.0,0.0
20.0,26.0,65.0,0.0
21.0,27.0,68.0,0.0
24.0,32.0,77.0,0.0
22.0,31.0,72.0,0.0
21.0,30.0,68.0,0.0
21.0,31.0,68.0,0.0
19.0,29.0,60.0,0.0
19.0,30.0,61.0,0.0
18.0,30.0,61.0,0.0
22.0,37.0,72.0,0.0
21.0,36.0,69.0,0.0
19.0,34.0,62.0,0.0
17.0,33.0,58.0,0.0
19.0,34.0,60.0,0.0
20.0,39.0,66.0,0.0
19.0,39.0,63.0,0.0
20.0,43.0,69.0,0.0
19.0,41.0,65.0,0.0
22.0,47.0,72.0,0.0
23.0,51.0,77.0,0.0
25.0,56.0,82.0,0.0
24.0,56.0,81.0,0.0
22.0,53.0,74.0,0.0
26.0,63.0,86.0,0.0
25.0,64.0,84.0,0.0
25.0,66.0,85.0,0.0
28.0,74.0,94.0,0.0
28.0,74.0,91.0,0.0
28.0,77.0,94.0,0.0
28.0,81.0,95.0,0.0
28.0,81.0,94.0,0.0
28.0,85.0,96.0,0.0
29.0,88.0,98.0,0.0
30.0,93.0,101.0,0.0
30.0,97.0,103.0,0.0
30.0,99.0,103.0,0.0
32.0,106.0,109.0,0.0
32.0,107.0,107.0,0.0
32.0,111.0,107.0,0.0
32.0,113.0,108.0,0.0
33.0,120.0,112.0,0.0
32.0,120.0,111.0,0.0
33.0,127.0,114.0,0.0
50.0,-268.0,73.0,0.0
51.0,-268.0,76.0,0.0
53.0,-272.0,80.0,0.0
53.0,-271.0,84.0,0.0
56.0,-280.0,89.0,0.0
55.0,-273.0,90.0,0.0
57.0,-275.0,94.0,0.0
58.0,-272.0,97.0,0.0
59.0,-277.0,102.0,0.0
59.0,-271.0,103.0,0.0
60.0,-270.0,105.0,0.0
63.0,-276.0,112.0,0.0
65.0,-280.0,117.0,0.0
65.0,-277.0,119.0,0.0
66.0,-279.0,124.0,0.0
67.0,-276.0,126.0,0.0
67.0,-274.0,128.0,0.0
69.0,-275.0,134.0,0.0
69.0,-273.0,136.0,0.0
70.0,-271.0,139.0,0.0
70.0,-266.0,140.0,0.0
66.0,-246.0,132.0,0.0
67.0,-247.0,137.0,0.0
71.0,-256.0,145.0,0.0
71.0,-252.0,147.0,0.0
72.0,-254.0,152.0,0.0
68.0,-234.0,143.0,0.0
65.0,-222.0,140.0,0.0
64.0,-216.0,138.0,0.0
60.0,-195.0,128.0,0.0
60.0,-193.0,130.0,0.0
60.0,-190.0,132.0,0.0
55.0,-172.0,121.0,0.0
52.0,-160.0,116.0,0.0
52.0,-155.0,115.0,0.0
48.0,-144.0,109.0,0.0
49.0,-144.0,112.0,0.0
41.0,-120.0,96.0,0.0
40.0,-113.0,93.0,0.0
42.0,-120.0,100.0,0.0
41.0,-111.0,95.0,0.0
36.0,-96.0,84.0,0.0
36.0,-97.0,87.0,0.0
7387.0,-19029.0,17334.0,0.0
7378.0,-18689.0,17412.0,0.0
7415.0,-18464.0,17594.0,0.0
7589.0,-18574.0,18102.0,0.0
7731.0,-18597.0,18537.0,0.0
7812.0,-18470.0,18831.0,0.0
7994.0,-18572.0,19366.0,0.0
8180.0,-18671.0,19914.0,0.0
8333.0,-18685.0,20385.0,0.0
683.0,-1506.0,1681.0,0.0
9685.0,-20948.0,23918.0,1.0
9758.0,-20725.0,24210.0,1.0
9858.0,-20553.0,24567.0,1.0
9909.0,-20276.0,24802.0,1.0
10010.0,-20100.0,25164.0,1.0
10105.0,-19909.0,25512.0,1.0
670.0,-1297.0,1702.0,0.0
698.0,-1323.0,1778.0,0.0
695.0,-1291.0,1777.0,0.0
0.0,0.0,0.0,0.0
693.0,-1236.0,1786.0,0.0
10526.0,-18402.0,27225.0,1.0
10563.0,-18085.0,27424.0,1.0
693.0,-1161.0,1806.0,0.0
10743.0,-17626.0,28102.0,1.0
697.0,-1120.0,1833.0,0.0
702.0,-1102.0,1852.0,0.0
716.0,-1100.0,1896.0,0.0
712.0,-1070.0,1893.0,0.0
0.0,0.0,0.0,0.0
709.0,-1015.0,1898.0,0.0
699.0,-977.0,1876.0,0.0
11343.0,-15444.0,30503.0,1.0
715.0,-950.0,1932.0,0.0
11484.0,-14852.0,31083.0,1.0
11437.0,-14404.0,31055.0,1.0
11360.0,-13921.0,30940.0,1.0
710.0,-846.0,1941.0,0.0
11227.0,-13003.0,30768.0,1.0
11175.0,-12567.0,30717.0,1.0
718.0,-784.0,1984.0,0.0
710.0,-751.0,1965.0,0.0
723.0,-740.0,2007.0,0.0
712.0,-706.0,1983.0,0.0
711.0,-681.0,1986.0,0.0
719.0,-665.0,2013.0,0.0
10778.0,-9613.0,30232.0,1.0
724.0,-622.0,2040.0,0.0
735.0,-607.0,2076.0,0.0
727.0,-576.0,2058.0,0.0
719.0,-546.0,2039.0,0.0
10546.0,-7666.0,29986.0,1.0
714.0,-495.0,2037.0,0.0
706.0,-467.0,2022.0,0.0
722.0,-454.0,2071.0,0.0
10430.0,-6205.0,29961.0,1.0
716.0,-403.0,2065.0,0.0
710.0,-377.0,2052.0,0.0
712.0,-354.0,2064.0,0.0
728.0,-337.0,2113.0,0.0
719.0,-309.0,2094.0,0.0
719.0,-285.0,2097.0,0.0
710.0,-258.0,2077.0,0.0
716.0,-237.0,2101.0,0.0
9815.0,-2911.0,28828.0,1.0
9774.0,-2571.0,28773.0,1.0
704.0,-162.0,2080.0,0.0
9596.0,-1879.0,28383.0,1.0
715.0,-116.0,2122.0,0.0
5.0,-1.0,16.0,0.0
8.0,-1.0,28.0,0.0
8.0,-1.0,29.0,0.0
13.0,-1.0,41.0,0.0
11.0,0.0,33.0,0.0
12.0,0.0,37.0,0.0
12.0,1.0,41.0,0.0
11.0,0.0,37.0,0.0
16.0,1.0,52.0,0.0
14.0,2.0,44.0,0.0
18.0,3.0,57.0,0.0
15.0,3.0,48.0,0.0
21.0,5.0,65.0,0.0
21.0,6.0,67.0,0.0
26.0,9.0,82.0,0.0
24.0,9.0,73.0,0.0
25.0,11.0,79.0,0.0
22.0,10.0,70.0,0.0
26.0,13.0,85.0,0.0
22.0,12.0,73.0,0.0
24.0,14.0,77.0,0.0
25.0,15.0,81.0,0.0
30.0,19.0,95.0,0.0
24.0,16.0,76.0,0.0
30.0,21.0,95.0,0.0
30.0,24.0,98.0,0.0
26.0,22.0,87.0,0.0
30.0,26.0,97.0,0.0
30.0,26.0,96.0,0.0
29.0,28.0,95.0,0.0
28.0,28.0,92.0,0.0
31.0,32.0,101.0,0.0
34.0,36.0,111.0,0.0
26.0,29.0,87.0,0.0
30.0,35.0,101.0,0.0
25.0,30.0,83.0,0.0
27.0,33.0,88.0,0.0
29.0,38.0,95.0,0.0
29.0,39.0,96.0,0.0
27.0,37.0,89.0,0.0
25.0,36.0,84.0,0.0
25.0,37.0,85.0,0.0
24.0,37.0,82.0,0.0
24.0,38.0,81.0,0.0
23.0,38.0,77.0,0.0
24.0,41.0,81.0,0.0
24.0,43.0,83.0,0.0
26.0,47.0,87.0,0.0
19.0,37.0,68.0,0.0
23.0,44.0,79.0,0.0
22.0,42.0,74.0,0.0
23.0,47.0,81.0,0.0
25.0,51.0,85.0,0.0
21.0,46.0,74.0,0.0
24.0,52.0,83.0,0.0
22.0,50.0,77.0,0.0
25.0,56.0,85.0,0.0
24.0,56.0,83.0,0.0
26.0,62.0,89.0,0.0
26.0,66.0,93.0,0.0
26.0,66.0,91.0,0.0
26.0,69.0,92.0,0.0
26.0,70.0,92.0,0.0
28.0,77.0,99.0,0.0
29.0,81.0,101.0,0.0
