//X,Y,Z,Classification
-9066,-20653,15358,0.0
-9095,-21035,15276,0.0
-9108,-21386,15166,0.0
-9137,-21778,15077,0.0
-9102,-22020,14881,0.0
-779,-1915,1263,0.0
-759,-1893,1219,0.0
-766,-1941,1218,0.0
-763,-1961,1201,0.0
-774,-2019,1205,0.0
-750,-1984,1154,0.0
-745,-2000,1135,0.0
-766,-2086,1152,0.0
-750,-2075,1116,0.0
-740,-2075,1086,0.0
-734,-2088,1064,0.0
-727,-2097,1039,0.0
-60,-178,85,0.0
-60,-181,85,0.0
-63,-193,87,0.0
-67,-207,91,0.0
-67,-208,89,0.0
-79,-250,104,0.0
-81,-261,105,0.0
-85,-276,107,0.0
-94,-309,116,0.0
-98,-328,120,0.0
-97,-331,117,0.0
-96,-334,113,0.0
-94,-330,108,0.0
-95,-335,106,0.0
-92,-332,101,0.0
-92,-334,98,0.0
-91,-339,95,0.0
-89,-334,90,0.0
-88,-337,86,0.0
-87,-340,83,0.0
-6051,17742,15521,0.0
-6071,17431,15583,0.0
-6100,17152,15669,0.0
-6095,16782,15666,0.0
-5815,15673,14951,0.0
-6044,15948,15546,0.0
-6099,15755,15695,0.0
-6929,17518,17835,0.0
-6924,17132,17826,0.0
-6919,16756,17820,0.0
-6922,16401,17829,0.0
-12414,28782,31982,0.0
-12447,28230,32068,0.0
-6826,15144,17588,0.0
-6914,15001,17815,0.0
-7103,15070,18302,0.0
-7223,14983,18611,0.0
-7261,14723,18707,0.0
-12112,23999,31197,0.0
-12296,23808,31668,0.0
-11873,22457,30573,0.0
-11824,21841,30436,0.0
-11833,21341,30450,0.0
-11701,20602,30103,0.0
-11815,20302,30386,0.0
-12063,20221,31012,0.0
-11948,19534,30703,0.0
-12118,19317,31126,0.0
0,0,0,0.0
0,0,0,0.0
0,0,0,0.0
-13106,18810,33593,0.0
0,0,0,0.0
-13037,17708,33373,0.0
-13009,17178,33279,0.0
-13041,16733,33338,0.0
-12973,16164,33139,0.0
-12954,15667,33067,0.0
-12917,15154,32949,0.0
-12851,14614,32752,0.0
0,0,0,0.0
-12788,13636,32536,0.0
-12726,13124,32347,0.0
-12779,12736,32452,0.0
-12748,12267,32342,0.0
-8588,7972,21770,0.0
-8575,7670,21713,0.0
-8560,7371,21654,0.0
-8540,7069,21580,0.0
-8523,6774,21514,0.0
-8499,6477,21427,0.0
-8493,6196,21389,0.0
-8484,5917,21341,0.0
-8463,5631,21262,0.0
-8457,5357,21219,0.0
-8432,5075,21130,0.0
-8411,4800,21053,0.0
-8403,4533,21004,0.0
-8388,4265,20938,0.0
-8382,4004,20894,0.0
-8361,3738,20814,0.0
-8348,3479,20751,0.0
-8337,3222,20694,0.0
-8319,2963,20615,0.0
-8318,2715,20583,0.0
-8302,2462,20510,0.0
-8298,2215,20470,0.0
-8285,1968,20405,0.0
-8269,1720,20331,0.0
-8261,1478,20279,0.0
-8244,1235,20201,0.0
-8247,996,20174,0.0
-8237,757,20115,0.0
-8236,520,20076,0.0
-8600,297,20924,0.0
-8833,53,21450,0.0
-9309,-208,22567,0.0
0,0,0,0.0
0,0,0,0.0
-17050,-1828,41085,0.0
-16980,-2298,40834,0.0
-16997,-2777,40790,0.0
0,0,0,0.0
-17007,-3729,40645,0.0
0,0,0,0.0
-16962,-4663,40359,0.0
0,0,0,0.0
0,0,0,0.0
0,0,0,0.0
-16984,-6550,40044,0.0
0,0,0,0.0
-16938,-7466,39746,0.0
0,0,0,0.0
0,0,0,0.0
0,0,0,0.0
0,0,0,0.0
-16955,-9805,39282,0.0
-16913,-10244,39083,0.0
-16939,-10725,39038,0.0
0,0,0,0.0
-16918,-11641,38773,0.0
-17017,-12177,38888,0.0
-17005,-12636,38750,0.0
-16970,-13077,38557,0.0
0,0,0,0.0
0,0,0,0.0
0,0,0,0.0
0,0,0,0.0
-16947,-15399,37917,0.0
0,0,0,0.0
-17001,-16391,37790,0.0
0,0,0,0.0
0,0,0,0.0
0,0,0,0.0
0,0,0,0.0
0,0,0,0.0
0,0,0,0.0
-17090,-19829,37061,0.0
-17097,-20320,36936,0.0
-17114,-20827,36831,0.0
-17096,-21292,36649,0.0
-17132,-21827,36579,0.0
-17171,-22370,36515,0.0
0,0,0,0.0
-17053,-23201,35964,0.0
-16927,-23521,35545,0.0
-16779,-23803,35079,0.0
-16658,-24121,34673,0.0
-16468,-24331,34122,0.0
-16359,-24653,33739,0.0
-16239,-24954,33334,0.0
-9629,-15086,19671,0.0
-9369,-14960,19048,0.0
-9130,-14854,18469,0.0
-8864,-14690,17839,0.0
-8766,-14795,17549,0.0
-8590,-14763,17108,0.0
-8409,-14711,16656,0.0
-8423,-15000,16593,0.0
-8432,-15280,16517,0.0
-8445,-15570,16448,0.0
-8465,-15875,16389,0.0
-8483,-16181,16325,0.0
-8501,-16488,16258,0.0
-8512,-16788,16180,0.0
-8521,-17082,16090,0.0
-8537,-17397,16016,0.0
-8578,-17765,15985,0.0
-8593,-18085,15903,0.0
-8614,-18422,15831,0.0
-8643,-18778,15770,0.0
-8664,-19122,15692,0.0
-8686,-19472,15613,0.0
-8709,-19827,15532,0.0
-8737,-20200,15459,0.0
-8758,-20561,15369,0.0
-8786,-20944,15290,0.0
-8809,-21322,15201,0.0
-8838,-21719,15118,0.0
-8860,-22104,15019,0.0
-726,-1841,1221,0.0
-749,-1926,1247,0.0
-737,-1922,1214,0.0
-749,-1984,1222,0.0
-759,-2043,1226,0.0
-744,-2030,1189,0.0
-726,-2012,1148,0.0
-733,-2062,1146,0.0
-726,-2071,1122,0.0
-702,-2032,1071,0.0
-716,-2105,1079,0.0
-685,-2044,1021,0.0
-58,-177,86,0.0
-58,-179,84,0.0
-64,-198,91,0.0
-65,-208,93,0.0
-72,-233,101,0.0
-71,-233,98,0.0
-77,-258,104,0.0
-80,-268,105,0.0
-90,-311,119,0.0
-95,-330,121,0.0
-93,-328,117,0.0
-92,-332,114,0.0
-93,-337,111,0.0
-90,-332,106,0.0
-88,-330,102,0.0
-87,-332,98,0.0
-87,-336,95,0.0
-85,-332,90,0.0
-84,-336,87,0.0
-84,-338,85,0.0
-6072,18413,16202,0.0
-6081,18054,16232,0.0
-6082,17678,16241,0.0
-6081,17301,16243,0.0
-6076,16919,16232,0.0
-6074,16559,16233,0.0
-6061,16169,16199,0.0
-5990,15638,16011,0.0
-6039,15430,16145,0.0
-6896,17239,18435,0.0
-6881,16826,18392,0.0
-6921,16556,18498,0.0
-7015,16415,18750,0.0
-6622,15153,17697,0.0
-6742,15084,18013,0.0
-6846,14975,18287,0.0
-6979,14923,18639,0.0
-11762,24579,31403,0.0
-11802,24098,31500,0.0
-11845,23629,31604,0.0
-11424,22260,30471,0.0
-11445,21776,30513,0.0
-11404,21184,30392,0.0
0,0,0,0.0
-11439,20234,30454,0.0
-11360,19603,30229,0.0
-11622,19557,30910,0.0
-11707,19203,31116,0.0
-12761,20399,33898,0.0
0,0,0,0.0
-12592,19092,33403,0.0
0,0,0,0.0
0,0,0,0.0
-12595,17591,33343,0.0
-12566,17060,33239,0.0
-12493,16476,33016,0.0
-12526,16041,33077,0.0
-12511,15548,33011,0.0
-12461,15020,32850,0.0
-12442,14535,32769,0.0
-12381,14009,32578,0.0
-12383,13561,32553,0.0
-12334,13063,32392,0.0
-12357,12645,32420,0.0
-12302,12154,32242,0.0
-8310,7918,21756,0.0
-8291,7611,21682,0.0
-8283,7319,21639,0.0
-8271,7024,21583,0.0
-8258,6733,21523,0.0
-8230,6433,21425,0.0
-8221,6151,21377,0.0
-8205,5866,21307,0.0
-8189,5585,21238,0.0
-8174,5308,21173,0.0
-8159,5032,21104,0.0
-8156,4768,21070,0.0
-8144,4499,21011,0.0
-8119,4226,20915,0.0
-8113,3966,20869,0.0
-8104,3707,20819,0.0
-8083,3444,20731,0.0
-8080,3192,20693,0.0
-8063,2936,20617,0.0
-8057,2686,20570,0.0
-8042,2434,20501,0.0
-8040,2188,20461,0.0
-8031,1943,20404,0.0
-8013,1697,20326,0.0
-8005,1455,20271,0.0
-7997,1214,20215,0.0
-7989,974,20158,0.0
-7976,736,20091,0.0
-7992,502,20095,0.0
-8366,279,20994,0.0
-8584,35,21503,0.0
-9042,-226,22607,0.0
0,0,0,0.0
0,0,0,0.0
0,0,0,0.0
-16486,-2327,40892,0.0
-16471,-2799,40769,0.0
-16505,-3280,40768,0.0
0,0,0,0.0
0,0,0,0.0
0,0,0,0.0
0,0,0,0.0
-16471,-5624,40241,0.0
0,0,0,0.0
0,0,0,0.0
0,0,0,0.0
0,0,0,0.0
0,0,0,0.0
0,0,0,0.0
0,0,0,0.0
0,0,0,0.0
0,0,0,0.0
0,0,0,0.0
-16410,-10709,39007,0.0
-16456,-11203,39011,0.0
-16433,-11652,38850,0.0
-16431,-12114,38737,0.0
0,0,0,0.0
-16453,-13061,38566,0.0
0,0,0,0.0
-16458,-13998,38349,0.0
0,0,0,0.0
-16469,-14943,38140,0.0
-16454,-15398,37986,0.0
0,0,0,0.0
0,0,0,0.0
0,0,0,0.0
0,0,0,0.0
0,0,0,0.0
0,0,0,0.0
0,0,0,0.0
0,0,0,0.0
0,0,0,0.0
0,0,0,0.0
0,0,0,0.0
0,0,0,0.0
0,0,0,0.0
0,0,0,0.0
0,0,0,0.0
-16551,-23187,36048,0.0
-16435,-23516,35645,0.0
-16273,-23774,35143,0.0
-16136,-24062,34696,0.0
-15991,-24331,34231,0.0
-15878,-24643,33836,0.0
-15746,-24920,33399,0.0
-9363,-15108,19768,0.0
-9127,-15009,19177,0.0
-8877,-14874,18559,0.0
-8619,-14713,17931,0.0
-8524,-14821,17645,0.0
-8331,-14748,17154,0.0
-8152,-14693,16698,0.0
-8143,-14938,16588,0.0
-8165,-15244,16541,0.0
-8181,-15543,16483,0.0
-8188,-15823,16402,0.0
-8209,-16135,16345,0.0
-8226,-16442,16280,0.0
-8248,-16764,16224,0.0
-8247,-17042,16121,0.0
-8253,-17336,16029,0.0
-8289,-17697,15993,0.0
-8315,-18041,15935,0.0
-8337,-18381,15869,0.0
-8351,-18708,15783,0.0
-8373,-19057,15712,0.0
-8394,-19407,15634,0.0
-8412,-19756,15551,0.0
-8439,-20128,15479,0.0
-8463,-20498,15399,0.0
-8482,-20864,15309,0.0
-8511,-21257,15233,0.0
-8530,-21633,15137,0.0
-8552,-22019,15042,0.0
-8496,-22207,14809,0.0
-724,-1923,1251,0.0
-726,-1958,1244,0.0
0,0,0,0.0
-727,-2019,1219,0.0
-723,-2038,1201,0.0
-713,-2040,1171,0.0
-707,-2054,1149,0.0
-663,-1953,1064,0.0
-701,-2097,1113,0.0
-687,-2084,1077,0.0
-696,-2145,1078,0.0
-54,-169,82,0.0
-61,-196,93,0.0
-62,-201,92,0.0
-66,-216,97,0.0
-66,-221,96,0.0
-70,-240,101,0.0
-73,-251,102,0.0
-81,-282,111,0.0
-86,-305,117,0.0
-93,-335,124,0.0
-94,-342,123,0.0
-92,-339,118,0.0
-91,-345,115,0.0
-89,-340,110,0.0
-89,-345,107,0.0
-87,-340,102,0.0
-86,-343,98,0.0
-85,-346,95,0.0
-83,-343,90,0.0
-82,-345,87,0.0
-5945,18673,16523,0.0
-5980,18381,16620,0.0
-5944,17884,16522,0.0
-5911,17407,16432,0.0
-5884,16954,16354,0.0
-5848,16491,16255,0.0
-5827,16075,16192,0.0
-5763,15554,16012,0.0
-6850,18089,19030,0.0
-6863,17729,19062,0.0
-6856,17323,19039,0.0
-6834,16889,18972,0.0
-6815,16468,18912,0.0
-6773,16003,18791,0.0
-6515,15050,18069,0.0
-6702,15135,18581,0.0
-6737,14867,18669,0.0
-11512,24823,31885,0.0
-11384,23982,31515,0.0
0,0,0,0.0
-11053,22210,30566,0.0
-11003,21587,30413,0.0
-10976,21019,30319,0.0
-11011,20578,30397,0.0
-11072,20186,30546,0.0
-10967,19501,30234,0.0
-11187,19395,30820,0.0
-11295,19085,31094,0.0
0,0,0,0.0
-12319,19756,33864,0.0
0,0,0,0.0
-12232,18587,33569,0.0
0,0,0,0.0
-12168,17491,33337,0.0
-12163,16991,33292,0.0
-10976,14895,30016,0.0
-10950,14428,29919,0.0
-10931,13974,29836,0.0
-10900,13513,29724,0.0
-10949,13153,29825,0.0
0,0,0,0.0
-11986,13494,32582,0.0
-11944,13003,32435,0.0
-11944,12562,32399,0.0
-11929,12110,32321,0.0
-8039,7870,21757,0.0
-8019,7562,21678,0.0
-8010,7269,21627,0.0
-7992,6970,21552,0.0
-7974,6675,21476,0.0
-7957,6385,21406,0.0
-7953,6107,21365,0.0
-7942,5827,21308,0.0
-7924,5545,21233,0.0
-7916,5272,21180,0.0
-7875,4981,21043,0.0
-7883,4724,21033,0.0
-7875,4460,20984,0.0
-7862,4193,20917,0.0
-7846,3930,20847,0.0
-7849,3677,20822,0.0
-7836,3418,20754,0.0
-7828,3164,20702,0.0
-7809,2908,20620,0.0
-7799,2657,20560,0.0
-7792,2410,20509,0.0
-7771,2159,20419,0.0
-7779,1919,20404,0.0
-7761,1673,20322,0.0
-7755,1432,20273,0.0
-7748,1193,20219,0.0
-7739,954,20160,0.0
-7732,718,20104,0.0
-7755,484,20127,0.0
-8109,261,21005,0.0
-8350,17,21591,0.0
-8775,-245,22644,0.0
0,0,0,0.0
0,0,0,0.0
0,0,0,0.0
0,0,0,0.0
-15998,-2829,40872,0.0
-15967,-3295,40706,0.0
-15968,-3766,40621,0.0
0,0,0,0.0
-15974,-4707,40459,0.0
-15950,-5167,40308,0.0
-16008,-5654,40363,0.0
-15944,-6097,40108,0.0
0,0,0,0.0
0,0,0,0.0
0,0,0,0.0
-15898,-7932,39615,0.0
-15891,-8391,39500,0.0
0,0,0,0.0
0,0,0,0.0
0,0,0,0.0
0,0,0,0.0
0,0,0,0.0
0,0,0,0.0
-15901,-11626,38807,0.0
0,0,0,0.0
-15960,-12597,38731,0.0
0,0,0,0.0
0,0,0,0.0
-15901,-13940,38251,0.0
0,0,0,0.0
0,0,0,0.0
-15958,-15390,38039,0.0
0,0,0,0.0
0,0,0,0.0
0,0,0,0.0
0,0,0,0.0
0,0,0,0.0
0,0,0,0.0
-16023,-18768,37321,0.0
0,0,0,0.0
0,0,0,0.0
0,0,0,0.0
-16031,-20701,36802,0.0
0,0,0,0.0
-16032,-21673,36524,0.0
0,0,0,0.0
0,0,0,0.0
-16031,-23145,36087,0.0
-15912,-23464,35673,0.0
-15770,-23744,35207,0.0
-15651,-24052,34791,0.0
-15514,-24329,34336,0.0
-15361,-24572,33846,0.0
-15246,-24872,33443,0.0
-9063,-15074,19788,0.0
-8859,-15018,19252,0.0
-8614,-14879,18629,0.0
-8385,-14757,18047,0.0
-8266,-14819,17703,0.0
-8063,-14716,17178,0.0
-7892,-14667,16728,0.0
-7877,-14902,16610,0.0
-7889,-15189,16544,0.0
-7896,-15469,16468,0.0
-7912,-15768,16408,0.0
-7924,-16063,16337,0.0
-7937,-16366,16269,0.0
-7959,-16688,16217,0.0
-7974,-16999,16147,0.0
-7997,-17331,16092,0.0
-8003,-17630,16000,0.0
-8029,-17977,15948,0.0
-8039,-18291,15859,0.0
-8061,-18637,15794,0.0
-8078,-18976,15716,0.0
-8095,-19318,15635,0.0
-8119,-19685,15567,0.0
-8138,-20042,15486,0.0
-8160,-20410,15407,0.0
-8176,-20768,15314,0.0
-8202,-21159,15239,0.0
-8221,-21535,15146,0.0
-8246,-21936,15063,0.0
-8214,-22184,14871,0.0
-708,-1942,1270,0.0
-709,-1976,1262,0.0
-688,-1944,1211,0.0
-708,-2032,1234,0.0
0,0,0,0.0
-689,-2039,1177,0.0
-686,-2062,1161,0.0
-682,-2080,1141,0.0
-670,-2074,1108,0.0
-671,-2108,1095,0.0
-657,-2095,1060,0.0
-60,-195,96,0.0
-57,-191,92,0.0
-57,-193,90,0.0
-65,-222,101,0.0
-67,-233,103,0.0
-71,-253,107,0.0
-74,-265,109,0.0
-76,-277,110,0.0
-80,-296,114,0.0
-91,-338,127,0.0
-90,-338,123,0.0
-87,-336,117,0.0
-87,-341,115,0.0
-88,-346,113,0.0
-84,-340,107,0.0
-82,-335,101,0.0
-82,-338,98,0.0
-81,-342,95,0.0
-79,-338,90,0.0
-78,-340,87,0.0
-5725,18648,16590,0.0
-5214,16618,15107,0.0
-5689,17741,16480,0.0
-5668,17295,16415,0.0
-5242,15650,15177,0.0
-5564,16249,16103,0.0
-5567,15905,16106,0.0
-5557,15527,16069,0.0
-6622,18098,19141,0.0
-6623,17702,19135,0.0
-6594,17237,19044,0.0
-6173,15779,17820,0.0
-6516,16284,18799,0.0
-6371,15563,18369,0.0
-6306,15057,18173,0.0
-6420,14982,18490,0.0
-6488,14795,18675,0.0
-10845,24158,31194,0.0
-10835,23575,31144,0.0
-10616,22560,30496,0.0
0,0,0,0.0
-10591,21451,30378,0.0
0,0,0,0.0
0,0,0,0.0
-10713,20152,30655,0.0
-10865,19930,31064,0.0
-10865,19428,31036,0.0
-10878,18958,31049,0.0
-11863,20139,33828,0.0
0,0,0,0.0
-11836,19051,33692,0.0
-11795,18473,33541,0.0
-11720,17853,33294,0.0
0,0,0,0.0
-11700,16838,33172,0.0
-10719,14984,30360,0.0
-10931,14833,30927,0.0
-10950,14415,30948,0.0
-10961,13989,30942,0.0
-10893,13472,30719,0.0
-10912,13067,30737,0.0
-11009,12754,30974,0.0
-11542,12928,32435,0.0
-11512,12456,32312,0.0
-7752,8094,21733,0.0
-7763,7815,21735,0.0
-7741,7507,21648,0.0
-7729,7212,21587,0.0
-7723,6924,21541,0.0
-7706,6631,21467,0.0
-7694,6344,21402,0.0
-7667,6049,21298,0.0
-7667,5778,21270,0.0
-7654,5501,21205,0.0
-7644,5227,21146,0.0
-7627,4953,21071,0.0
-7621,4688,21023,0.0
-7608,4421,20954,0.0
-7580,4149,20849,0.0
-7591,3899,20845,0.0
-7584,3642,20793,0.0
-7566,3382,20710,0.0
-7567,3133,20680,0.0
-7544,2877,20586,0.0
-7541,2629,20541,0.0
-7534,2382,20488,0.0
-7508,2132,20385,0.0
-7514,1892,20363,0.0
-7512,1651,20326,0.0
-7500,1411,20255,0.0
-7489,1171,20191,0.0
-7489,935,20155,0.0
-7459,697,20038,0.0
-7549,470,20239,0.0
-7859,244,21032,0.0
-8083,0,21591,0.0
-8508,-262,22678,0.0
-15445,-953,41088,0.0
0,0,0,0.0
0,0,0,0.0
0,0,0,0.0
0,0,0,0.0
-15451,-3314,40685,0.0
-15419,-3775,40513,0.0
0,0,0,0.0
0,0,0,0.0
0,0,0,0.0
-15419,-5636,40155,0.0
0,0,0,0.0
0,0,0,0.0
0,0,0,0.0
0,0,0,0.0
-15401,-7940,39639,0.0
-15381,-8389,39490,0.0
0,0,0,0.0
-15378,-9306,39284,0.0
-15415,-9790,39281,0.0
0,0,0,0.0
-15439,-10726,39133,0.0
-15374,-11140,38864,0.0
-15392,-11614,38805,0.0
-15405,-12084,38730,0.0
0,0,0,0.0
0,0,0,0.0
0,0,0,0.0
-15429,-13954,38350,0.0
0,0,0,0.0
0,0,0,0.0
0,0,0,0.0
0,0,0,0.0
0,0,0,0.0
0,0,0,0.0
-15464,-17260,37611,0.0
0,0,0,0.0
0,0,0,0.0
0,0,0,0.0
0,0,0,0.0
-15502,-19681,37063,0.0
-15478,-20132,36875,0.0
-15515,-20661,36825,0.0
-15501,-21127,36657,0.0
0,0,0,0.0
0,0,0,0.0
0,0,0,0.0
-15528,-23122,36156,0.0
0,0,0,0.0
-15284,-23736,35299,0.0
-15118,-23966,34769,0.0
-15008,-24277,34369,0.0
-14847,-24500,33852,0.0
-14760,-24840,33505,0.0
-8792,-15086,19868,0.0
-8600,-15043,19347,0.0
-8374,-14927,18750,0.0
-8150,-14800,18161,0.0
-7992,-14784,17723,0.0
-7821,-14734,17258,0.0
-7666,-14703,16829,0.0
-7603,-14845,16605,0.0
-7619,-15140,16552,0.0
-7627,-15424,16480,0.0
-7644,-15727,16425,0.0
-7654,-16020,16356,0.0
-7660,-16305,16273,0.0
-7680,-16626,16220,0.0
-7700,-16951,16166,0.0
-7710,-17259,16090,0.0
-7734,-17596,16036,0.0
-7745,-17914,15959,0.0
-7752,-18221,15867,0.0
-7777,-18577,15811,0.0
-7793,-18918,15737,0.0
-7805,-19250,15650,0.0
-7823,-19603,15573,0.0
-7847,-19974,15506,0.0
-7851,-20299,15396,0.0
-7880,-20696,15335,0.0
-7900,-21072,15250,0.0
-7919,-21453,15163,0.0
-7950,-21873,15096,0.0
-7922,-22132,14913,0.0
-663,-1882,1238,0.0
-676,-1952,1253,0.0
-659,-1930,1208,0.0
-660,-1963,1199,0.0
-673,-2029,1209,0.0
-672,-2056,1195,0.0
-672,-2091,1184,0.0
-660,-2086,1151,0.0
-654,-2095,1126,0.0
-648,-2108,1103,0.0
-650,-2149,1095,0.0
-50,-171,85,0.0
-53,-183,88,0.0
-55,-194,91,0.0
-59,-211,96,0.0
-61,-222,99,0.0
-63,-231,99,0.0
-69,-255,105,0.0
-74,-280,113,0.0
-78,-299,116,0.0
-86,-330,125,0.0
-88,-345,126,0.0
-85,-343,121,0.0
-86,-349,119,0.0
-83,-345,113,0.0
-83,-349,110,0.0
-81,-345,106,0.0
-80,-347,102,0.0
-79,-350,98,0.0
-78,-346,93,0.0
-77,-348,90,0.0
-4943,16726,14959,0.0
-5023,16625,15192,0.0
-5389,17448,16292,0.0
-5253,16634,15870,0.0
-5305,16431,16017,0.0
-5210,15783,15722,0.0
-5259,15582,15861,0.0
-5339,15467,16088,0.0
-6365,18030,19167,0.0
-6343,17572,19091,0.0
-6321,17118,19009,0.0
-6022,15944,18098,0.0
-6158,15936,18493,0.0
-6218,15727,18658,0.0
-6215,15360,18633,0.0
-6197,14966,18564,0.0
-6254,14755,18720,0.0
-10400,23965,31101,0.0
-10449,23514,31220,0.0
0,0,0,0.0
-10197,21870,30411,0.0
-10206,21365,30411,0.0
-10230,20896,30454,0.0
-10238,20400,30448,0.0
-10374,20160,30824,0.0
-10473,19843,31087,0.0
-10496,19382,31122,0.0
-10480,18857,31044,0.0
-11443,20054,33858,0.0
-11438,19518,33808,0.0
-11414,18956,33700,0.0
0,0,0,0.0
-11332,17807,33384,0.0
-11288,17243,33219,0.0
-11317,16797,33267,0.0
-10334,14894,30341,0.0
-10250,14339,30059,0.0
-10242,13898,30001,0.0
-10263,13500,30024,0.0
-10443,13310,30516,0.0
-10524,12984,30713,0.0
-11147,13304,32488,0.0
-11115,12825,32356,0.0
-11136,12409,32372,0.0
-7486,8050,21734,0.0
-7490,7765,21720,0.0
-7482,7470,21666,0.0
-7469,7173,21600,0.0
-7456,6879,21531,0.0
-7442,6588,21460,0.0
-7421,6295,21368,0.0
-7416,6018,21325,0.0
-7415,5747,21292,0.0
-7397,5465,21207,0.0
-7389,5194,21154,0.0
-7376,4921,21082,0.0
-7365,4654,21021,0.0
-7346,4384,20931,0.0
-7324,4116,20840,0.0
-7347,3874,20869,0.0
-7323,3609,20768,0.0
-7314,3354,20710,0.0
-7313,3105,20672,0.0
-7297,2852,20593,0.0
-7295,2605,20550,0.0
-7287,2359,20492,0.0
-7259,2108,20381,0.0
-7271,1871,20376,0.0
-7264,1630,20321,0.0
-7252,1390,20253,0.0
-7244,1152,20193,0.0
-7236,915,20134,0.0
-7226,680,20068,0.0
-7318,453,20283,0.0
-7606,227,21041,0.0
-7854,-16,21687,0.0
-8258,-280,22759,0.0
0,0,0,0.0
0,0,0,0.0
-15024,-1936,41151,0.0
-14956,-2398,40879,0.0
-14958,-2868,40799,0.0
0,0,0,0.0
0,0,0,0.0
-14966,-4272,40561,0.0
-14946,-4732,40417,0.0
0,0,0,0.0
-14914,-5647,40148,0.0
-14934,-6117,40112,0.0
0,0,0,0.0
-14916,-7031,39876,0.0
0,0,0,0.0
-14869,-7926,39562,0.0
-14896,-8400,39538,0.0
-14899,-8860,39446,0.0
-14865,-9297,39257,0.0
-14915,-9787,39290,0.0
-14916,-10246,39192,0.0
-14915,-10704,39084,0.0
-14907,-11159,38962,0.0
-14905,-11616,38853,0.0
-14912,-12081,38765,0.0
-14923,-12550,38685,0.0
-14909,-12998,38539,0.0
-14919,-13469,38457,0.0
0,0,0,0.0
0,0,0,0.0
0,0,0,0.0
-14910,-15313,37984,0.0
0,0,0,0.0
0,0,0,0.0
0,0,0,0.0
0,0,0,0.0
0,0,0,0.0
0,0,0,0.0
0,0,0,0.0
-14949,-19115,37109,0.0
0,0,0,0.0
0,0,0,0.0
-14998,-20618,36840,0.0
-14939,-21018,36562,0.0
-14993,-21579,36558,0.0
-15003,-22082,36446,0.0
0,0,0,0.0
-14999,-23058,36154,0.0
-14903,-23402,35781,0.0
-14764,-23674,35305,0.0
-14674,-24018,34947,0.0
-14489,-24201,34361,0.0
-14373,-24492,33942,0.0
-14257,-24777,33522,0.0
-14138,-25053,33097,0.0
-8310,-15010,19366,0.0
-8103,-14915,18796,0.0
-7877,-14773,18187,0.0
-7704,-14719,17704,0.0
-7555,-14701,17278,0.0
-7436,-14733,16922,0.0
-7335,-14797,16610,0.0
-7346,-15083,16548,0.0
-7356,-15370,16482,0.0
-7371,-15671,16427,0.0
-7386,-15977,16373,0.0
-7376,-16228,16258,0.0
-7405,-16572,16230,0.0
-7422,-16889,16170,0.0
-7426,-17184,16085,0.0
-7445,-17513,16026,0.0
-7450,-17817,15937,0.0
-7471,-18160,15880,0.0
-7487,-18498,15812,0.0
-7500,-18831,15732,0.0
-7519,-19182,15663,0.0
-7531,-19523,15579,0.0
-7549,-19883,15505,0.0
-7554,-20214,15403,0.0
-7579,-20599,15334,0.0
-7593,-20966,15246,0.0
-7622,-21376,15182,0.0
-7636,-21750,15085,0.0
-7644,-22115,14977,0.0
-654,-1923,1272,0.0
-644,-1923,1240,0.0
-660,-2002,1260,0.0
-644,-1982,1217,0.0
-651,-2035,1219,0.0
-639,-2028,1184,0.0
-639,-2062,1174,0.0
-618,-2024,1123,0.0
-626,-2082,1125,0.0
-50,-172,91,0.0
-624,-2136,1095,0.0
-608,-2116,1054,0.0
-51,-183,89,0.0
-60,-216,101,0.0
-55,-200,92,0.0
-62,-232,103,0.0
-61,-233,100,0.0
-64,-249,104,0.0
-73,-286,117,0.0
-75,-295,116,0.0
-82,-333,127,0.0
-80,-327,120,0.0
-81,-339,120,0.0
-80,-341,117,0.0
-77,-332,110,0.0
-76,-334,107,0.0
-76,-339,105,0.0
-75,-343,102,0.0
-74,-339,97,0.0
-73,-340,92,0.0
-73,-342,90,0.0
-4351,16681,15142,0.0
-4437,16624,15419,0.0
-4526,16569,15701,0.0
-4608,16480,15957,0.0
-4701,16431,16255,0.0
-4786,16345,16523,0.0
-4757,15873,16395,0.0
-4799,15641,16510,0.0
-4952,15773,17013,0.0
-5180,16118,17768,0.0
-5280,16046,18079,0.0
-5378,15967,18388,0.0
-5456,15821,18625,0.0
-5559,15743,18948,0.0
-5593,15466,19033,0.0
-5638,15222,19158,0.0
-5647,14883,19156,0.0
-5691,14641,19277,0.0
0,0,0,0.0
-6989,17120,23597,0.0
-8992,21490,30315,0.0
-7181,16736,24169,0.0
-7279,16545,24464,0.0
-7273,16117,24406,0.0
-7273,15708,24368,0.0
-7258,15274,24279,0.0
-7264,14889,24259,0.0
-7258,14487,24201,0.0
-7228,14044,24062,0.0
-7252,13713,24106,0.0
-10098,18576,33514,0.0
-10085,18040,33419,0.0
-10071,17510,33319,0.0
-10077,17022,33285,0.0
-10034,16460,33094,0.0
-9223,14685,30369,0.0
-9222,14242,30316,0.0
-9206,13786,30218,0.0
-9242,13410,30287,0.0
-9401,13208,30757,0.0
-9450,12847,30868,0.0
-9736,12798,31749,0.0
-9927,12607,32321,0.0
-9937,12183,32299,0.0
-6695,7916,21727,0.0
-6699,7633,21707,0.0
-6699,7347,21668,0.0
-6693,7057,21614,0.0
-6691,6775,21573,0.0
-6696,6501,21549,0.0
-6685,6215,21478,0.0
-6700,5957,21491,0.0
-6705,5690,21467,0.0
-6649,5376,21254,0.0
-6725,5169,21458,0.0
-6728,4907,21432,0.0
-6726,4641,21388,0.0
-6727,4381,21353,0.0
-6725,4120,21307,0.0
-6734,3867,21297,0.0
-6740,3614,21277,0.0
-6737,3359,21233,0.0
-6734,3105,21185,0.0
-6739,2855,21160,0.0
-6751,2610,21160,0.0
-6701,2343,20963,0.0
-6749,2113,21074,0.0
-6750,1867,21035,0.0
-6756,1623,21015,0.0
-6726,1373,20881,0.0
-6690,1126,20731,0.0
-6530,865,20195,0.0
-6526,632,20143,0.0
-6732,414,20737,0.0
-6830,179,20997,0.0
-6848,-60,21009,0.0
-6835,-300,20929,0.0
-6835,-539,20883,0.0
-6837,-777,20848,0.0
-6830,-1013,20779,0.0
-6824,-1249,20720,0.0
-6827,-1484,20685,0.0
-6825,-1719,20633,0.0
-6814,-1950,20555,0.0
-6821,-2186,20530,0.0
-6818,-2417,20475,0.0
-6816,-2650,20424,0.0
-6811,-2880,20363,0.0
-6808,-3110,20310,0.0
-6809,-3342,20264,0.0
-6821,-3579,20252,0.0
-6813,-3807,20182,0.0
-6814,-4037,20136,0.0
-6815,-4269,20089,0.0
-6812,-4499,20035,0.0
-6813,-4729,19986,0.0
-6814,-4960,19940,0.0
-6812,-5189,19885,0.0
-6813,-5420,19835,0.0
-6818,-5655,19801,0.0
-6812,-5882,19733,0.0
-6805,-6107,19659,0.0
-6807,-6339,19612,0.0
-6801,-6566,19542,0.0
-6811,-6807,19517,0.0
-6802,-7031,19439,0.0
-6811,-7272,19407,0.0
-6814,-7510,19365,0.0
-6813,-7742,19304,0.0
-6800,-7962,19211,0.0
-6810,-8209,19182,0.0
-6823,-8461,19163,0.0
-6822,-8695,19100,0.0
-6828,-8942,19060,0.0
-6836,-9192,19023,0.0
-6824,-9414,18929,0.0
-6834,-9669,18896,0.0
-6832,-9907,18828,0.0
-6835,-10154,18774,0.0
-6837,-10401,18718,0.0
-6835,-10642,18647,0.0
-6846,-10905,18611,0.0
-6846,-11154,18550,0.0
-6844,-11398,18476,0.0
-6844,-11648,18409,0.0
-6848,-11907,18352,0.0
-6865,-12189,18328,0.0
-6854,-12425,18231,0.0
-6867,-12706,18194,0.0
-6870,-12969,18130,0.0
-6876,-13242,18073,0.0
-6873,-13498,17991,0.0
-6880,-13776,17935,0.0
-6884,-14051,17871,0.0
-6894,-14339,17819,0.0
-6886,-14592,17719,0.0
-6854,-14796,17559,0.0
-6771,-14888,17268,0.0
-6602,-14781,16758,0.0
-6613,-15076,16708,0.0
-6773,-15716,17028,0.0
-6843,-16163,17121,0.0
-6847,-16458,17045,0.0
-6830,-16706,16917,0.0
-6865,-17082,16913,0.0
-6865,-17376,16821,0.0
-6865,-17675,16731,0.0
-6877,-18008,16667,0.0
-6871,-18295,16557,0.0
-6852,-18555,16417,0.0
-6856,-18877,16330,0.0
-6857,-19192,16230,0.0
-6875,-19563,16173,0.0
-6836,-19769,15976,0.0
-6872,-20203,15957,0.0
-6901,-20620,15916,0.0
-6909,-20982,15826,0.0
-6869,-21197,15622,0.0
-6849,-21482,15466,0.0
-6901,-21995,15469,0.0
-6852,-22192,15243,0.0
-581,-1915,1285,0.0
-571,-1912,1252,0.0
-588,-1999,1277,0.0
-562,-1942,1211,0.0
-583,-2048,1246,0.0
-542,-1934,1148,0.0
-558,-2021,1170,0.0
-561,-2067,1166,0.0
-538,-2014,1107,0.0
-531,-2022,1083,0.0
-40,-160,83,0.0
-44,-176,89,0.0
-43,-176,87,0.0
-45,-184,89,0.0
-49,-205,95,0.0
-48,-205,93,0.0
-52,-225,98,0.0
-55,-242,104,0.0
-59,-266,110,0.0
-58,-263,106,0.0
-66,-302,118,0.0
-68,-317,120,0.0
-71,-338,123,0.0
-70,-336,118,0.0
-69,-341,115,0.0
-67,-336,110,0.0
-67,-340,108,0.0
-66,-343,104,0.0
-65,-346,101,0.0
-64,-342,96,0.0
-63,-345,94,0.0
-3556,16624,15364,0.0
-3637,16576,15650,0.0
-3710,16497,15913,0.0
-3792,16441,16203,0.0
-3865,16347,16460,0.0
-3944,16273,16741,0.0
-3885,15633,16433,0.0
-4102,16100,17294,0.0
-4115,15756,17294,0.0
-4102,15319,17185,0.0
-4374,15933,18266,0.0
-4477,15908,18641,0.0
-4568,15830,18963,0.0
-4646,15704,19232,0.0
-4753,15666,19616,0.0
-4692,15081,19310,0.0
-4829,15131,19816,0.0
-4857,14835,19873,0.0
-5145,15320,20996,0.0
-5263,15273,21420,0.0
-5373,15194,21808,0.0
-5484,15108,22200,0.0
-5601,15033,22617,0.0
-5716,14939,23020,0.0
-5838,14854,23449,0.0
-5943,14719,23811,0.0
-6066,14620,24242,0.0
-6007,14087,23950,0.0
-6123,13963,24349,0.0
-6168,13675,24467,0.0
0,0,0,0.0
-8460,17709,33397,0.0
-7080,14394,27886,0.0
-8445,16665,33182,0.0
-8429,16139,33043,0.0
-8428,15650,32960,0.0
-7824,14083,30531,0.0
-7837,13664,30510,0.0
-8038,13568,31220,0.0
-8120,13261,31465,0.0
-8222,12983,31790,0.0
-8383,12789,32340,0.0
-8383,12347,32268,0.0
-8366,11887,32133,0.0
-8390,11488,32155,0.0
-6293,8296,24064,0.0
-6443,8168,24583,0.0
-6472,7883,24642,0.0
-6473,7565,24594,0.0
-6468,7243,24520,0.0
-6461,6923,24439,0.0
-6454,6607,24362,0.0
-6448,6296,24288,0.0
-6445,5991,24227,0.0
-6437,5683,24139,0.0
-6367,5328,23830,0.0
-6262,4954,23385,0.0
-6397,4770,23837,0.0
-6407,4490,23827,0.0
-6405,4202,23766,0.0
-6391,3911,23668,0.0
-6386,3627,23595,0.0
-6369,3339,23483,0.0
-6099,2934,22441,0.0
-6330,2772,23239,0.0
-6156,2433,22554,0.0
-6099,2151,22301,0.0
-6162,1913,22481,0.0
-6339,1702,23079,0.0
-6335,1437,23017,0.0
-6324,1171,22924,0.0
-6299,906,22789,0.0
-6315,648,22795,0.0
-6315,390,22745,0.0
-6302,132,22648,0.0
-6176,-120,22148,0.0
-6268,-376,22428,0.0
-5983,-600,21365,0.0
-6116,-859,21793,0.0
-6116,-1104,21742,0.0
-6033,-1329,21401,0.0
-6273,-1631,22205,0.0
-6271,-1880,22148,0.0
-6259,-2124,22058,0.0
-6235,-2362,21921,0.0
-6228,-2605,21849,0.0
-6251,-2860,21881,0.0
-6236,-3099,21780,0.0
-6247,-3349,21766,0.0
-6235,-3586,21673,0.0
-6230,-3828,21608,0.0
-6226,-4069,21544,0.0
-6225,-4311,21489,0.0
-6219,-4552,21419,0.0
-5497,-4238,18886,0.0
-5452,-4415,18688,0.0
-6198,-5263,21194,0.0
-6197,-5503,21138,0.0
-5222,-4841,17769,0.0
-6185,-5976,20992,0.0
-5224,-5252,17686,0.0
-5220,-5453,17628,0.0
-5220,-5659,17587,0.0
-6186,-6951,20788,0.0
-5221,-6073,17500,0.0
-5206,-6261,17405,0.0
-5223,-6489,17417,0.0
-5209,-6679,17324,0.0
-5225,-6907,17329,0.0
-5215,-7105,17254,0.0
-5222,-7322,17226,0.0
-5222,-7533,17182,0.0
-5221,-7743,17130,0.0
-5223,-7957,17088,0.0
-5224,-8173,17043,0.0
-5224,-8386,16993,0.0
-6199,-10208,20109,0.0
-6208,-10477,20075,0.0
-6211,-10741,20026,0.0
-6210,-10999,19964,0.0
-6216,-11269,19919,0.0
-6225,-11548,19888,0.0
-6223,-11810,19820,0.0
-6232,-12093,19785,0.0
-5240,-10394,16583,0.0
-6231,-12630,19656,0.0
-6240,-12920,19619,0.0
-6257,-13230,19606,0.0
-6256,-13504,19535,0.0
-6241,-13750,19421,0.0
-6083,-13674,18861,0.0
-5854,-13425,18088,0.0
-6081,-14226,18723,0.0
-6205,-14802,19034,0.0
-6203,-15084,18955,0.0
-6283,-15574,19129,0.0
-6294,-15899,19086,0.0
-6302,-16223,19038,0.0
-6303,-16528,18964,0.0
-6311,-16860,18913,0.0
-6319,-17191,18857,0.0
-6328,-17533,18807,0.0
-6334,-17866,18739,0.0
-6342,-18217,18686,0.0
-6342,-18542,18601,0.0
-6355,-18910,18551,0.0
-6357,-19254,18473,0.0
-6366,-19624,18414,0.0
-6376,-19998,18351,0.0
-6380,-20361,18272,0.0
-26,-86,76,0.0
-6399,-21138,18139,0.0
-22,-76,64,0.0
-25,-87,72,0.0
-6424,-22340,17917,0.0
-25,-93,73,0.0
-24,-92,70,0.0
-24,-94,70,0.0
-6278,-23373,17106,0.0
-25,-98,70,0.0
-484,-1868,1305,0.0
-498,-1952,1331,0.0
-494,-1969,1312,0.0
-491,-1991,1295,0.0
-494,-2036,1293,0.0
-482,-2027,1256,0.0
-491,-2097,1269,0.0
-479,-2080,1227,0.0
-458,-2025,1165,0.0
-458,-2061,1155,0.0
-32,-149,82,0.0
-34,-162,86,0.0
-37,-177,92,0.0
-38,-186,93,0.0
-38,-189,93,0.0
-39,-200,96,0.0
-40,-209,97,0.0
-42,-218,98,0.0
-45,-241,106,0.0
-44,-242,103,0.0
-47,-261,107,0.0
-48,-275,110,0.0
-52,-302,117,0.0
-56,-323,121,0.0
-57,-340,123,0.0
-57,-346,121,0.0
-55,-342,115,0.0
-54,-338,111,0.0
-53,-341,108,0.0
-52,-345,104,0.0
-51,-337,98,0.0
-50,-344,96,0.0
-1649,15588,14873,0.0
-3684,33597,32746,0.0
-3728,32812,32670,0.0
-2137,18165,18477,0.0
-3831,31463,32694,0.0
-2266,17986,19095,0.0
-2283,17527,19011,0.0
-2297,17048,18895,0.0
-2312,16606,18807,0.0
-2328,16181,18726,0.0
-2341,15750,18629,0.0
-2309,15050,18195,0.0
-2364,14921,18440,0.0
-2787,17043,21532,0.0
-2705,16026,20702,0.0
-2654,15238,20129,0.0
-2670,14853,20068,0.0
-2719,14664,20265,0.0
-2877,15039,21266,0.0
-2896,14677,21237,0.0
-2914,14312,21196,0.0
-4226,20124,30510,0.0
-4223,19491,30261,0.0
-4326,19349,30768,0.0
-4388,19024,30993,0.0
-3884,16317,27243,0.0
-4832,19671,33669,0.0
-4025,15870,27855,0.0
-4066,15530,27961,0.0
-4080,15090,27879,0.0
-3915,14020,26590,0.0
-3965,13745,26773,0.0
-4010,13449,26917,0.0
-3967,12868,26473,0.0
-4325,13567,28705,0.0
-3968,12030,26189,0.0
-4583,13425,30090,0.0
-4686,13253,30602,0.0
-4803,13111,31206,0.0
-4928,12974,31853,0.0
-5023,12749,32312,0.0
-5017,12267,32114,0.0
-5042,11868,32123,0.0
-5022,11371,31850,0.0
-3811,8294,24060,0.0
-3905,8160,24544,0.0
-3938,7893,24642,0.0
-3943,7571,24563,0.0
-3945,7251,24479,0.0
-3954,6944,24426,0.0
-3953,6627,24324,0.0
-3953,6316,24231,0.0
-3961,6018,24177,0.0
-3966,5723,24119,0.0
-3965,5420,24020,0.0
-3970,5130,23959,0.0
-3976,4843,23904,0.0
-3973,4551,23809,0.0
-3976,4268,23740,0.0
-3979,3986,23674,0.0
-3980,3706,23597,0.0
-3981,3430,23524,0.0
-3804,3015,22405,0.0
-3828,2771,22469,0.0
-3891,2552,22769,0.0
-3852,2268,22464,0.0
-3882,2027,22572,0.0
-3982,1817,23083,0.0
-3979,1554,22992,0.0
-3980,1296,22932,0.0
-3981,1039,22871,0.0
-3979,783,22790,0.0
-3985,529,22755,0.0
-3985,277,22691,0.0
-3984,26,22624,0.0
-3983,-222,22554,0.0
-3986,-472,22517,0.0
-3981,-718,22429,0.0
-3979,-963,22358,0.0
-3979,-1208,22298,0.0
-3981,-1452,22246,0.0
-3977,-1694,22172,0.0
-3978,-1937,22119,0.0
-3972,-2175,22032,0.0
-3972,-2416,21977,0.0
-3971,-2656,21918,0.0
-3970,-2894,21858,0.0
-3966,-3130,21782,0.0
-3965,-3369,21732,0.0
-3527,-3208,19284,0.0
-3527,-3421,19242,0.0
-3523,-3629,19179,0.0
-3531,-3849,19177,0.0
-3522,-4052,19087,0.0
-3524,-4266,19054,0.0
-3528,-4484,19036,0.0
-3528,-4696,18992,0.0
-3527,-4907,18947,0.0
-3517,-5106,18850,0.0
-3539,-5354,18931,0.0
-3541,-5572,18900,0.0
-3538,-5783,18846,0.0
-3542,-6006,18828,0.0
-3533,-6211,18747,0.0
-3541,-6443,18753,0.0
-3545,-6669,18733,0.0
-3546,-6892,18700,0.0
-3552,-7128,18700,0.0
-3544,-7335,18620,0.0
-3542,-7556,18579,0.0
-3541,-7778,18535,0.0
-3554,-8035,18568,0.0
-3554,-8264,18533,0.0
-3542,-8466,18435,0.0
-3546,-8709,18422,0.0
-3546,-8945,18394,0.0
-3536,-9152,18303,0.0
-3552,-9432,18353,0.0
-3551,-9672,18320,0.0
-3552,-9918,18293,0.0
-3564,-10196,18321,0.0
-3551,-10406,18222,0.0
-3555,-10667,18211,0.0
-3555,-10920,18180,0.0
-3872,-12171,19766,0.0
-3864,-12430,19695,0.0
-3861,-12706,19649,0.0
-3859,-12987,19607,0.0
-3855,-13263,19553,0.0
-3852,-13547,19506,0.0
-3848,-13830,19452,0.0
-3847,-14129,19416,0.0
-3837,-14398,19337,0.0
-3834,-14696,19290,0.0
-3829,-14994,19238,0.0
-3824,-15291,19181,0.0
-3816,-15580,19109,0.0
-3810,-15886,19052,0.0
-3809,-16211,19014,0.0
-3801,-16518,18948,0.0
-3796,-16840,18894,0.0
-3789,-17158,18832,0.0
-3783,-17486,18774,0.0
-3776,-17811,18708,0.0
-3770,-18153,18653,0.0
-3764,-18494,18591,0.0
-3758,-18849,18537,0.0
-3749,-19191,18464,0.0
-13,-70,66,0.0
-13,-67,61,0.0
-15,-79,71,0.0
-14,-77,68,0.0
-17,-98,85,0.0
-19,-108,91,0.0
-19,-111,92,0.0
-18,-107,87,0.0
-19,-118,93,0.0
-21,-128,99,0.0
-18,-115,87,0.0
-21,-133,97,0.0
-20,-133,95,0.0
-19,-130,91,0.0
-18,-129,88,0.0
-16,-117,78,0.0
-20,-145,95,0.0
-21,-154,98,0.0
-265,-2028,1268,0.0
-18,-138,84,0.0
-19,-146,86,0.0
-19,-155,90,0.0
-20,-163,92,0.0
-20,-175,96,0.0
-21,-181,96,0.0
-22,-194,102,0.0
-21,-195,99,0.0
-21,-203,101,0.0
-23,-218,105,0.0
-22,-226,106,0.0
-23,-243,111,0.0
-23,-244,108,0.0
-24,-256,110,0.0
-23,-265,110,0.0
-25,-281,114,0.0
-25,-292,115,0.0
-26,-323,123,0.0
-26,-330,122,0.0
-26,-336,119,0.0
-24,-330,114,0.0
-24,-337,112,0.0
-24,-340,109,0.0
-23,-335,103,0.0
-21,-339,100,0.0
-543,17032,16499,0.0
-512,14773,14618,0.0
-547,14596,14754,0.0
-1265,31308,32329,0.0
-1309,30197,31855,0.0
-1375,29655,31960,0.0
-1436,29032,31968,0.0
0,0,0,0.0
-1535,27514,31631,0.0
-1562,26449,31072,0.0
-1623,26012,31232,0.0
-1672,25419,31194,0.0
-1109,16014,20089,0.0
-1153,15833,20305,0.0
-1170,15281,20038,0.0
-1209,15054,20188,0.0
-1295,15394,21113,0.0
-1336,15164,21275,0.0
-1373,14896,21382,0.0
-1976,20514,30134,0.0
-2036,20232,30421,0.0
-2052,19533,30067,0.0
-2141,19537,30798,0.0
-2197,19221,31034,0.0
0,0,0,0.0
-2470,19895,33729,0.0
-1987,15360,26697,0.0
-2156,16007,28531,0.0
-2120,15116,27642,0.0
-2163,14813,27798,0.0
-2185,14373,27692,0.0
-2209,13960,27625,0.0
-2251,13666,27788,0.0
-2268,13231,27656,0.0
-2272,12728,27364,0.0
-2220,11945,26429,0.0
-2314,11958,27242,0.0
-2632,13052,30636,0.0
-2537,12079,29228,0.0
-2832,12934,32287,0.0
-2849,12477,32157,0.0
-2878,12079,32164,0.0
-2877,11569,31855,0.0
-2159,8312,23688,0.0
-2931,10797,31877,0.0
-2280,8028,24579,0.0
-2299,7732,24578,0.0
-2318,7440,24581,0.0
-2322,7104,24430,0.0
-2338,6809,24403,0.0
-2344,6489,24279,0.0
-2354,6188,24208,0.0
-2366,5897,24164,0.0
-2373,5596,24071,0.0
-2382,5306,24002,0.0
-2390,5014,23921,0.0
-2397,4724,23831,0.0
-2404,4441,23759,0.0
-2411,4159,23683,0.0
-2420,3885,23630,0.0
-2427,3611,23568,0.0
-2434,3338,23503,0.0
-2330,2930,22385,0.0
-2401,2749,22939,0.0
-2368,2447,22505,0.0
-2361,2182,22332,0.0
-2417,1971,22748,0.0
-2461,1744,23053,0.0
-2468,1489,23017,0.0
-2471,1232,22936,0.0
-2475,979,22871,0.0
-2478,725,22811,0.0
-2481,474,22743,0.0
-2484,225,22676,0.0
-2486,-22,22609,0.0
-2488,-268,22536,0.0
-2488,-513,22460,0.0
-2492,-757,22420,0.0
-2494,-1001,22354,0.0
-2495,-1242,22283,0.0
-2496,-1482,22223,0.0
-2497,-1722,22160,0.0
-2495,-1959,22081,0.0
-2495,-2197,22017,0.0
-2494,-2432,21943,0.0
-2496,-2670,21897,0.0
-2497,-2908,21853,0.0
-2495,-3140,21776,0.0
-2494,-3373,21704,0.0
-2456,-3555,21335,0.0
-2453,-3782,21254,0.0
-2477,-4052,21409,0.0
-2487,-4303,21450,0.0
-2483,-4530,21364,0.0
-2475,-4751,21261,0.0
-2465,-4969,21140,0.0
-2477,-5228,21199,0.0
-2475,-5460,21146,0.0
-2470,-5686,21064,0.0
-2470,-5926,21037,0.0
-2465,-6153,20961,0.0
-2464,-6393,20927,0.0
-2459,-6621,20857,0.0
-2400,-6702,20336,0.0
-2383,-6890,20161,0.0
-2378,-7116,20101,0.0
-2433,-7526,20542,0.0
-2442,-7804,20600,0.0
-2403,-7928,20256,0.0
-2378,-8093,20028,0.0
-2400,-8420,20200,0.0
-2422,-8756,20376,0.0
-2417,-9002,20331,0.0
-2412,-9243,20275,0.0
-2405,-9485,20217,0.0
-2331,-9456,19595,0.0
-2321,-9674,19501,0.0
-2382,-10206,20019,0.0
-2384,-10493,20041,0.0
-2379,-10754,20004,0.0
-2373,-11010,19954,0.0
-2365,-11266,19901,0.0
-2359,-11530,19858,0.0
-2351,-11793,19809,0.0
-2344,-12061,19765,0.0
-2316,-12219,19541,0.0
-2261,-12234,19098,0.0
-2252,-12495,19046,0.0
-2242,-12756,18989,0.0
-2301,-13414,19506,0.0
-2290,-13688,19447,0.0
-2281,-13977,19404,0.0
-2270,-14255,19343,0.0
-2262,-14558,19310,0.0
-2249,-14845,19249,0.0
-2240,-15153,19213,0.0
-2226,-15436,19138,0.0
-2214,-15734,19079,0.0
-2202,-16040,19024,0.0
-2187,-16341,18958,0.0
-2176,-16667,18917,0.0
-2160,-16966,18838,0.0
-2147,-17304,18798,0.0
-2130,-17608,18715,0.0
-2117,-17948,18666,0.0
-2100,-18279,18602,0.0
-2084,-18610,18531,0.0
-2068,-18972,18485,0.0
-2049,-19297,18397,0.0
-9,-87,80,0.0
-8,-85,78,0.0
-10,-96,86,0.0
-9,-91,79,0.0
-10,-108,93,0.0
-10,-109,91,0.0
-9,-101,82,0.0
-9,-100,80,0.0
-10,-115,90,0.0
-10,-117,89,0.0
-9,-121,91,0.0
-10,-127,92,0.0
-9,-130,94,0.0
-8,-123,86,0.0
-134,-1981,1352,0.0
-132,-2016,1344,0.0
-127,-2012,1310,0.0
-130,-2123,1350,0.0
-124,-2112,1312,0.0
-9,-162,98,0.0
-9,-168,99,0.0
-8,-159,91,0.0
-8,-168,94,0.0
-8,-169,93,0.0
-8,-183,98,0.0
-9,-199,103,0.0
-8,-198,100,0.0
-8,-203,100,0.0
-8,-220,105,0.0
-8,-225,105,0.0
-8,-240,109,0.0
-7,-252,111,0.0
-7,-256,109,0.0
-8,-271,113,0.0
-7,-275,110,0.0
-6,-302,118,0.0
-6,-314,118,0.0
-7,-340,124,0.0
-5,-338,119,0.0
-5,-339,116,0.0
-4,-346,114,0.0
-4,-348,110,0.0
-3,-341,105,0.0
294,16316,15925,0.0
256,16000,15951,0.0
229,16460,16763,0.0
165,14024,14590,0.0
155,16133,17146,0.0
118,15993,17365,0.0
82,15659,17371,0.0
53,17865,20250,0.0
11,17617,20405,0.0
-29,17274,20445,0.0
-68,16733,20241,0.0
-107,16467,20360,0.0
-146,16215,20493,0.0
-184,15915,20564,0.0
-219,15530,20518,0.0
-258,15414,20825,0.0
-301,15462,21367,0.0
-334,15067,21298,0.0
-372,14848,21475,0.0
-579,20703,30643,0.0
-623,20155,30535,0.0
-664,19563,30344,0.0
-719,19380,30784,0.0
-765,18985,30891,0.0
-881,20199,33673,0.0
-924,19662,33593,0.0
-762,15095,26441,0.0
-795,14677,26365,0.0
-866,14953,27559,0.0
-904,14649,27709,0.0
-936,14241,27655,0.0
-966,13827,27579,0.0
-960,12952,26546,0.0
-1010,12848,27074,0.0
-1050,12610,27331,0.0
-1077,12227,27273,0.0
-1099,11805,27116,0.0
-1274,12956,30661,0.0
-1333,12829,31302,0.0
-1407,12833,32307,0.0
-1432,12377,32169,0.0
-1455,11913,31996,0.0
-1478,11465,31846,0.0
0,0,0,0.0
-1178,8211,24457,0.0
-1208,7974,24632,0.0
-1224,7646,24528,0.0
-1240,7339,24473,0.0
-1256,7025,24384,0.0
-1273,6731,24355,0.0
-1285,6412,24224,0.0
-1300,6122,24186,0.0
-1315,5829,24126,0.0
-1327,5532,24037,0.0
-1339,5241,23960,0.0
-1352,4955,23894,0.0
-1363,4668,23809,0.0
-1373,4383,23718,0.0
-1385,4110,23676,0.0
-1345,3693,22739,0.0
-1398,3543,23420,0.0
-1346,3130,22327,0.0
-1358,2880,22306,0.0
-1360,2616,22151,0.0
-1387,2398,22395,0.0
-1387,2134,22204,0.0
-1400,1894,22244,0.0
-1405,1644,22152,0.0
-1409,1395,22052,0.0
-1437,1170,22342,0.0
-1462,935,22559,0.0
-1484,696,22760,0.0
-1493,448,22734,0.0
-1495,200,22637,0.0
-1501,-45,22591,0.0
-1505,-291,22533,0.0
-1508,-534,22449,0.0
-1512,-776,22396,0.0
-1516,-1018,22353,0.0
-1518,-1257,22271,0.0
-1520,-1496,22210,0.0
-1521,-1734,22141,0.0
-1523,-1970,22070,0.0
-1525,-2207,22021,0.0
-1527,-2442,21959,0.0
-1527,-2676,21885,0.0
-1528,-2909,21823,0.0
-1527,-3141,21755,0.0
-1526,-3372,21679,0.0
-1458,-3443,20655,0.0
-1462,-3675,20653,0.0
-1456,-3885,20537,0.0
-1525,-4301,21459,0.0
-1522,-4526,21371,0.0
-1518,-4752,21289,0.0
-1518,-4989,21262,0.0
-1518,-5222,21215,0.0
-1512,-5445,21130,0.0
-1511,-5675,21076,0.0
-1507,-5904,21008,0.0
-1504,-6136,20957,0.0
-1502,-6377,20934,0.0
-1498,-6604,20860,0.0
-1494,-6840,20817,0.0
-1489,-7072,20760,0.0
-1483,-7300,20688,0.0
-1480,-7543,20659,0.0
-1475,-7779,20606,0.0
-1468,-8009,20538,0.0
-1464,-8252,20497,0.0
-1457,-8485,20433,0.0
-1451,-8726,20386,0.0
-1444,-8968,20336,0.0
-1436,-9198,20258,0.0
-1429,-9447,20222,0.0
-1415,-9644,20071,0.0
-1412,-9928,20099,0.0
-1406,-10189,20076,0.0
-1397,-10435,20018,0.0
-1389,-10696,19987,0.0
-1382,-10959,19956,0.0
-1372,-11216,19908,0.0
-1362,-11473,19856,0.0
-1351,-11732,19804,0.0
-1341,-11989,19746,0.0
-1330,-12258,19704,0.0
-1320,-12535,19669,0.0
-1308,-12814,19634,0.0
-1296,-13085,19581,0.0
-1284,-13360,19531,0.0
-1270,-13627,19464,0.0
-1256,-13895,19396,0.0
-1207,-13796,18824,0.0
-1218,-14366,19162,0.0
-1212,-14768,19259,0.0
-1197,-15060,19205,0.0
-1180,-15344,19136,0.0
-1164,-15654,19095,0.0
-1147,-15950,19031,0.0
-1130,-16268,18988,0.0
-1110,-16561,18911,0.0
-1091,-16871,18849,0.0
-1072,-17192,18793,0.0
-1052,-17514,18734,0.0
-1032,-17828,18661,0.0
-1010,-18154,18595,0.0
-989,-18518,18561,0.0
-966,-18846,18485,0.0
-943,-19185,18414,0.0
-919,-19543,18355,0.0
-894,-19910,18299,0.0
-3,-82,74,0.0
-4,-97,85,0.0
-4,-97,83,0.0
-3,-100,84,0.0
-3,-105,86,0.0
-4,-108,88,0.0
-3,-114,90,0.0
-3,-109,85,0.0
-4,-124,92,0.0
-3,-118,88,0.0
-2,-123,88,0.0
-43,-1991,1402,0.0
-38,-1972,1357,0.0
-36,-2005,1349,0.0
-32,-2000,1313,0.0
-29,-2062,1322,0.0
-25,-2052,1285,0.0
-21,-2077,1270,0.0
-18,-2075,1239,0.0
-1,-171,99,0.0
0,-180,101,0.0
0,-167,92,0.0
0,-173,94,0.0
0,-193,101,0.0
0,-193,99,0.0
0,-217,108,0.0
0,-219,106,0.0
1,-231,108,0.0
1,-237,109,0.0
2,-253,112,0.0
3,-265,115,0.0
2,-259,108,0.0
3,-274,112,0.0
4,-288,114,0.0
5,-303,116,0.0
6,-336,124,0.0
7,-341,122,0.0
7,-346,120,0.0
8,-350,117,0.0
9,-344,111,0.0
9,-347,108,0.0
1217,14984,14719,0.0
1149,14361,14411,0.0
1096,13887,14234,0.0
1074,13817,14468,0.0
1059,13822,14786,0.0
1029,13644,14911,0.0
1099,14796,16519,0.0
1075,14712,16783,0.0
976,13565,15813,0.0
949,13424,15992,0.0
919,13210,16083,0.0
1287,18825,23427,0.0
1258,18733,23832,0.0
1228,18620,24218,0.0
1203,18583,24715,0.0
1160,18268,24845,0.0
968,15543,21622,0.0
897,14704,20924,0.0
877,14688,21386,0.0
1183,20211,30116,0.0
1148,20057,30593,0.0
948,16949,26468,0.0
917,16789,26850,0.0
870,16331,26752,0.0
833,16040,26923,0.0
795,15731,27063,0.0
747,15193,26797,0.0
698,14590,26392,0.0
657,14166,26290,0.0
606,13475,25667,0.0
579,13333,26074,0.0
549,13094,26305,0.0
547,13542,27955,0.0
524,13465,28578,0.0
446,11969,26132,0.0
423,11862,26652,0.0
398,11701,27075,0.0
421,13035,31077,0.0
393,12865,31626,0.0
365,12701,32215,0.0
330,12262,32112,0.0
295,11797,31927,0.0
262,11371,31827,0.0
171,8152,23621,0.0
197,10474,31447,0.0
132,7916,24652,0.0
108,7583,24524,0.0
87,7280,24478,0.0
65,6965,24379,0.0
45,6670,24341,0.0
25,6359,24232,0.0
5,6061,24154,0.0
-12,5768,24089,0.0
-30,5477,24020,0.0
-47,5193,23964,0.0
-64,4906,23882,0.0
-80,4621,23799,0.0
-95,4342,23731,0.0
-110,4065,23663,0.0
-125,3794,23612,0.0
-139,3518,23512,0.0
-144,3083,22252,0.0
-157,2838,22245,0.0
-168,2586,22183,0.0
-182,2377,22503,0.0
-193,2126,22439,0.0
-204,1882,22464,0.0
-215,1641,22495,0.0
-230,1427,22980,0.0
-239,1173,22902,0.0
-248,922,22835,0.0
-256,673,22749,0.0
-264,425,22707,0.0
-271,179,22652,0.0
-277,-65,22563,0.0
-284,-308,22497,0.0
-290,-550,22446,0.0
-296,-791,22396,0.0
-301,-1029,22304,0.0
-306,-1269,22262,0.0
-310,-1507,22222,0.0
-313,-1741,22123,0.0
-318,-1979,22079,0.0
-320,-2214,22017,0.0
-323,-2445,21941,0.0
-324,-2678,21874,0.0
-326,-2911,21817,0.0
-328,-3141,21746,0.0
-330,-3376,21709,0.0
-330,-3601,21617,0.0
-330,-3831,21553,0.0
-330,-4064,21509,0.0
-329,-4295,21454,0.0
-328,-4525,21403,0.0
-327,-4754,21341,0.0
-325,-4978,21261,0.0
-323,-5208,21207,0.0
-320,-5433,21139,0.0
-317,-5661,21076,0.0
-314,-5889,21018,0.0
-310,-6118,20958,0.0
-305,-6321,20815,0.0
-294,-6399,20278,0.0
-288,-6618,20208,0.0
-284,-6847,20168,0.0
-286,-7272,20681,0.0
-280,-7509,20642,0.0
-274,-7747,20598,0.0
-268,-7979,20539,0.0
-260,-8220,20500,0.0
-252,-8459,20454,0.0
-244,-8697,20401,0.0
-236,-8921,20317,0.0
-227,-9159,20259,0.0
-217,-9393,20194,0.0
-207,-9650,20172,0.0
-198,-9892,20116,0.0
-186,-10139,20070,0.0
-175,-10395,20034,0.0
-164,-10642,19980,0.0
-152,-10897,19936,0.0
-140,-11156,19896,0.0
-126,-11400,19826,0.0
-113,-11669,19796,0.0
-99,-11920,19731,0.0
-84,-12192,19698,0.0
-69,-12452,19640,0.0
-53,-12737,19618,0.0
-36,-12990,19542,0.0
-19,-13265,19496,0.0
-2,-13542,19448,0.0
15,-13824,19402,0.0
34,-14061,19291,0.0
52,-14166,19000,0.0
72,-14477,18985,0.0
94,-14932,19150,0.0
115,-15227,19099,0.0
137,-15546,19073,0.0
159,-15852,19026,0.0
184,-16144,18955,0.0
208,-16458,18906,0.0
232,-16759,18837,0.0
258,-17074,18779,0.0
284,-17384,18711,0.0
311,-17707,18650,0.0
340,-18040,18595,0.0
369,-18374,18534,0.0
398,-18704,18464,0.0
429,-19041,18396,0.0
461,-19396,18338,0.0
494,-19741,18265,0.0
528,-20129,18223,0.0
562,-20482,18146,0.0
597,-20832,18059,0.0
2,-86,73,0.0
2,-96,80,0.0
2,-92,75,0.0
3,-101,80,0.0
3,-98,75,0.0
834,-23159,17587,0.0
873,-23442,17408,0.0
72,-1885,1368,0.0
77,-1968,1396,0.0
80,-1977,1371,0.0
83,-1979,1342,0.0
86,-1994,1321,0.0
88,-1988,1286,0.0
92,-2028,1281,0.0
97,-2067,1274,0.0
95,-1990,1198,0.0
102,-2092,1228,0.0
7,-141,80,0.0
7,-147,81,0.0
8,-164,89,0.0
8,-163,87,0.0
10,-177,91,0.0
10,-188,95,0.0
10,-198,97,0.0
13,-219,104,0.0
13,-216,100,0.0
13,-225,101,0.0
14,-235,103,0.0
15,-243,102,0.0
15,-251,103,0.0
17,-267,106,0.0
18,-271,105,0.0
21,-320,120,0.0
23,-336,122,0.0
24,-341,119,0.0
24,-335,113,0.0
25,-337,110,0.0
25,-340,107,0.0
2040,14068,13866,0.0
2021,13957,14052,0.0
2106,14568,14982,0.0
2000,13844,14543,0.0
1994,13822,14834,0.0
1985,13765,15093,0.0
2065,14326,16049,0.0
1839,12764,14611,0.0
1829,12700,14855,0.0
2038,14155,16920,0.0
2049,14223,17376,0.0
2051,14233,17774,0.0
2049,14208,18137,0.0
2050,14207,18542,0.0
1802,12480,16656,0.0
2064,14262,19466,0.0
2055,14176,19790,0.0
2046,14091,20123,0.0
2045,14054,20536,0.0
1844,12642,18907,0.0
1839,12567,19239,0.0
1833,12486,19570,0.0
1830,12425,19943,0.0
1824,12335,20282,0.0
1820,12258,20654,0.0
1816,12173,21021,0.0
1812,12078,21385,0.0
1809,11991,21775,0.0
1808,11908,22186,0.0
1806,11821,22604,0.0
1804,11715,23001,0.0
1802,11623,23440,0.0
1803,11525,23885,0.0
1802,11420,24336,0.0
1804,11326,24827,0.0
1806,11221,25315,0.0
1805,11092,25770,0.0
1807,10974,26272,0.0
1808,10847,26777,0.0
2135,12633,32179,0.0
2093,12212,32119,0.0
2044,11742,31913,0.0
1483,8384,23569,0.0
1485,8253,24018,0.0
1495,8151,24578,0.0
1466,7842,24530,0.0
1441,7542,24498,0.0
1411,7220,24385,0.0
1386,6924,24350,0.0
1360,6623,24281,0.0
1333,6316,24182,0.0
1309,6020,24112,0.0
1287,5736,24073,0.0
1183,5095,22456,0.0
1205,5002,23201,0.0
1218,4864,23805,0.0
1199,4587,23751,0.0
1179,4312,23699,0.0
1159,4033,23606,0.0
1141,3761,23539,0.0
1124,3492,23478,0.0
1105,3217,23361,0.0
1045,2836,22374,0.0
1058,2657,22943,0.0
1027,2360,22498,0.0
1001,2086,22187,0.0
997,1857,22329,0.0
1007,1647,22784,0.0
1003,1409,22919,0.0
982,1147,22644,0.0
976,904,22696,0.0
969,660,22723,0.0
959,415,22678,0.0
950,170,22619,0.0
936,-72,22443,0.0
930,-315,22444,0.0
856,-515,20792,0.0
886,-769,21629,0.0
881,-1002,21610,0.0
871,-1228,21479,0.0
877,-1476,21710,0.0
889,-1740,22073,0.0
885,-1976,22042,0.0
880,-2206,21946,0.0
877,-2443,21922,0.0
873,-2672,21841,0.0
870,-2903,21781,0.0
868,-3134,21720,0.0
865,-3365,21666,0.0
864,-3597,21620,0.0
864,-3826,21561,0.0
862,-4051,21478,0.0
862,-4279,21420,0.0
862,-4505,21354,0.0
862,-4730,21278,0.0
865,-4960,21230,0.0
865,-5179,21140,0.0
866,-5394,21037,0.0
872,-5639,21048,0.0
873,-5858,20959,0.0
871,-6043,20754,0.0
881,-6306,20822,0.0
888,-6553,20825,0.0
858,-6508,19929,0.0
880,-6862,20269,0.0
906,-7240,20655,0.0
913,-7475,20608,0.0
921,-7710,20566,0.0
930,-7943,20512,0.0
937,-8171,20443,0.0
948,-8420,20422,0.0
957,-8652,20363,0.0
967,-8886,20301,0.0
972,-9061,20109,0.0
988,-9350,20168,0.0
999,-9574,20083,0.0
1002,-9725,19845,0.0
1022,-10039,19938,0.0
1042,-10344,20006,0.0
1056,-10589,19951,0.0
1072,-10852,19924,0.0
1088,-11105,19876,0.0
1104,-11356,19821,0.0
1121,-11612,19770,0.0
1138,-11871,19722,0.0
1155,-12115,19646,0.0
1155,-12179,19282,0.0
1121,-11868,18348,0.0
1135,-12066,18222,0.0
1155,-12319,18174,0.0
1173,-12548,18090,0.0
1198,-12843,18097,0.0
1216,-13070,18001,0.0
1240,-13344,17967,0.0
1260,-13574,17872,0.0
1281,-13819,17793,0.0
1307,-14102,17760,0.0
1332,-14360,17689,0.0
1359,-14639,17642,0.0
1383,-14897,17564,0.0
1386,-14914,17205,0.0
1394,-14971,16898,0.0
1576,-16890,18656,0.0
1420,-15195,16425,0.0
1448,-15459,16353,0.0
1478,-15739,16293,0.0
1511,-16039,16250,0.0
1541,-16317,16178,0.0
1574,-16601,16110,0.0
1609,-16907,16056,0.0
1644,-17208,15992,0.0
1678,-17501,15918,0.0
1716,-17824,15863,0.0
1754,-18129,15788,0.0
1788,-18394,15673,0.0
1832,-18764,15642,0.0
1873,-19085,15565,0.0
1916,-19421,15494,0.0
1960,-19763,15422,0.0
2004,-20103,15342,0.0
2048,-20426,15242,0.0
2098,-20802,15177,0.0
2148,-21174,15102,0.0
2197,-21537,15014,0.0
2248,-21899,14920,0.0
2294,-22211,14784,0.0
203,-1956,1272,0.0
217,-2078,1319,0.0
216,-2057,1274,0.0
220,-2083,1260,0.0
218,-2051,1212,0.0
223,-2087,1202,0.0
18,-169,94,0.0
17,-168,92,0.0
19,-178,94,0.0
21,-198,103,0.0
22,-199,100,0.0
23,-212,104,0.0
26,-236,112,0.0
26,-238,111,0.0
28,-252,114,0.0
29,-256,112,0.0
30,-259,111,0.0
31,-268,111,0.0
33,-283,114,0.0
34,-294,115,0.0
38,-322,121,0.0
41,-342,124,0.0
41,-344,121,0.0
42,-342,116,0.0
42,-341,112,0.0
43,-353,112,0.0
-4743,16702,15015,0.0
-4837,16655,15298,0.0
-4905,16514,15498,0.0
-5015,16510,15832,0.0
-5027,16183,15855,0.0
-5147,16201,16220,0.0
-5181,15941,16309,0.0
-5162,15531,16236,0.0
-5904,17362,18550,0.0
-6044,17376,18973,0.0
-6028,16937,18901,0.0
-5824,15992,18243,0.0
-5960,15995,18653,0.0
-5731,15026,17914,0.0
-5989,15341,18702,0.0
-6012,15044,18755,0.0
-6035,14751,18807,0.0
-10082,24063,31384,0.0
-10095,23525,31390,0.0
-9811,22320,30474,0.0
-9780,21714,30343,0.0
-9767,21161,30270,0.0
-9981,21096,30897,0.0
-9818,20240,30359,0.0
-9893,19884,30554,0.0
-10060,19710,31033,0.0
-10096,19278,31111,0.0
-11022,20501,33919,0.0
-10984,19896,33761,0.0
-10964,19334,33660,0.0
-10945,18782,33560,0.0
-10953,18286,33545,0.0
0,0,0,0.0
-10869,17147,33203,0.0
-9846,15090,30041,0.0
-10854,16150,33070,0.0
-9877,14263,30055,0.0
-9868,13820,29987,0.0
-9965,13527,30241,0.0
-10066,13235,30507,0.0
-10173,12947,30790,0.0
-10638,13096,32151,0.0
-10707,12739,32317,0.0
