//X,Y,Z,Classification
0,0,0,0.0
0,0,0,0.0
0,0,0,0.0
0,0,0,0.0
0,0,0,0.0
0,0,0,0.0
0,0,0,0.0
0,0,0,0.0
0,0,0,0.0
0,0,0,0.0
0,0,0,0.0
0,0,0,0.0
3778,-4771,33974,1.0
0,0,0,0.0
0,0,0,0.0
3732,-3632,33908,1.0
3702,-3243,33757,1.0
0,0,0,0.0
3611,-2458,33189,1.0
2749,-1600,25371,0.0
2607,-1259,24156,0.0
2487,-953,23141,0.0
2474,-700,23126,0.0
2474,-449,23234,0.0
2464,-195,23249,0.0
2460,58,23313,0.0
2453,313,23367,0.0
2447,569,23431,0.0
2444,829,23522,0.0
2434,1087,23552,0.0
2423,1347,23575,0.0
2417,1610,23658,0.0
2410,1874,23723,0.0
2403,2141,23793,0.0
2393,2409,23851,0.0
2384,2680,23918,0.0
2376,2953,23986,0.0
2365,3225,24041,0.0
2354,3500,24098,0.0
2345,3781,24173,0.0
2334,4061,24232,0.0
2318,4337,24254,0.0
2311,4631,24366,0.0
0,0,0,0.0
1,2,11,0.0
0,0,6,0.0
2,4,17,0.0
1,3,13,0.0
1,1,9,0.0
4,13,47,0.0
8,23,83,0.0
5,17,60,0.0
6,20,67,0.0
7,27,85,0.0
7,28,86,0.0
8,31,92,0.0
8,33,95,0.0
8,38,104,0.0
9,40,106,0.0
7,39,102,0.0
9,47,116,0.0
9,47,113,0.0
9,51,119,0.0
10,56,126,0.0
10,57,125,0.0
9,59,128,0.0
9,65,134,0.0
9,69,139,0.0
9,67,132,0.0
9,66,127,0.0
9,70,133,0.0
9,71,129,0.0
9,80,142,0.0
8,79,137,0.0
8,79,134,0.0
8,81,133,0.0
9,93,150,0.0
8,89,139,0.0
7,85,130,0.0
7,94,141,0.0
7,91,133,0.0
7,91,129,0.0
6,92,128,0.0
6,94,128,0.0
5,98,130,0.0
6,97,128,0.0
5,102,130,0.0
5,92,115,0.0
5,103,126,0.0
4,95,114,0.0
4,95,112,0.0
3,97,110,0.0
3,98,110,0.0
3,103,111,0.0
3,106,114,0.0
3,110,115,0.0
2,109,112,0.0
2,113,114,0.0
2,120,118,0.0
1,119,115,0.0
-4,-312,98,0.0
-3,-298,97,0.0
-2,-305,102,0.0
-2,-294,103,0.0
-1,-284,103,0.0
0,-282,106,0.0
0,-273,106,0.0
0,-277,111,0.0
1,-277,114,0.0
1,-278,118,0.0
1,-270,117,0.0
1,-272,122,0.0
3,-269,124,0.0
3,-269,128,0.0
4,-269,132,0.0
4,-273,137,0.0
5,-271,140,0.0
5,-274,145,0.0
6,-300,162,0.0
7,-296,165,0.0
8,-295,168,0.0
7,-278,163,0.0
7,-275,165,0.0
8,-261,160,0.0
8,-244,154,0.0
8,-240,155,0.0
9,-235,155,0.0
9,-235,159,0.0
9,-205,141,0.0
8,-194,138,0.0
8,-184,132,0.0
9,-182,135,0.0
8,-165,125,0.0
7,-138,107,0.0
5,-101,80,0.0
5,-92,74,0.0
5,-85,70,0.0
5,-89,76,0.0
1378,-21513,18626,0.0
1402,-21113,18683,0.0
1428,-20759,18775,0.0
1455,-20428,18881,0.0
1481,-20095,18981,0.0
1499,-19667,18983,0.0
1520,-19319,19056,0.0
1544,-19001,19152,0.0
1566,-18677,19238,0.0
1587,-18353,19318,0.0
1606,-18012,19378,0.0
1623,-17662,19418,0.0
1647,-17402,19555,0.0
1659,-17024,19552,0.0
1681,-16752,19668,0.0
1688,-16354,19627,0.0
1713,-16133,19795,0.0
1763,-16142,20251,0.0
1825,-16250,20847,0.0
1867,-16171,21216,0.0
1938,-16325,21908,0.0
2008,-16463,22601,0.0
2393,-19091,26816,1.0
0,0,0,0.0
0,0,0,0.0
2522,-18552,27944,1.0
0,0,0,0.0
0,0,0,0.0
0,0,0,0.0
0,0,0,0.0
0,0,0,0.0
0,0,0,0.0
0,0,0,0.0
0,0,0,0.0
0,0,0,0.0
2891,-16186,31292,1.0
0,0,0,0.0
2955,-15636,31909,1.0
2983,-15338,32182,1.0
0,0,0,0.0
0,0,0,0.0
0,0,0,0.0
0,0,0,0.0
0,0,0,0.0
0,0,0,0.0
0,0,0,0.0
3129,-12608,33738,1.0
0,0,0,0.0
0,0,0,0.0
0,0,0,0.0
0,0,0,0.0
0,0,0,0.0
0,0,0,0.0
0,0,0,0.0
3112,-9393,33874,1.0
0,0,0,0.0
0,0,0,0.0
3092,-8204,33847,1.0
0,0,0,0.0
0,0,0,0.0
3073,-7051,33888,1.0
0,0,0,0.0
3071,-6318,34067,1.0
0,0,0,0.0
3039,-5529,33922,1.0
3021,-5138,33840,1.0
0,0,0,0.0
0,0,0,0.0
0,0,0,0.0
2942,-3596,33451,1.0
2916,-3213,33293,1.0
2885,-2830,33090,1.0
2852,-2449,32854,1.0
2207,-1624,25540,0.0
2072,-1270,24101,0.0
1986,-970,23205,0.0
1967,-713,23117,0.0
1962,-464,23178,0.0
1955,-211,23237,0.0
1948,41,23277,0.0
1944,295,23379,0.0
1936,550,23424,0.0
1931,808,23511,0.0
1923,1067,23565,0.0
1914,1328,23621,0.0
1905,1589,23682,0.0
1896,1853,23746,0.0
1887,2119,23816,0.0
1875,2383,23845,0.0
1864,2650,23892,0.0
1855,2925,23983,0.0
1845,3200,24058,0.0
1831,3473,24104,0.0
1820,3750,24167,0.0
1806,4028,24216,0.0
1795,4315,24305,0.0
1783,4603,24386,0.0
1767,4888,24437,0.0
1,2,15,0.0
1,3,17,0.0
0,2,11,0.0
2,8,35,0.0
0,2,11,0.0
2,9,35,0.0
4,20,74,0.0
5,20,72,0.0
6,28,94,0.0
6,26,83,0.0
6,32,99,0.0
6,31,93,0.0
7,40,115,0.0
6,37,103,0.0
7,41,112,0.0
6,41,105,0.0
6,43,108,0.0
7,51,126,0.0
7,56,130,0.0
7,56,128,0.0
7,55,121,0.0
7,63,135,0.0
7,63,132,0.0
7,69,142,0.0
5,67,131,0.0
6,70,134,0.0
6,77,145,0.0
7,83,152,0.0
6,79,140,0.0
6,87,151,0.0
5,87,147,0.0
5,80,134,0.0
5,91,149,0.0
4,85,135,0.0
4,87,134,0.0
4,97,146,0.0
4,96,142,0.0
3,95,136,0.0
4,100,141,0.0
3,98,135,0.0
2,100,136,0.0
2,99,131,0.0
3,103,133,0.0
2,105,131,0.0
2,102,125,0.0
1,103,124,0.0
1,110,130,0.0
0,109,125,0.0
1,110,123,0.0
0,108,119,0.0
0,114,124,0.0
0,112,119,0.0
0,116,120,0.0
0,116,117,0.0
0,119,117,0.0
-1,124,121,0.0
-27,-347,112,0.0
-26,-335,111,0.0
-25,-336,116,0.0
-23,-314,111,0.0
-23,-314,116,0.0
-22,-306,117,0.0
-21,-305,119,0.0
-20,-299,121,0.0
-18,-285,119,0.0
-18,-277,118,0.0
-17,-274,122,0.0
-17,-275,126,0.0
-17,-280,131,0.0
-16,-277,134,0.0
-16,-274,135,0.0
-16,-270,137,0.0
-15,-278,145,0.0
-16,-294,158,0.0
-16,-310,170,0.0
-15,-285,160,0.0
-13,-264,152,0.0
-13,-265,157,0.0
-11,-235,143,0.0
-11,-244,151,0.0
-10,-236,150,0.0
-9,-216,141,0.0
-8,-204,136,0.0
-7,-196,133,0.0
-7,-186,130,0.0
-7,-175,125,0.0
-6,-178,131,0.0
-74,-1931,1447,0.0
0,0,0,0.0
0,0,0,0.0
0,0,0,0.0
-840,-24769,20279,0.0
-814,-24921,20855,0.0
-772,-24523,20976,0.0
-727,-24065,21036,0.0
-685,-23651,21128,0.0
-644,-23205,21182,0.0
-605,-22814,21281,0.0
-566,-22398,21349,0.0
-528,-21961,21388,0.0
-493,-21594,21489,0.0
-456,-21176,21532,0.0
-424,-20860,21674,0.0
-390,-20429,21688,0.0
-358,-20059,21761,0.0
-327,-19678,21815,0.0
-297,-19292,21856,0.0
-268,-18921,21907,0.0
-240,-18608,22019,0.0
-212,-18214,22033,0.0
-188,-17946,22191,0.0
-162,-17568,22208,0.0
-137,-17267,22318,0.0
-113,-16870,22298,0.0
-89,-16404,22175,0.0
-67,-16208,22412,0.0
-45,-15486,21907,0.0
-25,-15008,21724,0.0
-6,-15145,22436,0.0
12,-14961,22687,0.0
31,-14656,22755,0.0
48,-14328,22782,0.0
65,-13969,22751,0.0
82,-13759,22962,0.0
98,-13443,22994,0.0
112,-13124,23015,0.0
126,-12794,23009,0.0
141,-12541,23138,0.0
155,-12259,23213,0.0
167,-11944,23219,0.0
179,-11660,23279,0.0
186,-11119,22812,0.0
200,-11061,23328,0.0
211,-10757,23333,0.0
219,-10433,23289,0.0
224,-9945,22860,0.0
239,-9957,23580,0.0
234,-9171,22387,0.0
241,-8889,22386,0.0
248,-8646,22478,0.0
253,-8369,22480,0.0
274,-8575,23815,0.0
271,-8079,23220,0.0
283,-7990,23788,0.0
283,-7609,23492,0.0
279,-7145,22902,0.0
287,-7026,23402,0.0
291,-6795,23554,0.0
301,-6704,24217,0.0
305,-6475,24411,0.0
306,-6202,24447,0.0
307,-5940,24521,0.0
308,-5673,24574,0.0
309,-5425,24709,0.0
308,-5157,24762,0.0
307,-4890,24818,0.0
305,-4621,24864,0.0
298,-4281,24503,0.0
293,-3992,24407,0.0
297,-3825,25076,0.0
295,-3558,25142,0.0
291,-3297,25263,0.0
286,-3021,25274,0.0
276,-2704,24899,0.0
271,-2445,25030,0.0
264,-2171,25019,0.0
263,-1942,25587,0.0
253,-1653,25396,0.0
247,-1387,25578,0.0
240,-1121,25808,0.0
232,-842,25817,0.0
221,-566,25924,0.0
212,-287,26014,0.0
190,-6,24535,0.0
190,274,26132,0.0
178,554,26013,0.0
163,819,25528,0.0
150,1102,25698,0.0
136,1373,25558,0.0
126,1701,26345,0.0
112,2006,26616,0.0
97,2301,26688,0.0
81,2598,26752,0.0
64,2899,26835,0.0
48,3204,26943,0.0
29,3510,27025,0.0
11,3817,27094,0.0
-8,4125,27162,0.0
-28,4438,27236,0.0
-49,4753,27310,0.0
-70,5073,27398,0.0
-92,5391,27461,0.0
-115,5716,27537,0.0
-139,6037,27589,0.0
-164,6371,27678,0.0
-190,6705,27763,0.0
-258,8425,33303,0.0
-283,8597,32506,0.0
0,18,67,0.0
0,18,64,0.0
0,19,64,0.0
0,22,74,0.0
-1,28,88,0.0
0,24,74,0.0
-1,33,97,0.0
-1,36,99,0.0
-1,31,85,0.0
-1,40,105,0.0
-2,39,99,0.0
-2,46,113,0.0
-2,49,117,0.0
-2,50,116,0.0
-2,51,117,0.0
-2,56,123,0.0
-3,60,126,0.0
-3,61,125,0.0
-3,68,138,0.0
-4,69,135,0.0
-4,72,136,0.0
-4,71,132,0.0
-5,83,150,0.0
-5,87,154,0.0
-6,86,149,0.0
-6,89,149,0.0
-6,96,156,0.0
-7,95,151,0.0
-7,92,143,0.0
-8,103,157,0.0
-8,102,152,0.0
-7,103,150,0.0
-8,105,148,0.0
-8,107,148,0.0
-8,107,145,0.0
-8,106,141,0.0
-9,114,149,0.0
-10,114,144,0.0
-9,111,138,0.0
-9,112,136,0.0
-9,108,129,0.0
-9,110,129,0.0
-10,112,127,0.0
-10,109,121,0.0
-10,113,124,0.0
-11,120,128,0.0
-11,120,125,0.0
-12,126,130,0.0
-12,126,126,0.0
-12,125,122,0.0
-39,-335,108,0.0
-39,-338,113,0.0
-38,-332,115,0.0
-36,-320,115,0.0
-36,-321,119,0.0
-34,-314,120,0.0
-35,-326,128,0.0
-31,-290,118,0.0
-31,-291,122,0.0
-30,-288,124,0.0
-30,-284,127,0.0
-30,-285,131,0.0
-29,-276,130,0.0
-28,-270,131,0.0
-29,-286,143,0.0
-30,-292,149,0.0
-31,-304,159,0.0
-29,-297,159,0.0
-28,-285,157,0.0
-26,-269,153,0.0
-24,-259,150,0.0
-23,-238,141,0.0
-22,-236,144,0.0
-21,-224,139,0.0
-19,-208,133,0.0
-18,-200,131,0.0
-188,-2034,1365,0.0
-16,-181,124,0.0
0,0,0,0.0
0,0,0,0.0
0,0,0,0.0
0,0,0,0.0
0,0,0,0.0
0,0,0,0.0
-2146,-24645,19809,0.0
-2137,-24734,20322,0.0
-2129,-24813,20838,0.0
-2081,-24442,20978,0.0
-2025,-23953,21010,0.0
-1979,-23568,21124,0.0
-1925,-23082,21141,0.0
-1882,-22726,21268,0.0
-1835,-22301,21326,0.0
-1793,-21928,21425,0.0
-1748,-21509,21473,0.0
-1707,-21132,21554,0.0
-1670,-20785,21663,0.0
-1631,-20399,21723,0.0
-1585,-19945,21702,0.0
-1553,-19628,21824,0.0
-1517,-19270,21895,0.0
-1481,-18891,21936,0.0
-1447,-18527,21987,0.0
-1416,-18198,22075,0.0
-1388,-17883,22176,0.0
-1353,-17500,22183,0.0
-1325,-17163,22246,0.0
-1298,-16857,22341,0.0
-1267,-16483,22342,0.0
-1241,-16158,22402,0.0
-1214,-15826,22447,0.0
-1193,-15549,22565,0.0
-1167,-15206,22584,0.0
-1144,-14888,22633,0.0
-1125,-14625,22764,0.0
-1102,-14300,22793,0.0
-1078,-13946,22770,0.0
-1061,-13671,22869,0.0
-1042,-13364,22911,0.0
-1024,-13077,22983,0.0
-1007,-12785,23043,0.0
-988,-12469,23053,0.0
-974,-12207,23162,0.0
-957,-11892,23165,0.0
-943,-11614,23236,0.0
-929,-11326,23283,0.0
-916,-11039,23328,0.0
-904,-10774,23415,0.0
-892,-10488,23454,0.0
-880,-10200,23485,0.0
-870,-9932,23560,0.0
-861,-9664,23631,0.0
-852,-9389,23681,0.0
-845,-9136,23787,0.0
-837,-8868,23853,0.0
-831,-8596,23904,0.0
-805,-8131,23399,0.0
-798,-7862,23433,0.0
-793,-7598,23482,0.0
-805,-7502,24064,0.0
-803,-7258,24197,0.0
-801,-6999,24277,0.0
-799,-6739,24359,0.0
-796,-6472,24413,0.0
-795,-6210,24485,0.0
-794,-5945,24545,0.0
-795,-5685,24623,0.0
-795,-5426,24707,0.0
-795,-5155,24744,0.0
-797,-4897,24841,0.0
-799,-4627,24880,0.0
-801,-4365,24961,0.0
-805,-4102,25038,0.0
-808,-3836,25103,0.0
-814,-3570,25175,0.0
-818,-3301,25232,0.0
-824,-3037,25321,0.0
-813,-2710,24862,0.0
-821,-2450,24961,0.0
-835,-2205,25257,0.0
-852,-1955,25560,0.0
-861,-1684,25639,0.0
-870,-1410,25701,0.0
-879,-1135,25762,0.0
-890,-861,25845,0.0
-900,-584,25889,0.0
-913,-306,25952,0.0
-926,-26,26051,0.0
-939,254,26137,0.0
-943,530,25903,0.0
-938,795,25472,0.0
-955,1075,25602,0.0
-965,1347,25523,0.0
-975,1616,25435,0.0
-1030,1968,26478,0.0
-1052,2268,26626,0.0
-1073,2572,26778,0.0
-1092,2866,26809,0.0
-1111,3165,26869,0.0
-1133,3471,26964,0.0
-1158,3782,27083,0.0
-1178,4084,27113,0.0
-1204,4403,27238,0.0
-1227,4712,27280,0.0
-1253,5029,27358,0.0
-1280,5354,27459,0.0
-1306,5672,27513,0.0
-1333,5995,27576,0.0
-1364,6328,27672,0.0
-1392,6657,27734,0.0
-1388,6816,27107,0.0
-1703,8581,32637,0.0
-1698,8756,31904,0.0
-1700,8964,31334,0.0
-1727,9295,31218,0.0
-3,22,72,0.0
-3,18,59,0.0
-3,22,69,0.0
-4,24,72,0.0
-4,29,80,0.0
-5,33,90,0.0
-5,34,92,0.0
-6,41,105,0.0
-6,38,95,0.0
-6,42,102,0.0
-7,43,100,0.0
-7,47,108,0.0
-8,52,114,0.0
-8,55,116,0.0
-8,59,121,0.0
-10,64,129,0.0
-8,62,121,0.0
-10,69,133,0.0
-11,78,145,0.0
-11,79,142,0.0
-11,75,133,0.0
-12,84,145,0.0
-13,92,155,0.0
-14,92,151,0.0
-13,96,153,0.0
-14,96,151,0.0
-15,100,153,0.0
-14,100,150,0.0
-14,99,143,0.0
-15,107,152,0.0
-16,108,151,0.0
-16,107,147,0.0
-17,117,155,0.0
-16,115,150,0.0
-15,106,136,0.0
-17,117,146,0.0
-17,119,145,0.0
-16,114,135,0.0
-16,112,131,0.0
-16,111,126,0.0
-17,112,125,0.0
-18,119,131,0.0
-17,119,127,0.0
-17,119,124,0.0
-19,126,128,0.0
-19,129,130,0.0
-19,129,127,0.0
52,-264,72,0.0
52,-262,73,0.0
53,-263,77,0.0
54,-265,81,0.0
57,-269,85,0.0
57,-265,87,0.0
57,-264,89,0.0
58,-262,92,0.0
59,-264,96,0.0
59,-259,97,0.0
61,-263,102,0.0
61,-259,104,0.0
64,-262,109,0.0
64,-261,112,0.0
64,-257,113,0.0
66,-260,119,0.0
66,-258,120,0.0
68,-260,126,0.0
68,-258,127,0.0
71,-260,132,0.0
71,-258,135,0.0
70,-252,135,0.0
79,-279,153,0.0
80,-279,157,0.0
73,-251,145,0.0
71,-240,143,0.0
66,-218,133,0.0
65,-213,133,0.0
61,-196,126,0.0
57,-180,118,0.0
50,-158,106,0.0
55,-169,116,0.0
657,-1956,1378,0.0
0,0,0,0.0
0,0,0,0.0
0,0,0,0.0
8404,-23439,18134,0.0
8382,-22998,18208,0.0
8384,-22635,18335,0.0
8374,-22238,18430,0.0
8369,-21864,18537,0.0
8364,-21492,18640,0.0
8336,-21067,18689,0.0
8333,-20710,18793,0.0
8315,-20322,18863,0.0
8310,-19968,18957,0.0
8307,-19624,19056,0.0
8294,-19257,19126,0.0
8267,-18868,19168,0.0
8255,-18515,19239,0.0
8255,-18192,19336,0.0
8231,-17821,19378,0.0
8223,-17490,19455,0.0
8200,-17127,19491,0.0
8209,-16838,19608,0.0
8196,-16505,19667,0.0
8193,-16195,19749,0.0
8324,-16148,20155,0.0
8568,-16307,20835,0.0
8667,-16183,21169,0.0
8955,-16397,21963,0.0
9197,-16513,22652,0.0
0,0,0,0.0
0,0,0,0.0
0,0,0,0.0
0,0,0,0.0
0,0,0,0.0
11526,-18277,29065,1.0
0,0,0,0.0
0,0,0,0.0
0,0,0,0.0
11884,-17229,30409,1.0
0,0,0,0.0
0,0,0,0.0
0,0,0,0.0
0,0,0,0.0
0,0,0,0.0
0,0,0,0.0
0,0,0,0.0
0,0,0,0.0
0,0,0,0.0
0,0,0,0.0
0,0,0,0.0
0,0,0,0.0
0,0,0,0.0
0,0,0,0.0
0,0,0,0.0
0,0,0,0.0
0,0,0,0.0
0,0,0,0.0
0,0,0,0.0
0,0,0,0.0
0,0,0,0.0
0,0,0,0.0
0,0,0,0.0
0,0,0,0.0
0,0,0,0.0
0,0,0,0.0
0,0,0,0.0
0,0,0,0.0
0,0,0,0.0
11918,-5700,33304,1.0
0,0,0,0.0
0,0,0,0.0
11799,-4506,33213,1.0
0,0,0,0.0
0,0,0,0.0
0,0,0,0.0
0,0,0,0.0
0,0,0,0.0
8958,-1679,25575,0.0
8415,-1303,24081,0.0
8067,-984,23140,0.0
8036,-716,23100,0.0
8024,-450,23120,0.0
8033,-185,23197,0.0
8047,82,23287,0.0
8050,350,23348,0.0
8040,620,23368,0.0
8069,894,23504,0.0
8070,1167,23556,0.0
8073,1442,23617,0.0
8070,1718,23658,0.0
8080,1997,23738,0.0
8089,2278,23813,0.0
8089,2560,23863,0.0
8090,2843,23917,0.0
8130,3143,24083,0.0
8109,3421,24069,0.0
8110,3711,24122,0.0
8113,4003,24180,0.0
8129,4304,24277,0.0
8147,4610,24380,0.0
8147,4909,24429,0.0
8149,5211,24483,0.0
8139,5507,24503,0.0
8140,5813,24551,0.0
8153,6131,24641,0.0
4,3,13,0.0
9,7,29,0.0
13,10,40,0.0
13,12,43,0.0
14,14,46,0.0
17,17,55,0.0
18,18,58,0.0
25,26,78,0.0
26,28,81,0.0
24,27,74,0.0
28,33,88,0.0
28,34,87,0.0
29,38,93,0.0
32,42,100,0.0
34,46,108,0.0
28,40,89,0.0
30,44,98,0.0
32,48,101,0.0
37,57,118,0.0
35,56,111,0.0
37,61,119,0.0
40,68,129,0.0
38,67,122,0.0
38,69,123,0.0
36,69,118,0.0
36,69,117,0.0
34,67,111,0.0
38,75,121,0.0
34,72,112,0.0
32,68,106,0.0
34,74,111,0.0
34,78,113,0.0
33,77,110,0.0
33,77,107,0.0
32,76,104,0.0
32,79,105,0.0
31,79,103,0.0
32,84,107,0.0
29,78,97,0.0
29,80,97,0.0
29,84,100,0.0
28,81,94,0.0
28,84,95,0.0
30,92,102,0.0
28,89,97,0.0
28,89,95,0.0
28,93,96,0.0
29,97,98,0.0
29,99,99,0.0
29,100,97,0.0
29,106,101,0.0
29,109,102,0.0
29,113,103,0.0
31,120,108,0.0
22,-285,85,0.0
22,-269,83,0.0
23,-266,86,0.0
24,-276,93,0.0
25,-279,97,0.0
25,-272,98,0.0
26,-274,101,0.0
27,-273,104,0.0
26,-267,105,0.0
29,-280,114,0.0
29,-276,116,0.0
31,-282,122,0.0
31,-275,123,0.0
31,-273,125,0.0
31,-267,127,0.0
33,-274,133,0.0
34,-271,135,0.0
34,-265,136,0.0
34,-262,138,0.0
38,-290,157,0.0
38,-284,158,0.0
38,-274,155,0.0
37,-261,152,0.0
34,-232,139,0.0
32,-219,134,0.0
33,-218,137,0.0
32,-206,133,0.0
31,-196,129,0.0
33,-202,135,0.0
31,-187,129,0.0
29,-176,124,0.0
28,-162,117,0.0
26,-148,109,0.0
28,-153,116,0.0
4277,-23456,18168,0.0
4298,-23098,18298,0.0
18,-92,75,0.0
4311,-22255,18436,0.0
4328,-21900,18550,0.0
4333,-21492,18610,0.0
4342,-21111,18690,0.0
4352,-20746,18775,0.0
4362,-20384,18858,0.0
4370,-20023,18936,0.0
4378,-19665,19010,0.0
4386,-19316,19087,0.0
4396,-18978,19171,0.0
4403,-18634,19241,0.0
4411,-18298,19315,0.0
4413,-17947,19366,0.0
4422,-17629,19446,0.0
4422,-17279,19488,0.0
4441,-17005,19609,0.0
4409,-16545,19508,0.0
4453,-16376,19745,0.0
4457,-16061,19805,0.0
4555,-16083,20286,0.0
4677,-16174,20869,0.0
4794,-16240,21439,0.0
4946,-16406,22161,0.0
5079,-16497,22808,0.0
0,0,0,0.0
6204,-19306,27972,1.0
0,0,0,0.0
0,0,0,0.0
0,0,0,0.0
6507,-18546,29588,1.0
0,0,0,0.0
6587,-17940,30079,1.0
0,0,0,0.0
6702,-17418,30731,1.0
0,0,0,0.0
0,0,0,0.0
0,0,0,0.0
0,0,0,0.0
6982,-16044,32363,1.0
0,0,0,0.0
0,0,0,0.0
0,0,0,0.0
0,0,0,0.0
0,0,0,0.0
0,0,0,0.0
0,0,0,0.0
0,0,0,0.0
0,0,0,0.0
0,0,0,0.0
0,0,0,0.0
0,0,0,0.0
0,0,0,0.0
0,0,0,0.0
0,0,0,0.0
0,0,0,0.0
0,0,0,0.0
7198,-9262,34763,1.0
0,0,0,0.0
0,0,0,0.0
0,0,0,0.0
7258,-7765,35402,1.0
7299,-7413,35688,1.0
0,0,0,0.0
0,0,0,0.0
7240,-6177,35676,1.0
0,0,0,0.0
0,0,0,0.0
0,0,0,0.0
0,0,0,0.0
0,0,0,0.0
0,0,0,0.0
0,0,0,0.0
0,0,0,0.0
6652,-2404,33588,1.0
4926,-1507,24942,0.0
4754,-1190,24140,0.0
4536,-881,23102,0.0
4538,-627,23180,0.0
4522,-369,23169,0.0
4529,-113,23278,0.0
4525,144,23328,0.0
4515,404,23349,0.0
4521,665,23447,0.0
4527,929,23552,0.0
4505,1189,23517,0.0
4509,1456,23611,0.0
4507,1724,23678,0.0
4505,1994,23753,0.0
4499,2263,23804,0.0
4490,2533,23832,0.0
4497,2814,23954,0.0
4490,3089,24006,0.0
4483,3366,24052,0.0
4479,3648,24116,0.0
4480,3936,24212,0.0
4476,4223,24279,0.0
4467,4507,24320,0.0
4460,4798,24384,0.0
4450,5086,24421,0.0
0,0,3,0.0
1,1,7,0.0
3,4,18,0.0
2,3,14,0.0
8,12,48,0.0
10,14,54,0.0
11,17,62,0.0
13,22,74,0.0
11,18,62,0.0
13,24,77,0.0
15,29,85,0.0
20,38,112,0.0
16,34,95,0.0
17,36,97,0.0
18,39,101,0.0
17,41,104,0.0
19,45,111,0.0
18,45,106,0.0
19,48,112,0.0
20,54,122,0.0
21,58,126,0.0
22,62,129,0.0
22,67,136,0.0
21,66,130,0.0
21,68,131,0.0
21,70,132,0.0
22,74,135,0.0
22,76,135,0.0
22,80,139,0.0
21,83,140,0.0
22,87,143,0.0
22,88,142,0.0
20,85,133,0.0
20,87,133,0.0
18,80,120,0.0
20,90,133,0.0
18,88,126,0.0
18,87,122,0.0
18,92,125,0.0
18,93,126,0.0
17,90,118,0.0
17,91,117,0.0
16,93,116,0.0
16,97,119,0.0
16,95,114,0.0
16,100,116,0.0
15,97,110,0.0
14,92,102,0.0
13,95,104,0.0
15,105,113,0.0
13,99,104,0.0
14,106,108,0.0
14,109,110,0.0
14,113,111,0.0
13,114,109,0.0
13,115,108,0.0
-12,-315,100,0.0
-11,-301,99,0.0
-11,-291,99,0.0
-10,-302,106,0.0
-10,-288,105,0.0
-9,-279,106,0.0
-8,-276,107,0.0
-7,-272,109,0.0
-7,-263,109,0.0
-6,-258,110,0.0
-6,-260,114,0.0
-5,-245,111,0.0
-5,-251,116,0.0
-4,-248,119,0.0
-4,-252,124,0.0
-4,-252,127,0.0
-3,-239,125,0.0
-3,-253,134,0.0
-3,-290,158,0.0
-2,-290,163,0.0
-1,-280,161,0.0
-1,-274,162,0.0
-1,-255,153,0.0
0,-240,149,0.0
0,-237,150,0.0
0,-230,149,0.0
1,-208,138,0.0
1,-217,147,0.0
1,-185,129,0.0
1,-190,135,0.0
1,-162,118,0.0
2,-142,105,0.0
2,-141,107,0.0
1,-136,106,0.0
2,-120,95,0.0
2,-99,81,0.0
451,-22517,18748,0.0
537,-24564,20906,0.0
574,-24159,21016,0.0
550,-21469,19085,0.0
574,-20853,18945,0.0
605,-20567,19095,0.0
627,-19997,18972,0.0
652,-19575,18977,0.0
681,-19311,19130,0.0
707,-18965,19198,0.0
732,-18613,19253,0.0
755,-18273,19315,0.0
778,-17937,19376,0.0
800,-17611,19440,0.0
823,-17306,19523,0.0
843,-16961,19556,0.0
865,-16683,19662,0.0
884,-16355,19703,0.0
904,-16066,19787,0.0
946,-16154,20342,0.0
986,-16197,20855,0.0
1023,-16180,21304,0.0
1072,-16351,22020,0.0
1109,-16299,22455,0.0
0,0,0,0.0
1334,-18277,26362,1.0
1374,-18195,26859,1.0
1408,-18016,27225,1.0
0,0,0,0.0
1458,-17448,27649,1.0
0,0,0,0.0
0,0,0,0.0
1541,-16725,28518,1.0
0,0,0,0.0
0,0,0,0.0
0,0,0,0.0
0,0,0,0.0
0,0,0,0.0
0,0,0,0.0
0,0,0,0.0
0,0,0,0.0
0,0,0,0.0
0,0,0,0.0
0,0,0,0.0
0,0,0,0.0
0,0,0,0.0
0,0,0,0.0
0,0,0,0.0
0,0,0,0.0
0,0,0,0.0
0,0,0,0.0
0,0,0,0.0
1957,-10966,33805,1.0
0,0,0,0.0
1938,-10068,33497,1.0
0,0,0,0.0
0,0,0,0.0
0,0,0,0.0
0,0,0,0.0
1900,-8013,33068,1.0
1899,-7644,33108,1.0
0,0,0,0.0
0,0,0,0.0
0,0,0,0.0
0,0,0,0.0
0,0,0,0.0
1878,-5446,33357,1.0
0,0,0,0.0
1852,-4682,33187,1.0
0,0,0,0.0
0,0,0,0.0
0,0,0,0.0
0,0,0,0.0
0,0,0,0.0
0,0,0,0.0
1365,-1639,25466,0.0
1285,-1291,24158,0.0
1245,-1004,23591,0.0
1212,-733,23125,0.0
1206,-484,23192,0.0
1196,-233,23216,0.0
1190,17,23297,0.0
1181,271,23335,0.0
1172,525,23398,0.0
1166,783,23512,0.0
1156,1041,23566,0.0
1145,1297,23590,0.0
1134,1557,23650,0.0
1125,1822,23741,0.0
1111,2083,23760,0.0
1102,2352,23866,0.0
1089,2620,23922,0.0
1076,2887,23962,0.0
1063,3162,24042,0.0
1050,3439,24123,0.0
1034,3705,24120,0.0
1020,3989,24226,0.0
1004,4270,24285,0.0
0,0,0,0.0
971,4837,24401,0.0
955,5131,24489,0.0
937,5416,24526,0.0
1,3,13,0.0
0,0,0,0.0
1,6,28,0.0
1,12,45,0.0
2,15,54,0.0
2,16,55,0.0
1,15,52,0.0
2,19,63,0.0
2,25,78,0.0
2,25,77,0.0
3,36,106,0.0
2,31,87,0.0
3,34,93,0.0
2,36,95,0.0
1,36,90,0.0
2,41,100,0.0
2,45,107,0.0
2,48,110,0.0
2,51,114,0.0
2,55,118,0.0
2,60,128,0.0
1,66,136,0.0
2,64,128,0.0
1,62,122,0.0
2,70,133,0.0
1,70,129,0.0
1,72,130,0.0
0,79,139,0.0
0,87,147,0.0
0,78,130,0.0
0,83,135,0.0
0,80,127,0.0
0,90,138,0.0
0,84,127,0.0
0,82,122,0.0
0,90,130,0.0
-1,88,126,0.0
-1,90,124,0.0
-1,94,127,0.0
-2,95,126,0.0
-2,96,123,0.0
-2,99,124,0.0
-2,99,122,0.0
-3,100,120,0.0
-3,97,115,0.0
-3,99,115,0.0
-3,98,110,0.0
-3,97,108,0.0
-3,100,107,0.0
-4,101,108,0.0
-4,104,108,0.0
-5,109,111,0.0
-4,108,108,0.0
-5,117,114,0.0
43,-273,77,0.0
43,-266,78,0.0
43,-261,79,0.0
45,-269,85,0.0
46,-266,87,0.0
47,-271,92,0.0
47,-266,94,0.0
49,-272,99,0.0
51,-271,101,0.0
49,-263,102,0.0
52,-268,107,0.0
52,-264,109,0.0
54,-268,114,0.0
54,-264,116,0.0
56,-270,122,0.0
56,-264,123,0.0
56,-261,124,0.0
58,-265,130,0.0
58,-261,132,0.0
58,-257,133,0.0
57,-248,132,0.0
64,-272,149,0.0
67,-279,157,0.0
62,-255,147,0.0
61,-246,145,0.0
57,-228,138,0.0
57,-224,139,0.0
54,-207,132,0.0
54,-203,133,0.0
51,-191,128,0.0
48,-176,120,0.0
46,-163,114,0.0
47,-166,119,0.0
0,0,0,0.0
0,0,0,0.0
0,0,0,0.0
7117,-23210,18253,0.0
7111,-22802,18345,0.0
7100,-22382,18420,0.0
7096,-21993,18513,0.0
7094,-21610,18605,0.0
7091,-21237,18699,0.0
7076,-20828,18754,0.0
7074,-20464,18844,0.0
7061,-20076,18903,0.0
7065,-19739,19008,0.0
7041,-19329,19033,0.0
7042,-18993,19125,0.0
7045,-18667,19221,0.0
7032,-18301,19272,0.0
7029,-17967,19351,0.0
7014,-17607,19394,0.0
7010,-17280,19468,0.0
7009,-16961,19545,0.0
7003,-16635,19611,0.0
7003,-16323,19688,0.0
7015,-16047,19803,0.0
7156,-16061,20283,0.0
7330,-16135,20855,0.0
7529,-16253,21503,0.0
7754,-16411,22228,0.0
7947,-16488,22868,0.0
0,0,0,0.0
0,0,0,0.0
0,0,0,0.0
0,0,0,0.0
0,0,0,0.0
10041,-18373,29507,1.0
0,0,0,0.0
10069,-17625,29786,1.0
0,0,0,0.0
0,0,0,0.0
0,0,0,0.0
0,0,0,0.0
0,0,0,0.0
0,0,0,0.0
0,0,0,0.0
0,0,0,0.0
0,0,0,0.0
0,0,0,0.0
0,0,0,0.0
0,0,0,0.0
0,0,0,0.0
0,0,0,0.0
0,0,0,0.0
0,0,0,0.0
0,0,0,0.0
0,0,0,0.0
0,0,0,0.0
0,0,0,0.0
0,0,0,0.0
0,0,0,0.0
0,0,0,0.0
0,0,0,0.0
0,0,0,0.0
0,0,0,0.0
0,0,0,0.0
0,0,0,0.0
0,0,0,0.0
10330,-6504,33280,1.0
10328,-6125,33359,1.0
0,0,0,0.0
10348,-5379,33590,1.0
0,0,0,0.0
0,0,0,0.0
0,0,0,0.0
0,0,0,0.0
0,0,0,0.0
0,0,0,0.0
0,0,0,0.0
7866,-1764,26034,0.0
7278,-1360,24147,0.0
7095,-1060,23596,0.0
6905,-771,23016,0.0
6708,-496,22416,0.0
6920,-250,23179,0.0
6932,12,23275,0.0
6935,277,23341,0.0
6938,544,23402,0.0
6942,813,23475,0.0
6915,1078,23436,0.0
6948,1354,23603,0.0
6941,1625,23637,0.0
6937,1897,23681,0.0
6941,2173,23747,0.0
6952,2455,23841,0.0
6953,2734,23901,0.0
6947,3014,23935,0.0
6968,3306,24065,0.0
6959,3588,24092,0.0
6964,3878,24162,0.0
6977,4176,24267,0.0
6964,4460,24276,0.0
6974,4762,24373,0.0
6968,5056,24408,0.0
6978,5364,24501,0.0
6976,5665,24549,0.0
6980,5975,24625,0.0
6970,6275,24648,0.0
9,8,33,0.0
12,12,48,0.0
13,15,52,0.0
14,16,54,0.0
18,21,66,0.0
18,21,67,0.0
19,24,73,0.0
19,25,73,0.0
21,28,78,0.0
22,31,84,0.0
25,36,93,0.0
24,36,90,0.0
25,39,93,0.0
25,41,95,0.0
28,47,107,0.0
30,52,115,0.0
29,52,111,0.0
32,58,120,0.0
33,61,124,0.0
32,62,121,0.0
29,58,111,0.0
32,66,123,0.0
34,73,132,0.0
30,65,115,0.0
33,74,129,0.0
33,76,129,0.0
33,77,126,0.0
32,77,123,0.0
30,76,118,0.0
31,78,120,0.0
31,81,120,0.0
30,80,116,0.0
30,84,120,0.0
26,77,107,0.0
26,79,107,0.0
27,82,109,0.0
26,81,106,0.0
26,85,108,0.0
24,81,100,0.0
25,85,104,0.0
25,88,104,0.0
24,85,99,0.0
24,90,102,0.0
23,87,97,0.0
23,88,95,0.0
23,92,97,0.0
23,93,96,0.0
23,95,97,0.0
22,94,94,0.0
23,102,100,0.0
23,105,100,0.0
24,109,101,0.0
22,107,98,0.0
29,-268,78,0.0
30,-272,82,0.0
31,-275,87,0.0
31,-271,90,0.0
32,-271,92,0.0
33,-277,97,0.0
34,-275,100,0.0
35,-273,103,0.0
36,-275,107,0.0
36,-270,109,0.0
36,-266,110,0.0
38,-272,116,0.0
38,-267,117,0.0
40,-274,124,0.0
40,-268,125,0.0
42,-272,130,0.0
43,-271,133,0.0
43,-268,136,0.0
43,-262,136,0.0
44,-262,140,0.0
49,-293,162,0.0
49,-281,158,0.0
45,-258,149,0.0
42,-235,139,0.0
44,-238,145,0.0
41,-225,140,0.0
41,-213,135,0.0
41,-212,138,0.0
36,-182,122,0.0
34,-168,115,0.0
32,-161,112,0.0
33,-154,110,0.0
31,-146,107,0.0
32,-146,109,0.0
0,0,0,0.0
5231,-23290,18284,0.0
5220,-22816,18320,0.0
5227,-22418,18409,0.0
5226,-22003,18477,0.0
5226,-21597,18544,0.0
5246,-21277,18680,0.0
5238,-20853,18718,0.0
5253,-20526,18837,0.0
5251,-20141,18896,0.0
5266,-19821,19012,0.0
5259,-19428,19051,0.0
5257,-19057,19103,0.0
5265,-18728,19193,0.0
5271,-18400,19278,0.0
5273,-18061,19346,0.0
5278,-17734,19422,0.0
5283,-17414,19501,0.0
5280,-17070,19547,0.0
5281,-16744,19608,0.0
5288,-16444,19694,0.0
5284,-16110,19734,0.0
5407,-16165,20256,0.0
5546,-16251,20834,0.0
5645,-16211,21265,0.0
5819,-16377,21985,0.0
5986,-16506,22680,0.0
0,0,0,0.0
0,0,0,0.0
0,0,0,0.0
0,0,0,0.0
0,0,0,0.0
0,0,0,0.0
0,0,0,0.0
7798,-18100,30187,1.0
0,0,0,0.0
0,0,0,0.0
0,0,0,0.0
0,0,0,0.0
0,0,0,0.0
8189,-16485,32196,1.0
8280,-16254,32637,1.0
0,0,0,0.0
0,0,0,0.0
0,0,0,0.0
0,0,0,0.0
0,0,0,0.0
0,0,0,0.0
0,0,0,0.0
0,0,0,0.0
0,0,0,0.0
0,0,0,0.0
0,0,0,0.0
0,0,0,0.0
0,0,0,0.0
0,0,0,0.0
0,0,0,0.0
0,0,0,0.0
0,0,0,0.0
0,0,0,0.0
0,0,0,0.0
0,0,0,0.0
0,0,0,0.0
0,0,0,0.0
0,0,0,0.0
0,0,0,0.0
0,0,0,0.0
0,0,0,0.0
0,0,0,0.0
8359,-5295,35349,1.0
0,0,0,0.0
8225,-4438,34959,1.0
0,0,0,0.0
0,0,0,0.0
8046,-3203,34464,1.0
0,0,0,0.0
6072,-1841,26147,0.0
5693,-1455,24581,0.0
5528,-1148,23931,0.0
5328,-851,23129,0.0
5140,-573,22371,0.0
5305,-333,23155,0.0
5308,-75,23229,0.0
5322,185,23352,0.0
5293,445,23296,0.0
5314,710,23454,0.0
5313,974,23512,0.0
5311,1240,23571,0.0
5314,1509,23651,0.0
5310,1778,23701,0.0
5302,2047,23734,0.0
5301,2319,23799,0.0
5302,2596,23878,0.0
5304,2875,23956,0.0
5310,3159,24059,0.0
5305,3440,24111,0.0
5307,3725,24189,0.0
5287,3999,24174,0.0
5299,4299,24306,0.0
5285,4580,24317,0.0
5289,4880,24415,0.0
5288,5178,24491,0.0
2,1,10,0.0
0,0,3,0.0
5,5,21,0.0
7,8,35,0.0
9,11,43,0.0
15,19,69,0.0
12,15,54,0.0
18,25,83,0.0
17,25,80,0.0
17,25,78,0.0
18,29,85,0.0
17,28,82,0.0
18,33,91,0.0
18,33,88,0.0
17,34,86,0.0
21,42,104,0.0
20,41,98,0.0
23,47,110,0.0
23,50,111,0.0
24,55,122,0.0
23,55,117,0.0
22,53,110,0.0
23,58,117,0.0
25,65,128,0.0
24,64,124,0.0
24,66,123,0.0
26,73,133,0.0
24,70,124,0.0
24,73,126,0.0
26,80,134,0.0
24,77,126,0.0
26,83,133,0.0
23,78,122,0.0
22,78,118,0.0
21,77,114,0.0
21,80,116,0.0
23,86,123,0.0
21,83,116,0.0
22,88,119,0.0
21,87,115,0.0
20,87,113,0.0
20,89,112,0.0
20,90,112,0.0
19,92,111,0.0
18,90,106,0.0
18,93,107,0.0
19,97,110,0.0
17,92,101,0.0
19,102,110,0.0
17,96,102,0.0
17,99,104,0.0
17,102,103,0.0
16,101,100,0.0
16,107,103,0.0
16,110,104,0.0
17,115,107,0.0
13,-270,82,0.0
15,-274,86,0.0
15,-267,87,0.0
16,-269,91,0.0
16,-266,94,0.0
17,-270,98,0.0
19,-277,104,0.0
19,-281,109,0.0
19,-266,106,0.0
20,-266,110,0.0
21,-273,117,0.0
21,-270,118,0.0
23,-273,124,0.0
22,-266,123,0.0
23,-266,127,0.0
24,-271,133,0.0
24,-263,133,0.0
25,-268,139,0.0
28,-289,154,0.0
30,-295,161,0.0
28,-274,154,0.0
28,-263,151,0.0
27,-248,146,0.0
24,-222,134,0.0
24,-219,135,0.0
24,-207,131,0.0
25,-210,136,0.0
25,-200,133,0.0
24,-193,131,0.0
24,-186,129,0.0
24,-177,125,0.0
22,-169,123,0.0
22,-154,115,0.0
20,-137,104,0.0
15,-106,83,0.0
15,-103,82,0.0
11,-75,61,0.0
3417,-22154,18495,0.0
3431,-21768,18579,0.0
3443,-21361,18638,0.0
3459,-21001,18730,0.0
3472,-20629,18807,0.0
3489,-20289,18906,0.0
3499,-19912,18964,0.0
3507,-19535,19017,0.0
3527,-19230,19134,0.0
3536,-18867,19188,0.0
3545,-18524,19255,0.0
3555,-18180,19316,0.0
3570,-17873,19412,0.0
3582,-17551,19486,0.0
3589,-17216,19540,0.0
3593,-16872,19578,0.0
3605,-16572,19661,0.0
3619,-16280,19749,0.0
3642,-16038,19897,0.0
3743,-16133,20470,0.0
3825,-16132,20936,0.0
3943,-16273,21605,0.0
4064,-16412,22294,0.0
4184,-16530,22978,0.0
0,0,0,0.0
0,0,0,0.0
5174,-19114,28508,1.0
0,0,0,0.0
0,0,0,0.0
0,0,0,0.0
0,0,0,0.0
0,0,0,0.0
0,0,0,0.0
0,0,0,0.0
5565,-17047,31007,1.0
5622,-16801,31371,1.0
0,0,0,0.0
0,0,0,0.0
0,0,0,0.0
0,0,0,0.0
0,0,0,0.0
0,0,0,0.0
0,0,0,0.0
0,0,0,0.0
0,0,0,0.0
0,0,0,0.0
0,0,0,0.0
0,0,0,0.0
0,0,0,0.0
0,0,0,0.0
0,0,0,0.0
6154,-11536,35370,1.0
0,0,0,0.0
0,0,0,0.0
0,0,0,0.0
0,0,0,0.0
0,0,0,0.0
0,0,0,0.0
0,0,0,0.0
0,0,0,0.0
0,0,0,0.0
6027,-7369,35458,1.0
0,0,0,0.0
0,0,0,0.0
0,0,0,0.0
0,0,0,0.0
0,0,0,0.0
5832,-4867,34872,1.0
0,0,0,0.0
0,0,0,0.0
0,0,0,0.0
0,0,0,0.0
0,0,0,0.0
0,0,0,0.0
4119,-1546,25143,0.0
3933,-1216,24089,0.0
3766,-912,23141,0.0
3738,-654,23049,0.0
3751,-402,23202,0.0
3751,-147,23281,0.0
3749,109,23350,0.0
3743,367,23397,0.0
3743,627,23483,0.0
3741,889,23553,0.0
3730,1149,23578,0.0
3725,1413,23634,0.0
3722,1680,23704,0.0
3717,1947,23771,0.0
3712,2216,23830,0.0
3705,2487,23887,0.0
3705,2764,23986,0.0
3696,3037,24032,0.0
3686,3312,24075,0.0
3682,3593,24152,0.0
3671,3870,24187,0.0
3667,4157,24272,0.0
3658,4443,24326,0.0
0,0,0,0.0
0,0,0,0.0
3629,5311,24491,0.0
2,2,14,0.0
4,6,26,0.0
6,10,43,0.0
4,7,31,0.0
6,11,41,0.0
10,19,68,0.0
10,21,72,0.0
10,22,74,0.0
11,24,75,0.0
12,29,89,0.0
12,29,86,0.0
13,33,94,0.0
13,36,98,0.0
14,41,109,0.0
15,43,110,0.0
15,46,114,0.0
15,46,112,0.0
17,57,130,0.0
15,52,117,0.0
17,58,125,0.0
16,60,126,0.0
16,63,129,0.0
19,72,144,0.0
17,68,132,0.0
15,66,125,0.0
15,67,122,0.0
16,73,131,0.0
15,70,122,0.0
16,78,133,0.0
16,79,131,0.0
16,79,129,0.0
15,84,133,0.0
15,82,127,0.0
14,86,130,0.0
15,86,127,0.0
14,89,130,0.0
14,89,125,0.0
13,87,120,0.0
13,86,117,0.0
12,90,119,0.0
12,89,114,0.0
12,91,114,0.0
11,88,108,0.0
12,95,115,0.0
11,99,118,0.0
10,94,109,0.0
10,95,108,0.0
10,99,110,0.0
10,100,108,0.0
9,100,106,0.0
8,100,103,0.0
9,103,105,0.0
9,110,110,0.0
9,113,110,0.0
9,113,107,0.0
4,-271,84,0.0
4,-277,90,0.0
5,-276,92,0.0
6,-267,92,0.0
6,-267,96,0.0
6,-267,99,0.0
7,-267,102,0.0
7,-262,104,0.0
8,-260,106,0.0
9,-262,110,0.0
9,-260,112,0.0
10,-258,114,0.0
10,-262,120,0.0
11,-258,122,0.0
11,-255,124,0.0
12,-259,129,0.0
12,-257,131,0.0
13,-252,132,0.0
15,-276,148,0.0
16,-289,160,0.0
17,-281,160,0.0
16,-265,154,0.0
16,-259,155,0.0
16,-239,145,0.0
16,-238,149,0.0
17,-249,160,0.0
16,-216,142,0.0
16,-213,143,0.0
17,-218,150,0.0
14,-183,129,0.0
15,-183,132,0.0
14,-172,127,0.0
13,-149,112,0.0
11,-133,101,0.0
10,-104,82,0.0
9,-92,74,0.0
9,-91,74,0.0
8,-80,67,0.0
7,-60,52,0.0
2272,-21216,18672,0.0
2291,-20831,18739,0.0
2316,-20512,18858,0.0
2335,-20154,18937,0.0
2350,-19761,18976,0.0
2370,-19429,19066,0.0
2386,-19067,19123,0.0
2405,-18746,19213,0.0
2420,-18400,19275,0.0
2439,-18090,19368,0.0
2451,-17745,19417,0.0
2466,-17413,19475,0.0
2482,-17109,19559,0.0
2498,-16801,19636,0.0
2503,-16434,19636,0.0
2526,-16190,19778,0.0
2573,-16101,20112,0.0
2649,-16182,20670,0.0
2709,-16161,21113,0.0
2799,-16300,21784,0.0
2892,-16443,22482,0.0
0,0,0,0.0
3538,-19173,27451,1.0
0,0,0,0.0
3655,-18871,28315,1.0
0,0,0,0.0
0,0,0,0.0
3792,-18188,29327,1.0
0,0,0,0.0
0,0,0,0.0
3909,-17398,30221,1.0
3972,-17238,30714,1.0
3985,-16854,30812,1.0
0,0,0,0.0
0,0,0,0.0
0,0,0,0.0
0,0,0,0.0
0,0,0,0.0
0,0,0,0.0
0,0,0,0.0
0,0,0,0.0
0,0,0,0.0
0,0,0,0.0
0,0,0,0.0
0,0,0,0.0
0,0,0,0.0
0,0,0,0.0
0,0,0,0.0
0,0,0,0.0
0,0,0,0.0
0,0,0,0.0
0,0,0,0.0
0,0,0,0.0
0,0,0,0.0
0,0,0,0.0
0,0,0,0.0
0,0,0,0.0
0,0,0,0.0
0,0,0,0.0
0,0,0,0.0
0,0,0,0.0
0,0,0,0.0
0,0,0,0.0
4246,-5611,34496,1.0
4216,-5203,34358,1.0
0,0,0,0.0
0,0,0,0.0
0,0,0,0.0
0,0,0,0.0
0,0,0,0.0
0,0,0,0.0
0,0,0,0.0
3028,-1593,25366,0.0
2861,-1247,24060,0.0
2743,-946,23153,0.0
2734,-693,23171,0.0
2721,-439,23163,0.0
2722,-186,23274,0.0
2716,67,23324,0.0
2709,323,23373,0.0
2704,580,23438,0.0
2699,839,23509,0.0
2695,1100,23592,0.0
2680,1357,23574,0.0
2673,1621,23639,0.0
2670,1889,23740,0.0
2664,2156,23808,0.0
2658,2426,23887,0.0
2649,2697,23945,0.0
2639,2968,24001,0.0
2629,3243,24060,0.0
2617,3517,24100,0.0
2607,3794,24159,0.0
2596,4074,24215,0.0
2590,4366,24321,0.0
2575,4644,24345,0.0
2565,4938,24431,0.0
0,0,0,0.0
1,3,16,0.0
0,0,0,0.0
1,3,15,0.0
4,9,39,0.0
5,12,45,0.0
4,13,49,0.0
7,19,67,0.0
7,22,73,0.0
7,24,77,0.0
8,26,80,0.0
9,31,92,0.0
9,34,96,0.0
9,33,92,0.0
9,36,97,0.0
9,38,99,0.0
9,40,99,0.0
9,42,102,0.0
10,49,115,0.0
9,47,107,0.0
10,52,114,0.0
9,50,108,0.0
10,58,121,0.0
10,56,114,0.0
9,63,122,0.0
11,69,133,0.0
9,66,122,0.0
10,75,136,0.0
9,70,124,0.0
9,73,127,0.0
9,73,122,0.0
9,71,117,0.0
10,84,135,0.0
8,80,126,0.0
8,75,116,0.0
8,85,127,0.0
8,82,121,0.0
8,88,126,0.0
8,93,130,0.0
7,85,116,0.0
6,83,112,0.0
6,89,116,0.0
6,87,111,0.0
5,90,112,0.0
6,94,114,0.0
6,98,116,0.0
5,97,113,0.0
4,88,100,0.0
5,96,108,0.0
4,96,105,0.0
4,97,104,0.0
4,96,100,0.0
4,104,106,0.0
4,110,111,0.0
3,104,102,0.0
3,114,109,0.0
-7,-320,101,0.0
-6,-303,100,0.0
-5,-296,100,0.0
-4,-286,100,0.0
-4,-280,102,0.0
-3,-281,105,0.0
-3,-268,104,0.0
-2,-269,107,0.0
-1,-269,110,0.0
-1,-269,114,0.0
0,-263,114,0.0
0,-265,119,0.0
0,-260,120,0.0
1,-257,123,0.0
0,-261,128,0.0
0,-259,130,0.0
1,-263,136,0.0
3,-259,137,0.0
3,-286,156,0.0
3,-288,161,0.0
4,-299,171,0.0
4,-282,166,0.0
5,-277,167,0.0
5,-251,155,0.0
5,-241,152,0.0
6,-245,158,0.0
5,-223,148,0.0
6,-217,147,0.0
6,-198,137,0.0
6,-182,128,0.0
6,-189,136,0.0
6,-171,126,0.0
5,-150,113,0.0
5,-132,102,0.0
4,-100,79,0.0
4,-91,74,0.0
4,-82,69,0.0
4,-82,69,0.0
1089,-21503,18648,0.0
3,-42,37,0.0
1143,-20756,18802,0.0
1170,-20410,18893,0.0
1194,-20038,18956,0.0
1216,-19646,18993,0.0
1244,-19355,19121,0.0
1265,-18994,19175,0.0
1287,-18659,19249,0.0
1310,-18332,19325,0.0
1328,-17975,19365,0.0
1348,-17635,19417,0.0
1372,-17368,19544,0.0
1390,-17049,19608,0.0
1406,-16704,19638,0.0
1425,-16399,19707,0.0
1442,-16088,19766,0.0
1491,-16146,20283,0.0
1544,-16223,20839,0.0
1586,-16172,21245,0.0
1649,-16323,21933,0.0
1715,-16490,22666,0.0
2016,-18830,26481,1.0
0,0,0,0.0
0,0,0,0.0
0,0,0,0.0
0,0,0,0.0
0,0,0,0.0
2252,-17716,28702,1.0
2286,-17484,29027,1.0
2327,-17298,29437,1.0
0,0,0,0.0
0,0,0,0.0
2465,-16826,30895,1.0
0,0,0,0.0
2506,-16157,31264,1.0
2535,-15877,31560,1.0
0,0,0,0.0
2582,-15248,32022,1.0
2609,-14963,32324,1.0
0,0,0,0.0
0,0,0,0.0
0,0,0,0.0
0,0,0,0.0
0,0,0,0.0
0,0,0,0.0
0,0,0,0.0
2725,-12141,33622,1.0
2757,-11874,34031,1.0
0,0,0,0.0
0,0,0,0.0
0,0,0,0.0
0,0,0,0.0
0,0,0,0.0
0,0,0,0.0
0,0,0,0.0
0,0,0,0.0
2680,-8118,33496,1.0
2681,-7751,33574,1.0
0,0,0,0.0
0,0,0,0.0
0,0,0,0.0
0,0,0,0.0
0,0,0,0.0
0,0,0,0.0
2632,-5114,33661,1.0
0,0,0,0.0
2593,-4337,33421,1.0
2578,-3959,33359,1.0
0,0,0,0.0
0,0,0,0.0
2503,-2816,32844,1.0
2474,-2439,32623,1.0
1930,-1634,25581,0.0
1812,-1278,24142,0.0
1749,-986,23445,0.0
1717,-721,23132,0.0
1713,-471,23220,0.0
1706,-220,23283,0.0
1697,32,23319,0.0
1692,286,23402,0.0
1684,543,23461,0.0
1674,799,23489,0.0
1666,1057,23547,0.0
1657,1317,23610,0.0
1648,1578,23669,0.0
1638,1841,23731,0.0
1629,2109,23817,0.0
1616,2370,23833,0.0
1608,2645,23945,0.0
1594,2910,23960,0.0
1582,3183,24030,0.0
1570,3459,24097,0.0
1558,3737,24166,0.0
1543,4013,24209,0.0
1530,4296,24282,0.0
1518,4586,24375,0.0
1502,4869,24421,0.0
0,0,0,0.0
0,0,5,0.0
0,1,7,0.0
0,1,7,0.0
1,5,22,0.0
2,12,45,0.0
3,15,55,0.0
3,17,60,0.0
3,17,59,0.0
4,23,74,0.0
4,26,80,0.0
4,26,78,0.0
5,35,99,0.0
4,31,85,0.0
5,37,99,0.0
4,35,90,0.0
4,36,92,0.0
5,47,114,0.0
5,48,114,0.0
4,49,112,0.0
4,50,112,0.0
4,54,116,0.0
4,58,121,0.0
4,61,124,0.0
5,62,123,0.0
4,67,130,0.0
4,71,132,0.0
4,72,132,0.0
4,74,131,0.0
3,76,133,0.0
4,77,131,0.0
3,83,138,0.0
3,88,142,0.0
3,81,128,0.0
3,89,137,0.0
2,90,137,0.0
2,91,133,0.0
2,89,128,0.0
2,93,131,0.0
1,91,125,0.0
1,96,129,0.0
1,96,125,0.0
0,98,127,0.0
1,91,115,0.0
0,98,120,0.0
0,96,115,0.0
0,101,119,0.0
0,99,114,0.0
0,100,112,0.0
0,101,111,0.0
0,98,105,0.0
-1,107,114,0.0
-1,105,108,0.0
-1,107,107,0.0
-2,116,114,0.0
-2,124,120,0.0
-20,-330,105,0.0
-19,-321,107,0.0
-17,-299,103,0.0
-15,-291,103,0.0
-15,-288,105,0.0
-14,-283,108,0.0
-13,-273,107,0.0
-13,-281,114,0.0
-12,-270,112,0.0
-12,-265,114,0.0
-11,-262,116,0.0
-11,-255,116,0.0
-11,-263,122,0.0
-9,-259,124,0.0
-9,-250,123,0.0
-9,-252,128,0.0
-8,-250,130,0.0
-9,-269,143,0.0
-9,-291,160,0.0
-8,-281,158,0.0
-8,-275,158,0.0
-7,-271,160,0.0
-6,-261,158,0.0
-5,-252,156,0.0
-5,-222,142,0.0
-4,-221,144,0.0
-3,-217,144,0.0
-4,-200,136,0.0
-3,-199,139,0.0
-2,-177,126,0.0
-1,-166,120,0.0
-1,-146,109,0.0
-1,-161,123,0.0
-1,-139,109,0.0
0,-131,104,0.0
-193,-24754,20219,0.0
-157,-24979,20856,0.0
-116,-24538,20940,0.0
-77,-24147,21060,0.0
-38,-23675,21103,0.0
-1,-23244,21173,0.0
34,-22830,21249,0.0
69,-22476,21377,0.0
101,-21712,21101,0.0
135,-21593,21442,0.0
167,-21255,21568,0.0
198,-20854,21622,0.0
227,-20446,21662,0.0
257,-20054,21713,0.0
285,-19710,21807,0.0
292,-18086,20449,0.0
315,-17735,20495,0.0
339,-17402,20555,0.0
350,-16461,19874,0.0
371,-16152,19934,0.0
405,-16373,20661,0.0
428,-16153,20841,0.0
448,-15859,20925,0.0
468,-15539,20970,0.0
485,-15190,20968,0.0
504,-14922,21074,0.0
522,-14635,21149,0.0
542,-14409,21311,0.0
558,-14104,21353,0.0
573,-13822,21425,0.0
588,-13528,21477,0.0
603,-13238,21529,0.0
615,-12925,21538,0.0
630,-12673,21644,0.0
645,-12415,21740,0.0
657,-12127,21779,0.0
668,-11838,21811,0.0
680,-11579,21896,0.0
690,-11296,21930,0.0
702,-11046,22025,0.0
711,-10767,22062,0.0
721,-10522,22165,0.0
729,-10237,22180,0.0
738,-9975,22241,0.0
746,-9712,22297,0.0
753,-9445,22341,0.0
761,-9192,22416,0.0
769,-8950,22516,0.0
772,-8668,22514,0.0
778,-8407,22561,0.0
783,-8154,22628,0.0
789,-7907,22709,0.0
792,-7639,22728,0.0
797,-7393,22813,0.0
802,-7156,22922,0.0
802,-6874,22885,0.0
806,-6634,22985,0.0
807,-6377,23027,0.0
810,-6122,23073,0.0
811,-5876,23159,0.0
813,-5625,23216,0.0
811,-5361,23221,0.0
812,-5112,23289,0.0
810,-4856,23323,0.0
809,-4603,23369,0.0
810,-4364,23500,0.0
807,-4108,23531,0.0
804,-3852,23566,0.0
802,-3597,23615,0.0
800,-3351,23714,0.0
797,-3099,23788,0.0
792,-2839,23804,0.0
787,-2585,23860,0.0
783,-2329,23916,0.0
775,-2069,23927,0.0
771,-1816,24018,0.0
764,-1558,24075,0.0
759,-1300,24135,0.0
730,-1013,23535,0.0
710,-746,23173,0.0
698,-494,23089,0.0
710,-252,23812,0.0
767,5,26119,0.0
706,269,24372,0.0
696,533,24445,0.0
675,789,24169,0.0
673,1065,24500,0.0
663,1339,24656,0.0
651,1610,24706,0.0
639,1884,24779,0.0
626,2158,24840,0.0
611,2433,24877,0.0
597,2708,24912,0.0
582,2988,24969,0.0
566,3267,25004,0.0
550,3554,25094,0.0
532,3824,25042,0.0
518,4131,25230,0.0
501,4427,25317,0.0
521,5099,27410,0.0
500,5415,27461,0.0
480,5747,27569,0.0
457,6076,27648,0.0
435,6406,27720,0.0
0,6,27,0.0
0,5,24,0.0
0,8,31,0.0
1,16,59,0.0
0,14,52,0.0
0,22,73,0.0
1,20,67,0.0
0,27,84,0.0
0,27,82,0.0
0,27,79,0.0
0,34,96,0.0
0,33,88,0.0
0,39,102,0.0
0,34,87,0.0
0,43,104,0.0
0,48,115,0.0
0,42,98,0.0
0,52,116,0.0
0,51,112,0.0
0,57,120,0.0
0,63,130,0.0
0,63,126,0.0
-1,63,123,0.0
-1,65,124,0.0
-1,74,136,0.0
-1,70,126,0.0
-2,82,144,0.0
-2,81,139,0.0
-2,82,137,0.0
-2,84,139,0.0
-2,81,130,0.0
-3,90,140,0.0
-3,85,128,0.0
-3,87,128,0.0
-4,89,129,0.0
-4,92,130,0.0
-4,96,133,0.0
-4,97,130,0.0
-4,95,126,0.0
-5,111,144,0.0
-4,95,121,0.0
-5,97,121,0.0
-5,101,123,0.0
-5,96,114,0.0
-5,97,113,0.0
-6,98,112,0.0
-5,96,106,0.0
-6,99,107,0.0
-6,97,102,0.0
-7,109,113,0.0
-7,110,112,0.0
-7,114,113,0.0
-9,120,117,0.0
-39,-365,117,0.0
-38,-361,120,0.0
-36,-348,120,0.0
-35,-337,120,0.0
-35,-341,127,0.0
-34,-334,128,0.0
-32,-326,128,0.0
-31,-316,128,0.0
-31,-315,132,0.0
-29,-304,131,0.0
-28,-297,132,0.0
-27,-295,135,0.0
-27,-292,137,0.0
-26,-289,139,0.0
-26,-291,144,0.0
-26,-295,150,0.0
-27,-308,162,0.0
-28,-313,168,0.0
-26,-296,164,0.0
-23,-277,157,0.0
-24,-280,163,0.0
-21,-255,151,0.0
-20,-245,149,0.0
-19,-241,150,0.0
-17,-220,141,0.0
-16,-197,129,0.0
-169,-2094,1404,0.0
0,0,0,0.0
0,0,0,0.0
0,0,0,0.0
0,0,0,0.0
0,0,0,0.0
0,0,0,0.0
0,0,0,0.0
-1835,-24764,19891,0.0
-1809,-24690,20271,0.0
-1803,-24882,20881,0.0
-1756,-24491,21004,0.0
-1701,-23984,21022,0.0
-1654,-23564,21106,0.0
-1608,-23157,21194,0.0
-1559,-22692,21222,0.0
-1519,-22350,21358,0.0
-1477,-21942,21425,0.0
-1434,-21534,21482,0.0
-1394,-21127,21535,0.0
-1359,-20807,21671,0.0
-1318,-20373,21681,0.0
-1282,-20017,21767,0.0
-1247,-19645,21830,0.0
-1211,-19256,21866,0.0
-1180,-18934,21973,0.0
-1146,-18561,22015,0.0
-1117,-18244,22118,0.0
-1085,-17863,22138,0.0
-1057,-17523,22200,0.0
-1029,-17193,22270,0.0
-1000,-16837,22302,0.0
-976,-16543,22409,0.0
-950,-16213,22465,0.0
-911,-15639,22169,0.0
-881,-15208,22057,0.0
-871,-15107,22426,0.0
-856,-14926,22678,0.0
-836,-14627,22755,0.0
-815,-14316,22805,0.0
-794,-13992,22833,0.0
-774,-13660,22838,0.0
-757,-13386,22938,0.0
-739,-13081,22979,0.0
-723,-12784,23032,0.0
-707,-12494,23091,0.0
-691,-12194,23125,0.0
-675,-11899,23167,0.0
-663,-11639,23274,0.0
-649,-11318,23256,0.0
-638,-11063,23367,0.0
-626,-10791,23443,0.0
-615,-10509,23493,0.0
-604,-10234,23554,0.0
-594,-9953,23600,0.0
-585,-9690,23685,0.0
-575,-9400,23702,0.0
-570,-9152,23823,0.0
-561,-8874,23861,0.0
-554,-8600,23909,0.0
-513,-7802,22449,0.0
-507,-7542,22475,0.0
-504,-7309,22584,0.0
-529,-7477,23982,0.0
-525,-7214,24045,0.0
-523,-6957,24132,0.0
-517,-6664,24086,0.0
-518,-6433,24263,0.0
-517,-6177,24356,0.0
-514,-5892,24325,0.0
-515,-5646,24458,0.0
-514,-5385,24523,0.0
-516,-5122,24585,0.0
-517,-4861,24663,0.0
-520,-4608,24783,0.0
-522,-4343,24842,0.0
-526,-4086,24947,0.0
-529,-3811,24956,0.0
-534,-3555,25087,0.0
-536,-3270,25007,0.0
-543,-3021,25208,0.0
-538,-2695,24742,0.0
-543,-2429,24778,0.0
-550,-2167,24865,0.0
-570,-1945,25475,0.0
-577,-1669,25463,0.0
-586,-1398,25544,0.0
-597,-1128,25674,0.0
-606,-852,25699,0.0
-616,-577,25768,0.0
-627,-300,25791,0.0
-640,-22,25913,0.0
-653,257,26009,0.0
-655,529,25630,0.0
-666,803,25573,0.0
-680,1083,25659,0.0
-690,1353,25540,0.0
-714,1654,25941,0.0
-747,1985,26605,0.0
-765,2277,26666,0.0
-783,2575,26747,0.0
-802,2874,26832,0.0
-822,3175,26896,0.0
-843,3479,26975,0.0
-862,3777,26996,0.0
-886,4093,27121,0.0
-910,4413,27255,0.0
-934,4725,27311,0.0
-959,5049,27425,0.0
-983,5363,27467,0.0
-1008,5680,27513,0.0
-1038,6020,27654,0.0
-1065,6347,27714,0.0
-1093,6676,27774,0.0
-1098,6859,27243,0.0
-1347,8588,32622,0.0
-1345,8736,31791,0.0
-3,22,81,0.0
-3,25,87,0.0
-1431,9737,31424,0.0
-4,34,108,0.0
-3,27,83,0.0
-4,30,88,0.0
-4,34,95,0.0
-4,34,92,0.0
-4,38,100,0.0
-5,39,101,0.0
-5,44,109,0.0
-6,53,127,0.0
-7,57,133,0.0
-6,56,127,0.0
-7,53,117,0.0
-8,65,138,0.0
-9,73,152,0.0
-8,70,140,0.0
-10,77,151,0.0
-9,76,145,0.0
-11,86,161,0.0
-11,86,156,0.0
-11,90,157,0.0
-12,97,167,0.0
-11,91,152,0.0
-12,93,154,0.0
-12,99,159,0.0
-13,102,160,0.0
-14,109,167,0.0
-14,107,159,0.0
-14,113,166,0.0
-14,113,161,0.0
-14,112,157,0.0
-14,116,158,0.0
-15,123,164,0.0
-16,122,158,0.0
-16,121,154,0.0
-16,123,153,0.0
-16,124,150,0.0
-16,124,147,0.0
-16,120,140,0.0
-16,120,138,0.0
-16,119,132,0.0
-17,123,135,0.0
-17,128,137,0.0
-17,133,139,0.0
-18,136,139,0.0
-18,137,137,0.0
-18,135,132,0.0
33,-281,82,0.0
33,-275,83,0.0
34,-277,88,0.0
35,-280,91,0.0
37,-284,96,0.0
37,-278,97,0.0
38,-279,101,0.0
38,-278,103,0.0
39,-275,107,0.0
41,-283,112,0.0
42,-280,116,0.0
42,-284,121,0.0
42,-279,122,0.0
43,-277,125,0.0
43,-272,127,0.0
45,-278,133,0.0
45,-274,134,0.0
45,-269,135,0.0
47,-275,142,0.0
47,-268,142,0.0
54,-301,165,0.0
52,-285,159,0.0
49,-264,151,0.0
48,-249,147,0.0
47,-242,146,0.0
43,-218,134,0.0
45,-224,142,0.0
43,-211,137,0.0
42,-203,135,0.0
40,-184,126,0.0
38,-176,123,0.0
37,-166,119,0.0
34,-154,113,0.0
433,-1892,1414,0.0
0,0,0,0.0
5538,-23325,18252,0.0
5547,-22938,18361,0.0
5532,-22461,18386,0.0
5547,-22116,18514,0.0
5536,-21673,18553,0.0
5542,-21302,18645,0.0
5544,-20926,18728,0.0
5542,-20535,18790,0.0
5549,-20185,18884,0.0
5551,-19824,18961,0.0
5561,-19498,19065,0.0
5570,-19167,19161,0.0
5575,-18830,19245,0.0
5571,-18469,19300,0.0
5565,-18105,19344,0.0
5561,-17756,19396,0.0
5567,-17441,19481,0.0
5570,-17122,19557,0.0
5574,-16807,19633,0.0
5573,-16482,19693,0.0
5577,-16175,19767,0.0
5687,-16173,20219,0.0
5843,-16294,20842,0.0
5922,-16187,21185,0.0
6089,-16312,21849,0.0
6283,-16493,22613,0.0
0,0,0,0.0
0,0,0,0.0
0,0,0,0.0
7906,-19092,28786,1.0
0,0,0,0.0
0,0,0,0.0
8150,-18435,29925,1.0
0,0,0,0.0
0,0,0,0.0
0,0,0,0.0
0,0,0,0.0
0,0,0,0.0
0,0,0,0.0
0,0,0,0.0
0,0,0,0.0
0,0,0,0.0
0,0,0,0.0
0,0,0,0.0
0,0,0,0.0
0,0,0,0.0
0,0,0,0.0
0,0,0,0.0
0,0,0,0.0
0,0,0,0.0
0,0,0,0.0
0,0,0,0.0
0,0,0,0.0
0,0,0,0.0
0,0,0,0.0
0,0,0,0.0
0,0,0,0.0
0,0,0,0.0
0,0,0,0.0
0,0,0,0.0
0,0,0,0.0
0,0,0,0.0
8697,-7570,34520,1.0
0,0,0,0.0
0,0,0,0.0
0,0,0,0.0
0,0,0,0.0
0,0,0,0.0
0,0,0,0.0
0,0,0,0.0
0,0,0,0.0
0,0,0,0.0
0,0,0,0.0
0,0,0,0.0
0,0,0,0.0
6377,-1832,26169,0.0
5965,-1442,24538,0.0
5811,-1139,23970,0.0
5593,-839,23129,0.0
5367,-558,22255,0.0
5581,-321,23199,0.0
5586,-61,23287,0.0
5574,198,23296,0.0
5588,462,23420,0.0
5584,725,23464,0.0
5583,991,23524,0.0
5583,1258,23589,0.0
5579,1526,23640,0.0
5588,1799,23741,0.0
5575,2068,23753,0.0
5568,2338,23788,0.0
5564,2612,23838,0.0
5582,2900,23985,0.0
5574,3177,24022,0.0
5566,3455,24052,0.0
5569,3741,24136,0.0
5557,4021,24159,0.0
5565,4318,24268,0.0
5575,4618,24380,0.0
5560,4902,24392,0.0
5565,5206,24491,0.0
5557,5501,24530,0.0
1,1,7,0.0
7,7,31,0.0
4,5,18,0.0
12,15,56,0.0
14,17,61,0.0
18,22,77,0.0
15,20,67,0.0
18,27,85,0.0
20,31,94,0.0
18,29,85,0.0
21,34,98,0.0
21,35,96,0.0
21,36,97,0.0
21,38,98,0.0
25,46,113,0.0
25,49,116,0.0
24,47,109,0.0
27,55,123,0.0
28,60,132,0.0
29,64,137,0.0
28,64,133,0.0
29,70,139,0.0
27,65,129,0.0
27,69,131,0.0
28,74,136,0.0
26,70,128,0.0
29,80,141,0.0
27,77,133,0.0
27,81,135,0.0
27,83,135,0.0
25,81,128,0.0
28,89,138,0.0
27,89,136,0.0
24,82,121,0.0
24,86,125,0.0
23,85,120,0.0
23,84,116,0.0
23,90,120,0.0
23,93,123,0.0
24,98,126,0.0
22,94,118,0.0
22,95,116,0.0
21,96,116,0.0
21,97,115,0.0
21,98,113,0.0
20,95,107,0.0
20,96,105,0.0
20,104,111,0.0
20,102,107,0.0
20,104,108,0.0
20,108,108,0.0
19,110,110,0.0
19,114,111,0.0
19,109,104,0.0
20,125,116,0.0
-10,-323,103,0.0
-8,-315,103,0.0
-8,-302,103,0.0
-7,-296,105,0.0
-7,-291,106,0.0
-6,-291,110,0.0
-5,-280,109,0.0
-5,-283,113,0.0
-4,-271,113,0.0
-4,-269,115,0.0
-3,-264,115,0.0
-3,-272,123,0.0
-2,-262,123,0.0
-1,-263,125,0.0
-1,-264,129,0.0
-1,-263,132,0.0
0,-256,133,0.0
0,-275,147,0.0
0,-290,158,0.0
0,-298,167,0.0
1,-292,167,0.0
2,-284,167,0.0
2,-272,163,0.0
1,-242,149,0.0
2,-240,151,0.0
3,-242,157,0.0
3,-217,144,0.0
3,-219,148,0.0
4,-215,149,0.0
4,-196,139,0.0
4,-195,142,0.0
4,-166,123,0.0
3,-158,120,0.0
4,-121,94,0.0
3,-108,86,0.0
3,-98,80,0.0
2,-72,60,0.0
3,-78,66,0.0
799,-21480,18657,0.0
826,-21052,18688,0.0
858,-20763,18837,0.0
884,-20386,18900,0.0
912,-20034,18981,0.0
935,-19629,19004,0.0
963,-19338,19131,0.0
987,-19006,19215,0.0
1010,-18642,19257,0.0
1032,-18300,19319,0.0
1055,-17988,19405,0.0
1074,-17621,19427,0.0
1096,-17330,19527,0.0
1117,-17007,19585,0.0
1137,-16714,19675,0.0
1154,-16381,19711,0.0
1174,-16089,19792,0.0
1219,-16142,20303,0.0
1265,-16214,20851,0.0
1305,-16175,21274,0.0
1358,-16311,21942,0.0
1414,-16447,22634,0.0
0,0,0,0.0
0,0,0,0.0
0,0,0,0.0
1783,-18298,27622,1.0
1803,-17944,27737,1.0
0,0,0,0.0
0,0,0,0.0
0,0,0,0.0
1920,-16937,28851,1.0
0,0,0,0.0
0,0,0,0.0
2095,-16898,31055,1.0
0,0,0,0.0
0,0,0,0.0
2169,-15989,31810,1.0
0,0,0,0.0
0,0,0,0.0
0,0,0,0.0
0,0,0,0.0
0,0,0,0.0
2206,-13519,31916,1.0
0,0,0,0.0
2229,-12807,32162,1.0
0,0,0,0.0
0,0,0,0.0
0,0,0,0.0
2350,-11805,33854,1.0
0,0,0,0.0
0,0,0,0.0
0,0,0,0.0
2339,-10151,33762,1.0
0,0,0,0.0
0,0,0,0.0
0,0,0,0.0
0,0,0,0.0
2281,-8038,33170,1.0
0,0,0,0.0
0,0,0,0.0
0,0,0,0.0
0,0,0,0.0
0,0,0,0.0
0,0,0,0.0
0,0,0,0.0
0,0,0,0.0
0,0,0,0.0
2216,-4325,33297,1.0
0,0,0,0.0
0,0,0,0.0
0,0,0,0.0
2130,-2805,32634,1.0
2093,-2419,32258,1.0
1645,-1634,25487,0.0
1546,-1283,24117,0.0
1494,-992,23445,0.0
1463,-727,23107,0.0
1458,-478,23205,0.0
1451,-227,23262,0.0
1442,25,23292,0.0
1436,279,23370,0.0
1427,533,23410,0.0
1420,791,23505,0.0
1412,1049,23577,0.0
1400,1307,23602,0.0
1389,1566,23634,0.0
1380,1830,23716,0.0
1371,2096,23796,0.0
1360,2363,23861,0.0
1347,2628,23896,0.0
1334,2897,23955,0.0
1322,3170,24021,0.0
1310,3447,24100,0.0
1296,3723,24159,0.0
1281,3999,24205,0.0
1267,4282,24278,0.0
1252,4566,24346,0.0
1,3,14,0.0
1,4,22,0.0
0,1,7,0.0
0,0,0,0.0
0,0,0,0.0
1,5,18,0.0
2,9,33,0.0
3,19,70,0.0
4,22,79,0.0
3,27,92,0.0
3,25,81,0.0
3,28,88,0.0
3,31,92,0.0
3,30,87,0.0
4,34,94,0.0
3,36,96,0.0
4,41,107,0.0
3,42,104,0.0
3,45,109,0.0
3,47,110,0.0
3,47,108,0.0
4,57,128,0.0
4,52,113,0.0
3,64,135,0.0
3,64,133,0.0
3,65,130,0.0
3,67,129,0.0
3,74,139,0.0
3,80,148,0.0
3,78,140,0.0
2,74,128,0.0
2,86,146,0.0
1,80,135,0.0
1,85,139,0.0
1,84,133,0.0
1,95,148,0.0
1,89,136,0.0
0,97,143,0.0
0,97,141,0.0
0,98,138,0.0
0,96,132,0.0
0,103,138,0.0
0,99,130,0.0
-1,100,128,0.0
0,108,136,0.0
-1,95,118,0.0
0,105,126,0.0
-1,99,116,0.0
-1,103,119,0.0
-1,104,118,0.0
-2,102,113,0.0
-3,105,114,0.0
-2,110,116,0.0
-2,112,116,0.0
-3,121,122,0.0
-4,116,116,0.0
-4,123,119,0.0
-24,-348,112,0.0
-23,-347,115,0.0
