//X,Y,Z,Classification
68,127,120,0.0
70,131,122,0.0
72,138,125,0.0
70,138,122,0.0
70,141,123,0.0
71,144,122,0.0
71,149,124,0.0
72,152,124,0.0
73,160,127,0.0
106,-302,64,0.0
105,-296,67,0.0
106,-291,69,0.0
106,-291,72,0.0
101,-272,70,0.0
99,-264,71,0.0
102,-267,75,0.0
103,-267,78,0.0
98,-250,76,0.0
103,-259,82,0.0
103,-256,84,0.0
109,-267,92,0.0
106,-257,91,0.0
103,-247,90,0.0
111,-261,99,0.0
109,-253,99,0.0
108,-249,101,0.0
112,-254,106,0.0
111,-246,106,0.0
116,-254,113,0.0
113,-247,113,0.0
115,-247,116,0.0
120,-253,123,0.0
116,-242,120,0.0
117,-240,124,0.0
122,-248,130,0.0
126,-253,137,0.0
139,-273,153,0.0
138,-267,153,0.0
140,-267,157,0.0
142,-267,161,0.0
139,-258,160,0.0
136,-250,159,0.0
130,-235,153,0.0
126,-224,149,0.0
121,-212,146,0.0
123,-213,150,0.0
116,-197,142,0.0
113,-189,139,0.0
99,-163,124,0.0
12709,-20615,15993,0.0
12657,-20220,16070,0.0
12630,-19868,16174,0.0
12573,-19472,16237,0.0
12538,-19117,16327,0.0
12494,-18749,16400,0.0
12460,-18401,16485,0.0
12418,-18045,16556,0.0
12374,-17688,16620,0.0
12351,-17367,16713,0.0
12303,-17011,16766,0.0
12263,-16673,16831,0.0
12253,-16377,16932,0.0
12210,-16040,16987,0.0
12166,-15704,17037,0.0
12146,-15403,17118,0.0
12275,-15290,17410,0.0
12505,-15293,17843,0.0
12679,-15223,18203,0.0
13028,-15352,18814,1.0
13074,-15115,18990,1.0
13081,-14833,19107,1.0
13107,-14573,19250,1.0
13107,-14286,19355,1.0
13090,-13980,19433,1.0
13095,-13700,19542,1.0
13134,-13456,19701,1.0
13106,-13143,19757,1.0
13128,-12882,19889,1.0
13089,-12561,19924,1.0
13100,-12290,20035,1.0
13116,-12024,20152,1.0
13142,-11766,20284,1.0
13132,-11477,20360,1.0
13147,-11210,20471,1.0
13122,-10910,20520,1.0
13128,-10636,20614,1.0
13168,-10390,20761,1.0
13161,-10106,20837,1.0
13177,-9840,20944,1.0
13151,-9543,20983,1.0
13147,-9264,21057,1.0
13215,-9034,21245,1.0
13221,-8761,21333,1.0
13195,-8466,21368,1.0
13197,-8191,21446,1.0
13184,-7905,21497,1.0
13166,-7619,21541,1.0
13179,-7351,21637,1.0
1200,-643,1978,0.0
13185,-6801,21785,1.0
13182,-6523,21850,1.0
13203,-6257,21951,1.0
646,-292,1079,0.0
13156,-5684,22005,1.0
13196,-5424,22136,1.0
13196,-5148,22200,1.0
13182,-4866,22237,1.0
13192,-4592,22315,1.0
13201,-4318,22390,1.0
13176,-4032,22407,1.0
13169,-3752,22453,1.0
13205,-3484,22572,1.0
3972,-964,6808,0.0
3398,-753,5838,0.0
3046,-610,5246,0.0
2822,-505,4869,0.0
2813,-444,4865,0.0
2812,-383,4875,0.0
2819,-324,4899,0.0
2816,-263,4903,0.0
2778,-200,4847,0.0
2816,-142,4924,0.0
2818,-81,4937,0.0
2819,-20,4949,0.0
2828,41,4974,0.0
2824,103,4976,0.0
2826,164,4989,0.0
2833,227,5009,0.0
2823,288,5001,0.0
2820,350,5005,0.0
2822,413,5015,0.0
2825,477,5029,0.0
2828,541,5041,0.0
2826,604,5046,0.0
2837,671,5073,0.0
2831,733,5070,0.0
2843,801,5097,0.0
2845,867,5108,0.0
2841,931,5109,0.0
21,7,40,0.0
19,7,36,0.0
25,9,46,0.0
30,13,56,0.0
34,14,62,0.0
28,13,52,0.0
37,18,68,0.0
35,18,65,0.0
38,21,70,0.0
39,22,71,0.0
48,28,88,0.0
39,24,73,0.0
43,27,79,0.0
45,30,84,0.0
53,36,97,0.0
52,38,96,0.0
55,40,99,0.0
58,44,107,0.0
58,46,107,0.0
52,43,96,0.0
56,47,103,0.0
60,52,110,0.0
59,53,108,0.0
56,52,104,0.0
67,64,124,0.0
67,66,124,0.0
55,56,103,0.0
54,56,100,0.0
57,61,105,0.0
55,61,103,0.0
57,64,105,0.0
56,65,102,0.0
59,70,109,0.0
56,69,104,0.0
58,73,108,0.0
63,79,115,0.0
61,79,112,0.0
59,80,109,0.0
58,79,107,0.0
60,84,110,0.0
60,86,111,0.0
62,91,114,0.0
59,88,108,0.0
62,95,114,0.0
62,97,113,0.0
65,104,119,0.0
62,101,113,0.0
67,112,122,0.0
66,112,120,0.0
64,113,118,0.0
66,116,119,0.0
67,122,122,0.0
66,123,120,0.0
66,126,120,0.0
67,130,121,0.0
69,134,123,0.0
69,138,123,0.0
70,142,124,0.0
69,144,124,0.0
72,152,128,0.0
70,152,124,0.0
70,156,125,0.0
102,-298,64,0.0
98,-282,65,0.0
95,-271,65,0.0
95,-269,67,0.0
97,-269,71,0.0
97,-266,73,0.0
98,-265,76,0.0
96,-255,76,0.0
100,-262,81,0.0
100,-256,83,0.0
98,-250,84,0.0
101,-256,89,0.0
98,-244,88,0.0
100,-244,91,0.0
101,-245,93,0.0
105,-251,99,0.0
105,-246,101,0.0
102,-238,100,0.0
109,-251,109,0.0
108,-242,109,0.0
110,-244,113,0.0
111,-243,116,0.0
113,-245,120,0.0
112,-238,120,0.0
116,-242,126,0.0
118,-243,129,0.0
120,-246,134,0.0
133,-266,150,0.0
131,-260,150,0.0
134,-262,156,0.0
134,-259,157,0.0
129,-245,153,0.0
130,-244,156,0.0
120,-222,146,0.0
120,-220,148,0.0
115,-206,143,0.0
105,-186,131,0.0
100,-175,127,0.0
101,-174,129,0.0
12398,-20889,15920,0.0
12377,-20541,16038,0.0
12316,-20127,16097,0.0
12281,-19761,16187,0.0
12231,-19377,16257,0.0
12203,-19029,16351,0.0
12165,-18672,16430,0.0
12131,-18323,16512,0.0
12093,-17973,16585,0.0
12042,-17607,16638,0.0
12006,-17266,16708,0.0
11981,-16944,16791,0.0
11946,-16611,16859,0.0
11917,-16289,16931,0.0
11827,-15889,16914,0.0
11756,-15519,16923,0.0
11825,-15335,17129,0.0
12002,-15287,17493,0.0
12238,-15306,17945,0.0
12397,-15222,18288,1.0
12745,-15357,18909,1.0
12878,-15225,19217,1.0
12893,-14951,19346,1.0
13008,-14790,19623,1.0
13055,-14550,19800,1.0
13093,-14301,19964,1.0
13130,-14048,20123,1.0
13096,-13720,20172,1.0
13156,-13492,20365,1.0
13128,-13174,20420,1.0
13129,-12885,20519,1.0
13138,-12605,20626,1.0
13121,-12302,20696,1.0
13141,-12033,20820,1.0
13139,-11745,20907,1.0
13129,-11450,20982,1.0
13154,-11187,21111,1.0
13157,-10904,21204,1.0
13157,-10620,21290,1.0
1091,-857,1774,0.0
13160,-10054,21463,1.0
13126,-9746,21490,1.0
13200,-9517,21691,1.0
13175,-9215,21731,1.0
13190,-8944,21835,1.0
13188,-8660,21910,1.0
1015,-644,1694,0.0
13230,-8121,22133,1.0
13198,-7819,22153,1.0
13235,-7557,22288,1.0
13202,-7257,22305,1.0
0,0,0,0.0
13171,-6676,22393,1.0
13166,-6393,22454,1.0
13176,-6117,22539,1.0
13187,-5839,22622,1.0
13199,-5562,22709,1.0
0,0,0,0.0
13205,-5000,22847,1.0
13207,-4717,22913,1.0
1125,-378,1959,0.0
13179,-4142,22985,1.0
13173,-3855,23034,1.0
13234,-3589,23200,1.0
3870,-966,6803,0.0
3357,-766,5914,0.0
2967,-612,5239,0.0
2790,-515,4938,0.0
2755,-448,4887,0.0
2784,-393,4951,0.0
2778,-332,4952,0.0
2777,-271,4959,0.0
2761,-208,4940,0.0
2775,-149,4976,0.0
2787,-87,5008,0.0
2779,-25,5002,0.0
2783,35,5020,0.0
2773,97,5012,0.0
2782,159,5038,0.0
2767,221,5019,0.0
2789,285,5068,0.0
2783,347,5064,0.0
2775,409,5057,0.0
2786,474,5089,0.0
2785,538,5092,0.0
2798,604,5125,0.0
2787,666,5112,0.0
2794,732,5133,0.0
43,12,79,0.0
45,14,84,0.0
25,8,47,0.0
15,5,29,0.0
15,5,29,0.0
20,7,38,0.0
21,8,39,0.0
23,10,45,0.0
39,18,73,0.0
31,15,59,0.0
31,15,58,0.0
25,13,48,0.0
36,21,69,0.0
38,23,73,0.0
36,22,69,0.0
42,27,79,0.0
40,27,76,0.0
47,33,88,0.0
55,40,104,0.0
53,40,100,0.0
51,40,96,0.0
48,39,90,0.0
47,39,90,0.0
50,43,95,0.0
55,49,104,0.0
47,43,89,0.0
51,48,97,0.0
55,53,103,0.0
55,54,103,0.0
53,55,101,0.0
53,56,100,0.0
49,53,92,0.0
50,57,96,0.0
50,58,96,0.0
52,61,98,0.0
52,63,100,0.0
53,66,101,0.0
55,70,105,0.0
55,72,105,0.0
56,75,107,0.0
55,76,105,0.0
56,79,107,0.0
54,77,101,0.0
56,81,105,0.0
58,87,110,0.0
55,85,105,0.0
57,89,107,0.0
57,92,108,0.0
60,97,112,0.0
58,96,109,0.0
59,102,112,0.0
59,102,110,0.0
62,109,115,0.0
60,110,113,0.0
61,114,115,0.0
63,118,116,0.0
63,123,118,0.0
64,127,119,0.0
67,135,123,0.0
63,129,117,0.0
63,134,118,0.0
66,141,122,0.0
68,149,125,0.0
67,149,122,0.0
66,152,122,0.0
98,-294,65,0.0
99,-294,68,0.0
95,-278,67,0.0
96,-275,70,0.0
96,-274,73,0.0
94,-263,73,0.0
93,-258,75,0.0
96,-262,78,0.0
96,-258,81,0.0
94,-249,81,0.0
98,-257,87,0.0
98,-251,87,0.0
99,-252,91,0.0
101,-254,95,0.0
101,-252,98,0.0
101,-247,99,0.0
101,-243,100,0.0
102,-243,103,0.0
105,-248,109,0.0
107,-249,113,0.0
107,-245,114,0.0
106,-240,115,0.0
112,-250,123,0.0
111,-243,124,0.0
115,-247,129,0.0
113,-241,130,0.0
126,-264,146,0.0
125,-260,148,0.0
135,-273,159,0.0
130,-260,155,0.0
132,-259,159,0.0
127,-247,156,0.0
126,-242,156,0.0
113,-214,141,0.0
114,-213,145,0.0
101,-186,130,0.0
103,-186,132,0.0
95,-170,124,0.0
95,-167,125,0.0
12069,-20814,15964,0.0
12046,-20461,16075,0.0
11990,-20055,16138,0.0
11956,-19691,16228,0.0
11909,-19308,16296,0.0
11865,-18937,16367,0.0
11827,-18578,16442,0.0
11790,-18224,16515,0.0
11734,-17845,16559,0.0
11713,-17525,16651,0.0
11694,-17207,16742,0.0
11669,-16886,16823,0.0
11614,-16524,16858,0.0
11605,-16230,16957,0.0
11521,-15835,16943,0.0
11539,-15584,17078,0.0
11540,-15312,17187,0.0
11740,-15298,17591,0.0
12020,-15380,18118,0.0
12151,-15263,18422,1.0
12507,-15418,19071,1.0
12620,-15263,19350,1.0
1003,-1191,1548,0.0
12809,-14901,19856,1.0
12913,-14724,20122,1.0
12924,-14442,20244,1.0
484,-530,763,0.0
12992,-13926,20557,1.0
988,-1036,1571,0.0
13047,-13394,20843,1.0
13131,-13186,21076,1.0
13105,-12865,21131,1.0
13131,-12596,21268,1.0
13148,-12319,21388,1.0
1152,-1054,1883,0.0
13159,-11744,21593,1.0
0,0,0,0.0
13230,-11221,21887,1.0
13161,-10872,21863,1.0
766,-616,1279,0.0
13342,-10434,22338,1.0
1100,-835,1849,0.0
1184,-874,1999,0.0
13528,-9687,22902,1.0
0,0,0,0.0
13639,-9169,23256,1.0
13713,-8919,23462,1.0
0,0,0,0.0
13752,-8344,23687,1.0
13721,-8026,23711,1.0
0,0,0,0.0
1149,-621,1999,0.0
13698,-7116,23897,1.0
13760,-6848,24076,1.0
13788,-6561,24199,1.0
13728,-6232,24164,1.0
13690,-5916,24165,1.0
13573,-5570,24029,1.0
987,-384,1753,0.0
13464,-4936,23964,1.0
13404,-4620,23923,1.0
1035,-334,1852,0.0
3710,-1116,6655,0.0
876,-245,1577,0.0
3782,-972,6820,0.0
3297,-775,5960,0.0
2934,-624,5315,0.0
2732,-521,4963,0.0
2724,-459,4958,0.0
2719,-397,4961,0.0
2722,-337,4977,0.0
2727,-277,4996,0.0
2718,-214,4991,0.0
2729,-154,5020,0.0
2726,-93,5025,0.0
2729,-31,5039,0.0
2725,30,5044,0.0
2731,91,5063,0.0
2725,154,5062,0.0
2726,216,5073,0.0
2727,278,5084,0.0
2726,341,5090,0.0
2739,407,5123,0.0
2723,468,5103,0.0
2727,532,5118,0.0
2737,598,5144,0.0
2741,663,5158,0.0
2749,730,5183,0.0
2746,795,5183,0.0
2740,858,5179,0.0
20,6,39,0.0
18,6,36,0.0
20,7,39,0.0
15,5,29,0.0
16,6,30,0.0
21,9,40,0.0
27,13,53,0.0
28,14,54,0.0
29,15,57,0.0
37,20,72,0.0
31,19,62,0.0
31,19,62,0.0
37,23,71,0.0
45,30,88,0.0
42,29,82,0.0
38,27,74,0.0
46,34,89,0.0
46,35,89,0.0
49,39,95,0.0
44,36,88,0.0
48,40,93,0.0
51,44,98,0.0
55,49,105,0.0
53,49,102,0.0
54,52,105,0.0
53,53,103,0.0
54,55,105,0.0
47,50,92,0.0
50,54,97,0.0
49,54,96,0.0
52,60,102,0.0
50,59,97,0.0
48,58,93,0.0
50,61,97,0.0
53,66,102,0.0
52,67,102,0.0
53,71,103,0.0
56,77,110,0.0
52,72,101,0.0
54,77,104,0.0
55,80,107,0.0
55,81,106,0.0
57,87,110,0.0
54,85,105,0.0
56,89,108,0.0
54,90,106,0.0
56,93,109,0.0
59,101,114,0.0
59,101,113,0.0
59,105,115,0.0
60,109,115,0.0
61,115,118,0.0
58,111,112,0.0
59,115,115,0.0
58,116,112,0.0
62,126,121,0.0
63,131,121,0.0
60,126,115,0.0
62,135,119,0.0
65,142,123,0.0
67,150,127,0.0
63,145,120,0.0
62,145,117,0.0
94,-292,66,0.0
93,-282,66,0.0
92,-278,68,0.0
88,-261,68,0.0
91,-265,71,0.0
90,-258,73,0.0
92,-262,77,0.0
90,-252,77,0.0
92,-253,80,0.0
94,-255,85,0.0
90,-242,83,0.0
92,-245,86,0.0
97,-254,93,0.0
93,-240,91,0.0
98,-247,97,0.0
101,-253,102,0.0
101,-249,104,0.0
100,-244,105,0.0
104,-249,111,0.0
102,-241,110,0.0
103,-242,114,0.0
103,-237,115,0.0
110,-250,124,0.0
107,-240,123,0.0
110,-243,127,0.0
118,-255,138,0.0
124,-267,149,0.0
130,-274,156,0.0
124,-258,152,0.0
120,-248,149,0.0
114,-231,143,0.0
117,-234,149,0.0
113,-224,145,0.0
113,-219,146,0.0
103,-199,136,0.0
105,-197,138,0.0
92,-170,122,0.0
11811,-21503,15815,0.0
11769,-21104,15901,0.0
11728,-20714,15987,0.0
11684,-20324,16066,0.0
11662,-19974,16170,0.0
11616,-19589,16240,0.0
11583,-19231,16326,0.0
11545,-18867,16400,0.0
11511,-18513,16477,0.0
11448,-18116,16509,0.0
11412,-17768,16577,0.0
11398,-17457,16675,0.0
11377,-17139,16764,0.0
11337,-16795,16819,0.0
11320,-16487,16905,0.0
11282,-16151,16959,0.0
11258,-15840,17032,0.0
11227,-15522,17092,0.0
11214,-15231,17177,0.0
11457,-15282,17654,0.0
11736,-15371,18191,0.0
238,-307,372,0.0
12213,-15409,19145,1.0
12295,-15222,19383,1.0
12450,-15118,19734,1.0
12588,-14989,20058,1.0
12622,-14732,20216,1.0
12665,-14485,20388,1.0
12800,-14341,20710,1.0
12816,-14061,20838,1.0
12853,-13804,20998,1.0
12941,-13599,21241,1.0
12970,-13330,21386,1.0
0,0,0,0.0
12962,-12728,21566,1.0
13022,-12489,21761,1.0
13038,-12209,21882,1.0
13054,-11927,22000,1.0
13076,-11650,22129,1.0
13057,-11338,22185,1.0
13026,-11017,22221,1.0
1137,-936,1948,0.0
0,0,0,0.0
13013,-10127,22454,1.0
13125,-9920,22732,1.0
718,-526,1249,0.0
13312,-9465,23221,1.0
13315,-9169,23307,1.0
0,0,0,0.0
13429,-8648,23667,1.0
992,-616,1754,0.0
0,0,0,0.0
1153,-665,2053,0.0
13499,-7490,24100,1.0
1021,-543,1830,0.0
1221,-623,2195,0.0
13637,-6654,24565,1.0
13587,-6327,24546,1.0
13475,-5975,24415,1.0
13411,-5646,24365,1.0
13287,-5299,24207,1.0
13297,-5005,24292,1.0
0,0,0,0.0
1027,-340,1886,0.0
1023,-317,1886,0.0
3829,-1098,7068,0.0
3712,-981,6870,0.0
3230,-781,5992,0.0
2862,-628,5322,0.0
2693,-530,5019,0.0
2671,-465,4990,0.0
2677,-404,5012,0.0
2676,-344,5022,0.0
2681,-283,5041,0.0
2673,-222,5038,0.0
2682,-160,5065,0.0
2678,-99,5067,0.0
2677,-36,5076,0.0
2673,24,5077,0.0
2681,86,5102,0.0
2677,149,5103,0.0
2679,212,5117,0.0
2691,275,5149,0.0
2686,339,5149,0.0
2688,402,5160,0.0
2688,466,5171,0.0
2688,530,5178,0.0
2690,594,5189,0.0
2687,659,5192,0.0
2691,725,5208,0.0
2697,791,5227,0.0
8,2,18,0.0
15,5,30,0.0
11,4,23,0.0
16,6,31,0.0
16,6,31,0.0
18,8,36,0.0
28,13,55,0.0
28,14,56,0.0
24,12,49,0.0
28,16,57,0.0
28,16,57,0.0
30,18,60,0.0
34,20,67,0.0
32,20,64,0.0
35,24,70,0.0
39,27,78,0.0
41,29,82,0.0
40,30,80,0.0
47,38,95,0.0
47,38,95,0.0
43,36,86,0.0
47,40,94,0.0
47,42,94,0.0
50,46,101,0.0
50,48,101,0.0
50,49,99,0.0
52,53,105,0.0
48,51,97,0.0
50,52,99,0.0
48,53,96,0.0
47,53,95,0.0
47,55,95,0.0
47,56,94,0.0
45,55,90,0.0
47,60,96,0.0
49,64,100,0.0
50,67,101,0.0
46,62,92,0.0
50,70,100,0.0
50,72,101,0.0
55,81,110,0.0
51,77,103,0.0
49,75,99,0.0
50,79,100,0.0
52,85,106,0.0
52,85,104,0.0
54,90,108,0.0
55,95,110,0.0
54,94,108,0.0
55,98,110,0.0
54,99,107,0.0
56,106,113,0.0
57,109,114,0.0
57,112,113,0.0
58,115,115,0.0
59,120,117,0.0
58,120,114,0.0
58,124,116,0.0
59,127,115,0.0
59,130,116,0.0
60,134,117,0.0
65,149,127,0.0
62,147,122,0.0
62,149,121,0.0
94,-298,68,0.0
92,-289,69,0.0
91,-283,71,0.0
89,-270,71,0.0
88,-266,73,0.0
89,-265,76,0.0
90,-262,78,0.0
92,-266,83,0.0
91,-260,83,0.0
93,-258,86,0.0
93,-256,89,0.0
93,-253,90,0.0
96,-259,96,0.0
97,-256,98,0.0
97,-252,99,0.0
99,-254,103,0.0
101,-258,108,0.0
102,-253,110,0.0
103,-254,114,0.0
103,-249,115,0.0
103,-247,118,0.0
105,-248,121,0.0
105,-245,123,0.0
110,-253,130,0.0
109,-249,132,0.0
119,-265,144,0.0
125,-275,154,0.0
125,-272,157,0.0
124,-263,156,0.0
120,-253,153,0.0
117,-244,152,0.0
115,-236,151,0.0
111,-225,147,0.0
108,-216,144,0.0
101,-199,136,0.0
101,-195,138,0.0
87,-165,120,0.0
11468,-21395,15835,0.0
11440,-21025,15939,0.0
11403,-20638,16025,0.0
11368,-20261,16112,0.0
11342,-19905,16209,0.0
11278,-19485,16248,0.0
11262,-19156,16354,0.0
11216,-18776,16412,0.0
11186,-18430,16493,0.0
11160,-18091,16574,0.0
11124,-17741,16640,0.0
11100,-17414,16722,0.0
11065,-17072,16783,0.0
11037,-16746,16855,0.0
11016,-16433,16933,0.0
10974,-16090,16977,0.0
10962,-15796,17066,0.0
10923,-15465,17110,0.0
10950,-15230,17256,0.0
11147,-15226,17671,0.0
11430,-15330,18225,0.0
11648,-15335,18677,1.0
11981,-15481,19319,1.0
12138,-15388,19679,1.0
0,0,0,0.0
1067,-1300,1748,0.0
12352,-14763,20341,1.0
0,0,0,0.0
12505,-14347,20798,1.0
12632,-14192,21112,1.0
12632,-13892,21213,1.0
0,0,0,0.0
12775,-13446,21650,1.0
1130,-1163,1924,0.0
12789,-12861,21868,1.0
12871,-12643,22101,1.0
0,0,0,0.0
997,-933,1728,0.0
12887,-11760,22406,1.0
12971,-11536,22641,1.0
12858,-11139,22534,1.0
12807,-10799,22531,1.0
12787,-10488,22580,1.0
12820,-10221,22724,1.0
12858,-9956,22875,1.0
12983,-9756,23179,1.0
798,-581,1431,0.0
13105,-9249,23561,1.0
13141,-8973,23705,1.0
1034,-682,1872,0.0
13229,-8430,24023,1.0
154,-94,281,0.0
1162,-687,2123,0.0
0,0,0,0.0
13337,-7284,24523,1.0
0,0,0,0.0
13400,-6708,24785,1.0
0,0,0,0.0
0,0,0,0.0
1157,-500,2161,0.0
13135,-5378,24570,1.0
0,0,0,0.0
0,0,0,0.0
13026,-4441,24558,1.0
884,-281,1673,0.0
1058,-313,2005,0.0
1047,-285,1990,0.0
836,-208,1593,0.0
12708,-2873,24257,1.0
3599,-731,6886,0.0
3406,-612,6532,0.0
3145,-493,6045,0.0
2954,-394,5691,0.0
2715,-299,5243,0.0
2553,-221,4939,0.0
2528,-160,4902,0.0
2548,-101,4950,0.0
2538,-41,4940,0.0
2527,18,4928,0.0
2543,79,4971,0.0
2532,138,4957,0.0
2538,199,4978,0.0
2538,260,4985,0.0
2543,322,5005,0.0
2543,383,5013,0.0
2554,447,5044,0.0
2547,507,5038,0.0
2549,570,5049,0.0
2543,632,5046,0.0
2554,698,5076,0.0
17,5,36,0.0
14,4,29,0.0
13,4,29,0.0
42,15,85,0.0
21,8,43,0.0
14,5,30,0.0
25,11,52,0.0
23,11,46,0.0
29,15,60,0.0
31,17,66,0.0
25,14,52,0.0
34,20,70,0.0
53,32,108,0.0
70,44,144,0.0
51,34,104,0.0
47,33,96,0.0
37,26,77,0.0
43,32,89,0.0
44,34,90,0.0
48,38,99,0.0
52,43,107,0.0
46,39,95,0.0
48,42,97,0.0
54,50,111,0.0
50,47,102,0.0
49,48,101,0.0
53,53,109,0.0
50,52,104,0.0
51,55,106,0.0
49,53,101,0.0
57,64,117,0.0
52,61,108,0.0
53,62,109,0.0
46,56,96,0.0
45,56,94,0.0
48,62,100,0.0
46,62,97,0.0
48,65,100,0.0
50,71,104,0.0
48,68,100,0.0
49,71,101,0.0
53,80,110,0.0
52,80,108,0.0
51,80,105,0.0
50,80,103,0.0
49,80,101,0.0
50,84,103,0.0
52,89,108,0.0
55,95,113,0.0
51,93,107,0.0
53,98,109,0.0
56,105,115,0.0
56,108,116,0.0
56,109,115,0.0
55,110,114,0.0
55,113,114,0.0
55,115,113,0.0
61,131,125,0.0
59,129,122,0.0
57,126,116,0.0
58,133,119,0.0
61,141,124,0.0
60,141,121,0.0
62,149,126,0.0
59,144,119,0.0
87,-287,67,0.0
86,-276,67,0.0
81,-256,65,0.0
85,-265,70,0.0
84,-259,72,0.0
84,-257,74,0.0
85,-255,76,0.0
84,-248,78,0.0
86,-250,81,0.0
88,-254,86,0.0
89,-253,89,0.0
89,-250,90,0.0
89,-245,91,0.0
91,-247,95,0.0
96,-255,102,0.0
97,-256,106,0.0
99,-256,109,0.0
98,-251,111,0.0
94,-241,109,0.0
100,-250,117,0.0
104,-255,122,0.0
101,-245,121,0.0
102,-245,125,0.0
103,-244,127,0.0
108,-250,134,0.0
116,-264,145,0.0
119,-270,153,0.0
115,-258,149,0.0
112,-247,148,0.0
120,-260,159,0.0
114,-243,153,0.0
103,-218,140,0.0
109,-225,148,0.0
94,-190,129,0.0
89,-180,124,0.0
82,-163,115,0.0
84,-164,119,0.0
11139,-21311,15869,0.0
11103,-20922,15956,0.0
11071,-20543,16046,0.0
11020,-20136,16105,0.0
11008,-19804,16218,0.0
10959,-19410,16275,0.0
10926,-19049,16353,0.0
10907,-18716,16449,0.0
10874,-18363,16521,0.0
10829,-17992,16571,0.0
10798,-17650,16641,0.0
10771,-17319,16715,0.0
10764,-17020,16817,0.0
10722,-16671,16862,0.0
809,-1237,1282,0.0
10644,-15992,16954,0.0
10647,-15720,17064,0.0
10620,-15407,17125,0.0
10714,-15270,17380,0.0
10921,-15285,17818,0.0
11113,-15272,18234,0.0
11360,-15325,18744,1.0
11692,-15478,19397,1.0
11848,-15390,19763,1.0
11980,-15262,20087,1.0
12020,-15016,20260,1.0
12095,-14811,20488,1.0
941,-1129,1603,0.0
263,-309,451,0.0
12303,-14163,21146,1.0
0,0,0,0.0
12487,-13767,21660,1.0
1069,-1153,1863,0.0
12541,-13223,21950,1.0
12589,-12972,22129,1.0
0,0,0,0.0
12731,-12509,22568,1.0
12702,-12178,22608,1.0
0,0,0,0.0
12760,-11630,22893,1.0
12647,-11228,22780,1.0
976,-843,1765,0.0
977,-821,1774,0.0
12571,-10273,22897,1.0
12619,-10015,23067,1.0
1067,-822,1959,0.0
1086,-811,2001,0.0
1080,-781,1995,0.0
12918,-9045,23943,1.0
12970,-8778,24118,1.0
13021,-8509,24291,1.0
0,0,0,0.0
736,-447,1384,0.0
0,0,0,0.0
1048,-587,1981,0.0
13121,-7047,24857,1.0
1006,-516,1912,0.0
995,-487,1897,0.0
968,-452,1852,0.0
0,0,0,0.0
12932,-5440,24848,1.0
1022,-406,1970,0.0
12855,-4808,24832,1.0
160,-56,312,0.0
12809,-4190,24870,1.0
12728,-3865,24774,1.0
959,-269,1874,0.0
12584,-3230,24614,1.0
783,-183,1537,0.0
3504,-734,6888,0.0
3288,-611,6476,0.0
3091,-501,6102,0.0
2899,-401,5735,0.0
2678,-307,5311,0.0
2513,-227,4994,0.0
2502,-167,4983,0.0
2489,-107,4967,0.0
2496,-46,4989,0.0
2503,12,5016,0.0
2498,74,5012,0.0
2500,134,5028,0.0
2496,195,5028,0.0
2511,257,5067,0.0
2501,318,5056,0.0
2510,381,5085,0.0
2503,442,5078,0.0
2498,504,5076,0.0
2503,568,5094,0.0
2506,631,5111,0.0
2500,693,5104,0.0
2516,760,5144,0.0
12,3,25,0.0
17,6,36,0.0
45,17,94,0.0
13,5,28,0.0
7,3,16,0.0
24,11,51,0.0
22,11,47,0.0
32,15,66,0.0
25,13,54,0.0
26,15,56,0.0
29,17,61,0.0
29,18,61,0.0
33,21,69,0.0
38,25,82,0.0
35,25,75,0.0
36,27,76,0.0
40,31,85,0.0
40,31,84,0.0
39,32,84,0.0
41,35,86,0.0
41,35,87,0.0
46,41,98,0.0
43,41,92,0.0
45,43,94,0.0
45,44,94,0.0
45,47,97,0.0
49,51,103,0.0
44,48,94,0.0
48,54,103,0.0
44,51,93,0.0
54,64,115,0.0
48,59,102,0.0
40,51,87,0.0
42,55,91,0.0
42,56,90,0.0
46,63,98,0.0
44,61,94,0.0
45,64,96,0.0
45,65,95,0.0
45,66,95,0.0
43,67,94,0.0
46,74,99,0.0
46,74,99,0.0
46,77,100,0.0
48,79,101,0.0
48,82,102,0.0
49,85,103,0.0
49,87,103,0.0
49,89,103,0.0
50,94,106,0.0
50,97,108,0.0
50,99,106,0.0
53,107,112,0.0
54,111,115,0.0
52,110,111,0.0
52,112,111,0.0
50,112,108,0.0
53,119,113,0.0
53,123,114,0.0
54,126,114,0.0
54,130,115,0.0
55,133,115,0.0
59,145,124,0.0
55,140,117,0.0
85,-287,67,0.0
84,-280,69,0.0
85,-278,71,0.0
85,-276,75,0.0
84,-270,76,0.0
86,-269,78,0.0
85,-262,80,0.0
84,-256,81,0.0
90,-270,89,0.0
88,-261,89,0.0
89,-258,91,0.0
91,-261,96,0.0
90,-258,98,0.0
92,-259,101,0.0
96,-266,107,0.0
97,-261,109,0.0
96,-259,111,0.0
96,-256,113,0.0
100,-259,119,0.0
99,-256,120,0.0
100,-252,122,0.0
102,-255,127,0.0
103,-254,130,0.0
105,-254,134,0.0
113,-269,145,0.0
116,-273,151,0.0
118,-272,155,0.0
119,-271,159,0.0
113,-257,154,0.0
109,-241,148,0.0
112,-244,154,0.0
98,-213,138,0.0
94,-199,132,0.0
94,-197,134,0.0
95,-197,136,0.0
91,-184,131,0.0
10850,-21623,15813,0.0
10811,-21220,15895,0.0
10780,-20839,15986,0.0
10743,-20450,16065,0.0
10712,-20079,16150,0.0
10681,-19711,16233,0.0
10649,-19346,16311,0.0
10618,-18987,16387,0.0
10584,-18627,16457,0.0
10571,-18308,16556,0.0
10527,-17939,16606,0.0
10491,-17586,16663,0.0
10482,-17282,16762,0.0
10443,-16931,16810,0.0
10426,-16623,16894,0.0
10400,-16300,16958,0.0
10342,-15932,16969,0.0
10343,-15658,17074,0.0
10322,-15353,17141,0.0
10479,-15311,17504,0.0
10672,-15314,17929,0.0
10812,-15232,18265,0.0
11104,-15356,18862,1.0
11403,-15476,19474,1.0
1092,-1453,1874,0.0
0,0,0,0.0
11721,-15009,20329,1.0
11802,-14815,20573,1.0
11867,-14597,20787,1.0
827,-998,1458,0.0
12087,-14262,21374,1.0
12156,-14041,21595,1.0
12211,-13803,21791,1.0
12250,-13542,21955,1.0
12302,-13297,22146,1.0
12390,-13088,22401,1.0
1074,-1109,1951,0.0
0,0,0,0.0
12457,-12244,22799,1.0
0,0,0,0.0
992,-926,1830,0.0
0,0,0,0.0
12412,-10998,23072,1.0
12316,-10616,22977,1.0
983,-823,1842,0.0
1233,-1003,2318,0.0
1022,-806,1927,0.0
963,-737,1823,0.0
720,-534,1368,0.0
0,0,0,0.0
12763,-8862,24394,1.0
0,0,0,0.0
12781,-8265,24584,1.0
848,-529,1639,0.0
992,-594,1921,0.0
0,0,0,0.0
0,0,0,0.0
12969,-6842,25322,1.0
1020,-513,2000,0.0
1013,-486,1991,0.0
1027,-468,2022,0.0
992,-430,1959,0.0
0,0,0,0.0
890,-342,1769,0.0
12561,-4530,24995,1.0
12481,-4202,24900,1.0
12479,-3902,24958,1.0
12331,-3560,24723,1.0
1049,-277,2110,0.0
994,-240,2004,0.0
3414,-738,6894,0.0
3267,-628,6613,0.0
3022,-507,6131,0.0
2811,-403,5716,0.0
2606,-311,5310,0.0
2473,-235,5051,0.0
2465,-173,5044,0.0
2469,-113,5061,0.0
2470,-52,5076,0.0
2464,8,5073,0.0
2459,69,5072,0.0
2470,130,5103,0.0
2472,192,5119,0.0
2465,254,5114,0.0
2469,316,5131,0.0
2461,378,5123,0.0
2465,441,5140,0.0
2458,502,5135,0.0
2470,568,5167,0.0
2480,634,5198,0.0
2477,697,5199,0.0
2470,759,5193,0.0
22,7,49,0.0
27,9,59,0.0
18,6,38,0.0
24,10,53,0.0
19,8,41,0.0
22,10,48,0.0
22,11,47,0.0
31,15,67,0.0
38,20,82,0.0
24,14,53,0.0
31,19,68,0.0
34,21,74,0.0
39,25,83,0.0
41,27,88,0.0
45,32,98,0.0
44,32,96,0.0
43,34,95,0.0
39,31,85,0.0
47,39,103,0.0
49,42,108,0.0
47,42,104,0.0
46,43,100,0.0
51,49,113,0.0
51,50,110,0.0
45,45,98,0.0
51,54,113,0.0
49,54,107,0.0
49,55,107,0.0
51,59,112,0.0
50,59,110,0.0
51,62,111,0.0
47,59,104,0.0
43,55,95,0.0
44,58,97,0.0
49,67,110,0.0
44,61,96,0.0
44,63,97,0.0
45,66,99,0.0
45,67,100,0.0
44,67,97,0.0
46,73,103,0.0
47,76,103,0.0
45,75,100,0.0
47,81,105,0.0
47,80,103,0.0
48,86,106,0.0
47,85,103,0.0
49,90,108,0.0
54,101,117,0.0
50,95,109,0.0
51,100,113,0.0
52,105,115,0.0
53,110,116,0.0
52,110,114,0.0
53,113,116,0.0
54,119,118,0.0
53,118,115,0.0
53,122,116,0.0
56,131,122,0.0
52,126,115,0.0
56,136,122,0.0
55,137,120,0.0
55,140,120,0.0
56,145,121,0.0
82,-284,68,0.0
79,-273,69,0.0
78,-262,68,0.0
79,-262,72,0.0
81,-263,75,0.0
82,-266,79,0.0
82,-263,82,0.0
81,-253,81,0.0
81,-251,84,0.0
83,-252,87,0.0
88,-265,94,0.0
87,-259,96,0.0
87,-255,97,0.0
87,-251,99,0.0
91,-258,106,0.0
92,-258,109,0.0
93,-255,110,0.0
89,-243,109,0.0
94,-253,116,0.0
94,-247,117,0.0
95,-249,122,0.0
93,-239,120,0.0
97,-246,127,0.0
98,-243,129,0.0
103,-254,138,0.0
113,-272,152,0.0
110,-263,151,0.0
110,-260,152,0.0
109,-251,152,0.0
102,-232,144,0.0
101,-228,145,0.0
93,-208,135,0.0
89,-194,129,0.0
85,-183,125,0.0
87,-184,129,0.0
10550,-21915,15739,0.0
10510,-21504,15819,0.0
10479,-21118,15910,0.0
10454,-20748,16006,0.0
10432,-20386,16105,0.0
10395,-20002,16176,0.0
10362,-19627,16251,0.0
10338,-19278,16339,0.0
10289,-18883,16383,0.0
10280,-18568,16488,0.0
10255,-18225,16565,0.0
10214,-17859,16615,0.0
10195,-17534,16696,0.0
10152,-17175,16738,0.0
10154,-16891,16850,0.0
10119,-16553,16901,0.0
10092,-16227,16959,0.0
10066,-15909,17021,0.0
10037,-15588,17073,0.0
10028,-15301,17158,0.0
10215,-15310,17578,0.0
10448,-15378,18081,0.0
10539,-15230,18339,1.0
10809,-15333,18912,1.0
11142,-15510,19596,1.0
11315,-15454,20004,1.0
11409,-15283,20274,1.0
11457,-15048,20460,1.0
11526,-14839,20682,1.0
879,-1109,1586,0.0
11696,-14454,21189,1.0
11792,-14272,21464,1.0
11822,-14005,21615,1.0
11930,-13830,21910,1.0
11994,-13599,22122,1.0
11998,-13302,22227,1.0
647,-701,1206,0.0
852,-901,1592,0.0
12180,-12585,22843,1.0
0,0,0,0.0
12223,-12021,23107,1.0
951,-912,1806,0.0
1013,-946,1931,0.0
12143,-11038,23217,1.0
0,0,0,0.0
0,0,0,0.0
0,0,0,0.0
0,0,0,0.0
12195,-9587,23733,1.0
12265,-9340,23948,1.0
12332,-9090,24158,1.0
959,-683,1886,0.0
969,-667,1910,0.0
12606,-8369,24932,1.0
0,0,0,0.0
12744,-7838,25360,1.0
12735,-7522,25416,1.0
958,-543,1919,0.0
0,0,0,0.0
12767,-6607,25703,1.0
872,-430,1762,0.0
976,-457,1977,0.0
0,0,0,0.0
12392,-5205,25220,1.0
0,0,0,0.0
12252,-4547,25065,1.0
1027,-356,2108,0.0
12230,-3939,25147,1.0
762,-227,1570,0.0
950,-260,1964,0.0
1028,-255,2130,0.0
3342,-747,6937,0.0
3192,-635,6642,0.0
2959,-515,6170,0.0
2747,-409,5742,0.0
2563,-318,5367,0.0
2453,-243,5149,0.0
2448,-181,5150,0.0
2431,-119,5123,0.0
2443,-58,5161,0.0
2439,3,5164,0.0
2439,64,5171,0.0
2439,127,5184,0.0
2446,190,5209,0.0
2444,253,5213,0.0
2454,317,5242,0.0
2444,379,5230,0.0
2448,442,5248,0.0
2447,506,5256,0.0
2440,569,5250,0.0
2443,634,5263,0.0
2443,699,5274,0.0
11,3,25,0.0
14,4,34,0.0
13,4,30,0.0
19,7,44,0.0
18,7,41,0.0
14,6,34,0.0
16,8,37,0.0
22,11,50,0.0
25,13,57,0.0
31,17,69,0.0
21,12,47,0.0
29,18,65,0.0
30,18,66,0.0
36,24,80,0.0
34,24,78,0.0
34,25,76,0.0
38,28,83,0.0
40,32,91,0.0
38,31,85,0.0
40,34,89,0.0
40,35,89,0.0
39,35,88,0.0
41,38,92,0.0
40,39,89,0.0
44,45,100,0.0
43,45,96,0.0
43,46,96,0.0
47,52,105,0.0
46,52,104,0.0
45,53,102,0.0
45,54,101,0.0
46,57,105,0.0
47,60,106,0.0
42,56,97,0.0
38,53,88,0.0
42,60,97,0.0
41,59,93,0.0
41,60,93,0.0
39,58,88,0.0
43,66,98,0.0
39,62,90,0.0
45,73,103,0.0
45,73,101,0.0
45,78,104,0.0
47,80,106,0.0
48,85,109,0.0
49,89,112,0.0
46,87,106,0.0
46,87,105,0.0
46,90,105,0.0
59,117,134,0.0
51,101,114,0.0
47,98,107,0.0
46,98,105,0.0
48,103,108,0.0
50,110,114,0.0
49,111,111,0.0
51,119,117,0.0
53,124,118,0.0
51,123,116,0.0
52,126,116,0.0
53,134,120,0.0
53,138,121,0.0
51,133,114,0.0
51,136,114,0.0
76,-276,67,0.0
78,-279,71,0.0
78,-272,72,0.0
78,-268,74,0.0
79,-268,77,0.0
82,-272,82,0.0
83,-274,86,0.0
83,-268,87,0.0
82,-263,88,0.0
82,-261,91,0.0
84,-261,94,0.0
85,-260,97,0.0
85,-256,98,0.0
86,-257,102,0.0
89,-259,106,0.0
93,-268,114,0.0
92,-260,114,0.0
91,-255,115,0.0
93,-257,119,0.0
97,-263,125,0.0
93,-251,123,0.0
96,-254,129,0.0
97,-253,131,0.0
100,-257,137,0.0
108,-275,150,0.0
113,-280,158,0.0
109,-268,155,0.0
111,-269,159,0.0
103,-246,150,0.0
106,-248,154,0.0
98,-226,144,0.0
92,-210,137,0.0
85,-191,128,0.0
83,-184,126,0.0
82,-180,128,0.0
10232,-21840,15777,0.0
10192,-21427,15852,0.0
10181,-21080,15971,0.0
10127,-20646,16016,0.0
10104,-20283,16110,0.0
10086,-19935,16209,0.0
10058,-19569,16287,0.0
10026,-19201,16358,0.0
9995,-18839,16428,0.0
9969,-18489,16501,0.0
9952,-18163,16591,0.0
9927,-17821,16660,0.0
9895,-17476,16720,0.0
9889,-17176,16818,0.0
9849,-16821,16858,0.0
9833,-16512,16936,0.0
9805,-16185,16992,0.0
9779,-15865,17049,0.0
9771,-15577,17135,0.0
9758,-15283,17210,0.0
9935,-15284,17622,0.0
10229,-15453,18243,0.0
10297,-15274,18465,1.0
10591,-15421,19095,1.0
10854,-15508,19670,1.0
10988,-15401,20013,1.0
850,-1169,1557,0.0
11211,-15112,20622,1.0
11248,-14862,20790,1.0
0,0,0,0.0
11415,-14479,21300,1.0
11443,-14211,21447,1.0
836,-1017,1576,0.0
11604,-13805,21942,1.0
11714,-13631,22246,1.0
990,-1127,1890,0.0
11751,-13066,22504,1.0
11843,-12863,22773,1.0
891,-945,1722,0.0
793,-821,1539,0.0
11910,-12021,23173,1.0
0,0,0,0.0
852,-816,1671,0.0
1016,-947,2000,0.0
11867,-10772,23434,1.0
938,-827,1860,0.0
11679,-10012,23226,1.0
11851,-9862,23649,1.0
11922,-9621,23870,1.0
129,-101,261,0.0
140,-105,284,0.0
983,-719,1989,0.0
12240,-8651,24825,1.0
12342,-8416,25112,1.0
12417,-8156,25341,1.0
0,0,0,0.0
0,0,0,0.0
937,-545,1930,0.0
0,0,0,0.0
0,0,0,0.0
0,0,0,0.0
22,-10,48,0.0
30,-14,63,0.0
29,-13,61,0.0
981,-400,2060,0.0
980,-374,2062,0.0
1010,-361,2132,0.0
11927,-3959,25222,1.0
11848,-3634,25116,1.0
786,-222,1672,0.0
889,-228,1896,0.0
3247,-751,6934,0.0
3130,-644,6697,0.0
2879,-519,6178,0.0
2675,-414,5751,0.0
2509,-324,5407,0.0
2415,-251,5213,0.0
2418,-188,5234,0.0
2401,-126,5205,0.0
2408,-64,5232,0.0
2405,-2,5236,0.0
2407,61,5252,0.0
2414,124,5276,0.0
2410,186,5277,0.0
2409,249,5284,0.0
2414,313,5308,0.0
2397,375,5278,0.0
2410,441,5315,0.0
2412,506,5331,0.0
2414,572,5345,0.0
2420,638,5365,0.0
2402,699,5335,0.0
17,5,40,0.0
14,4,31,0.0
17,6,40,0.0
17,6,39,0.0
19,8,44,0.0
22,10,51,0.0
25,12,58,0.0
29,15,68,0.0
28,14,63,0.0
22,13,51,0.0
23,13,52,0.0
28,17,63,0.0
33,22,76,0.0
33,23,76,0.0
35,25,80,0.0
33,25,78,0.0
37,29,87,0.0
43,35,99,0.0
46,39,106,0.0
41,36,95,0.0
44,40,101,0.0
47,44,109,0.0
42,41,99,0.0
48,48,112,0.0
72,74,167,0.0
48,51,111,0.0
45,50,106,0.0
49,55,113,0.0
47,54,109,0.0
49,59,115,0.0
47,57,109,0.0
42,53,98,0.0
52,68,121,0.0
42,57,99,0.0
43,59,100,0.0
46,66,110,0.0
43,62,100,0.0
48,71,111,0.0
43,65,100,0.0
46,72,108,0.0
40,65,95,0.0
42,69,98,0.0
45,76,106,0.0
44,78,105,0.0
43,76,101,0.0
44,80,103,0.0
46,85,108,0.0
44,85,105,0.0
44,86,104,0.0
45,90,106,0.0
46,94,108,0.0
47,98,110,0.0
48,102,112,0.0
46,99,106,0.0
48,106,112,0.0
47,107,111,0.0
46,108,108,0.0
53,127,125,0.0
51,123,119,0.0
49,122,116,0.0
50,126,117,0.0
48,126,114,0.0
50,133,118,0.0
49,133,116,0.0
49,137,116,0.0
71,-263,65,0.0
73,-268,68,0.0
72,-260,69,0.0
74,-263,73,0.0
73,-255,75,0.0
75,-255,78,0.0
73,-248,78,0.0
77,-258,84,0.0
77,-252,86,0.0
79,-255,90,0.0
77,-246,89,0.0
83,-261,99,0.0
83,-257,100,0.0
81,-249,100,0.0
85,-257,107,0.0
84,-251,107,0.0
88,-257,113,0.0
87,-251,114,0.0
85,-242,113,0.0
88,-247,119,0.0
88,-243,120,0.0
89,-243,123,0.0
92,-246,128,0.0
93,-246,132,0.0
105,-274,150,0.0
104,-268,152,0.0
105,-265,154,0.0
101,-251,150,0.0
99,-242,149,0.0
93,-226,142,0.0
92,-219,141,0.0
86,-202,133,0.0
84,-196,132,0.0
76,-172,119,0.0
76,-172,123,0.0
9910,-21752,15802,0.0
9876,-21348,15882,0.0
9861,-20989,15989,0.0
9824,-20591,16060,0.0
9781,-20186,16117,0.0
9764,-19837,16213,0.0
9737,-19474,16291,0.0
9718,-19127,16377,0.0
9691,-18772,16450,0.0
9663,-18418,16518,0.0
9637,-18071,16585,0.0
9624,-17754,16676,0.0
9598,-17416,16740,0.0
9566,-17070,16791,0.0
9555,-16767,16878,0.0
9544,-16465,16962,0.0
9517,-16139,17016,0.0
9480,-15800,17051,0.0
9385,-15368,16977,0.0
9465,-15227,17219,0.0
9648,-15245,17649,0.0
9903,-15366,18212,0.0
10030,-15278,18544,1.0
716,-1071,1332,0.0
754,-1108,1411,0.0
10718,-15429,20125,1.0
10918,-15414,20600,1.0
907,-1255,1720,0.0
10994,-14918,20944,1.0
11038,-14676,21125,1.0
11084,-14437,21310,1.0
831,-1060,1606,0.0
11232,-14022,21786,1.0
11319,-13829,22051,1.0
11397,-13619,22296,1.0
0,0,0,0.0
11494,-13123,22671,1.0
11537,-12869,22851,1.0
11583,-12614,23030,1.0
11645,-12376,23244,1.0
11658,-12084,23360,1.0
0,0,0,0.0
1024,-1008,2069,0.0
963,-923,1954,0.0
11647,-10860,23681,1.0
974,-883,1988,0.0
902,-794,1849,0.0
0,0,0,0.0
11586,-9605,23880,1.0
974,-782,2017,0.0
0,0,0,0.0
0,0,0,0.0
0,0,0,0.0
12006,-8414,25144,1.0
0,0,0,0.0
0,0,0,0.0
0,0,0,0.0
917,-548,1945,0.0
858,-491,1825,0.0
21,-11,47,0.0
28,-14,60,0.0
25,-12,55,0.0
930,-438,1998,0.0
932,-415,2010,0.0
930,-391,2010,0.0
11688,-4601,25308,1.0
896,-330,1948,0.0
895,-306,1948,0.0
11527,-3647,25146,1.0
11439,-3324,25015,1.0
11319,-2996,24809,1.0
3172,-757,6969,0.0
3068,-653,6758,0.0
2812,-526,6208,0.0
2615,-420,5787,0.0
2453,-330,5439,0.0
2397,-260,5326,0.0
2389,-196,5320,0.0
2384,-132,5318,0.0
2392,-70,5348,0.0
2376,-7,5324,0.0
2378,56,5338,0.0
2375,119,5342,0.0
2368,182,5336,0.0
2382,247,5379,0.0
2380,312,5386,0.0
2377,376,5388,0.0
2386,442,5419,0.0
2373,505,5397,0.0
2379,572,5420,0.0
2378,637,5427,0.0
2382,705,5446,0.0
10,2,24,0.0
7,2,18,0.0
15,5,36,0.0
8,3,21,0.0
16,6,39,0.0
15,7,38,0.0
12,5,29,0.0
17,9,42,0.0
25,14,60,0.0
24,13,57,0.0
21,13,50,0.0
30,20,71,0.0
29,19,69,0.0
30,21,72,0.0
32,24,78,0.0
32,24,77,0.0
34,27,80,0.0
38,31,91,0.0
33,28,78,0.0
36,32,85,0.0
38,34,89,0.0
33,31,78,0.0
40,39,95,0.0
44,45,105,0.0
38,41,93,0.0
49,53,118,0.0
38,43,93,0.0
43,50,104,0.0
44,54,107,0.0
42,52,103,0.0
41,52,99,0.0
51,67,122,0.0
52,70,126,0.0
41,57,100,0.0
41,57,97,0.0
38,55,91,0.0
36,55,88,0.0
41,63,99,0.0
38,59,90,0.0
40,63,96,0.0
38,62,91,0.0
36,62,89,0.0
40,71,98,0.0
37,68,92,0.0
39,71,94,0.0
41,76,99,0.0
41,79,100,0.0
41,80,99,0.0
42,84,102,0.0
39,81,96,0.0
42,89,102,0.0
42,89,101,0.0
42,92,102,0.0
40,91,99,0.0
44,101,107,0.0
43,100,104,0.0
45,108,110,0.0
47,115,115,0.0
46,116,112,0.0
46,119,113,0.0
46,120,112,0.0
44,118,108,0.0
47,126,112,0.0
48,134,117,0.0
47,133,114,0.0
69,-267,66,0.0
72,-271,71,0.0
69,-258,70,0.0
71,-259,73,0.0
72,-259,77,0.0
74,-263,81,0.0
74,-260,83,0.0
75,-259,86,0.0
75,-258,88,0.0
79,-265,95,0.0
79,-263,96,0.0
79,-259,98,0.0
81,-260,102,0.0
82,-259,105,0.0
83,-257,107,0.0
83,-256,111,0.0
86,-258,115,0.0
86,-258,118,0.0
86,-252,119,0.0
87,-253,123,0.0
86,-245,122,0.0
86,-240,123,0.0
91,-251,133,0.0
91,-250,135,0.0
101,-273,152,0.0
101,-267,152,0.0
102,-265,155,0.0
98,-250,150,0.0
99,-251,154,0.0
94,-233,147,0.0
90,-220,142,0.0
83,-201,133,0.0
79,-189,129,0.0
73,-171,119,0.0
72,-167,119,0.0
9584,-21650,15815,0.0
9554,-21252,15896,0.0
9534,-20882,15992,0.0
9518,-20526,16092,0.0
9481,-20126,16153,0.0
9462,-19775,16245,0.0
9441,-19418,16326,0.0
9421,-19071,16409,0.0
9384,-18693,16459,0.0
9358,-18341,16527,0.0
9347,-18026,16621,0.0
9330,-17698,16700,0.0
9297,-17345,16747,0.0
9276,-17019,16816,0.0
9258,-16702,16887,0.0
9253,-16409,16978,0.0
9225,-16081,17028,0.0
9212,-15781,17102,0.0
9187,-15465,17154,0.0
9221,-15246,17310,0.0
9373,-15222,17692,0.0
9611,-15328,18240,0.0
9781,-15313,18658,1.0
10024,-15404,19220,1.0
10290,-15517,19830,1.0
10433,-15435,20205,1.0
10547,-15302,20523,1.0
10634,-15128,20793,1.0
708,-987,1392,0.0
10771,-14716,21253,1.0
10815,-14474,21436,1.0
806,-1057,1607,0.0
10965,-14066,21924,1.0
913,-1147,1835,0.0
11101,-13630,22383,1.0
11147,-13383,22569,1.0
11187,-13124,22740,1.0
11261,-12907,22982,1.0
11369,-12722,23293,1.0
952,-1040,1961,0.0
889,-946,1836,0.0
774,-804,1606,0.0
947,-957,1970,0.0
11408,-11236,23810,1.0
11325,-10852,23719,1.0
11123,-10363,23376,1.0
0,0,0,0.0
866,-760,1833,0.0
874,-745,1858,0.0
11374,-9393,24226,1.0
0,0,0,0.0
11603,-8971,24870,1.0
11684,-8725,25119,1.0
11705,-8434,25245,1.0
857,-595,1855,0.0
0,0,0,0.0
0,0,0,0.0
11956,-7360,26090,1.0
0,0,0,0.0
0,0,0,0.0
0,0,0,0.0
910,-464,2009,0.0
891,-433,1973,0.0
11519,-5279,25551,1.0
11514,-4974,25606,1.0
11462,-4650,25557,1.0
755,-287,1688,0.0
731,-259,1641,0.0
11285,-3685,25348,1.0
11158,-3348,25123,1.0
783,-214,1767,0.0
3090,-764,6993,0.0
2969,-654,6734,0.0
2722,-527,6187,0.0
2540,-424,5785,0.0
2407,-337,5494,0.0
2361,-268,5402,0.0
2351,-203,5392,0.0
2349,-140,5397,0.0
2345,-76,5400,0.0
2352,-12,5427,0.0
2347,52,5425,0.0
2335,116,5410,0.0
2347,180,5447,0.0
2343,245,5450,0.0
2357,312,5492,0.0
2347,376,5478,0.0
2344,440,5483,0.0
2344,507,5492,0.0
2353,575,5522,0.0
2346,640,5515,0.0
2338,705,5506,0.0
11,3,27,0.0
8,2,21,0.0
44,16,104,0.0
11,4,28,0.0
16,7,41,0.0
16,8,41,0.0
21,10,50,0.0
21,11,51,0.0
18,10,44,0.0
20,11,48,0.0
26,16,65,0.0
23,15,58,0.0
30,20,73,0.0
28,21,70,0.0
31,24,78,0.0
30,24,74,0.0
36,29,88,0.0
35,29,86,0.0
38,33,94,0.0
43,40,106,0.0
38,37,96,0.0
39,39,96,0.0
37,38,91,0.0
37,38,92,0.0
37,40,93,0.0
39,44,98,0.0
37,43,93,0.0
42,50,104,0.0
36,44,89,0.0
41,52,104,0.0
39,52,98,0.0
43,58,107,0.0
45,63,112,0.0
47,67,117,0.0
40,58,100,0.0
40,60,100,0.0
42,65,106,0.0
42,66,105,0.0
40,65,100,0.0
38,63,96,0.0
39,68,99,0.0
39,67,96,0.0
37,67,95,0.0
39,71,97,0.0
38,71,96,0.0
38,72,94,0.0
38,75,97,0.0
38,77,96,0.0
39,81,99,0.0
46,97,115,0.0
40,88,103,0.0
42,93,106,0.0
43,97,108,0.0
41,95,105,0.0
42,100,106,0.0
41,101,105,0.0
44,109,111,0.0
44,111,112,0.0
46,119,116,0.0
46,120,115,0.0
46,123,116,0.0
46,127,117,0.0
45,127,114,0.0
45,131,115,0.0
44,129,110,0.0
66,-264,67,0.0
67,-264,70,0.0
70,-271,75,0.0
71,-272,77,0.0
72,-269,81,0.0
71,-264,83,0.0
74,-270,87,0.0
76,-270,90,0.0
75,-263,91,0.0
77,-270,96,0.0
78,-268,100,0.0
81,-273,105,0.0
81,-269,106,0.0
79,-261,106,0.0
82,-262,111,0.0
84,-267,115,0.0
84,-262,117,0.0
83,-257,119,0.0
88,-268,127,0.0
87,-258,126,0.0
87,-254,128,0.0
88,-254,131,0.0
90,-257,136,0.0
93,-264,143,0.0
100,-275,155,0.0
102,-277,159,0.0
101,-270,159,0.0
99,-261,157,0.0
95,-246,152,0.0
103,-264,168,0.0
115,-290,190,0.0
82,-205,137,0.0
79,-194,132,0.0
83,-200,140,0.0
72,-171,123,0.0
9279,-21587,15854,0.0
9248,-21184,15929,0.0
9224,-20804,16014,0.0
9200,-20428,16097,0.0
9166,-20035,16159,0.0
9155,-19697,16259,0.0
9130,-19333,16333,0.0
9117,-18998,16424,0.0
9094,-18646,16496,0.0
9072,-18301,16568,0.0
9057,-17973,16649,0.0
9035,-17636,16715,0.0
9008,-17293,16770,0.0
9005,-16998,16868,0.0
8980,-16669,16924,0.0
8957,-16342,16979,0.0
8931,-16017,17030,0.0
8933,-15742,17129,0.0
8919,-15444,17198,0.0
8965,-15248,17380,0.0
141,-236,276,0.0
9351,-15338,18320,1.0
9519,-15328,18746,1.0
9753,-15414,19303,1.0
10003,-15512,19895,1.0
10135,-15419,20257,1.0
10279,-15336,20641,1.0
10322,-15098,20824,1.0
10399,-14909,21075,1.0
904,-1271,1842,0.0
705,-971,1444,0.0
10596,-14279,21761,1.0
10682,-14091,22031,1.0
790,-1019,1636,0.0
915,-1156,1905,0.0
10841,-13382,22635,1.0
810,-977,1700,0.0
957,-1128,2016,0.0
0,0,0,0.0
11078,-12439,23490,1.0
11161,-12225,23756,1.0
11184,-11941,23889,1.0
11150,-11599,23904,1.0
11093,-11235,23864,1.0
838,-826,1811,0.0
1069,-1025,2318,0.0
0,0,0,0.0
10858,-9812,23678,1.0
10934,-9584,23921,1.0
11061,-9396,24279,1.0
903,-743,1991,0.0
0,0,0,0.0
931,-715,2065,0.0
11405,-8457,25347,1.0
0,0,0,0.0
860,-591,1925,0.0
0,0,0,0.0
11645,-7380,26182,1.0
0,0,0,0.0
875,-507,1979,0.0
0,0,0,0.0
11378,-5986,25864,1.0
11309,-5645,25775,1.0
874,-413,1999,0.0
0,0,0,0.0
699,-292,1607,0.0
855,-335,1971,0.0
823,-300,1901,0.0
10945,-3690,25328,1.0
10829,-3357,25119,1.0
933,-264,2171,0.0
3009,-769,7013,0.0
2912,-664,6802,0.0
2674,-537,6263,0.0
2484,-431,5830,0.0
2369,-346,5571,0.0
2334,-277,5504,0.0
2332,-212,5510,0.0
2329,-147,5513,0.0
2327,-82,5520,0.0
2323,-17,5523,0.0
2317,47,5520,0.0
2324,113,5547,0.0
2326,178,5561,0.0
2321,244,5561,0.0
2323,310,5578,0.0
2326,377,5598,0.0
2322,443,5595,0.0
2323,511,5610,0.0
2327,579,5630,0.0
37,10,91,0.0
25,7,63,0.0
13,3,33,0.0
11,4,27,0.0
14,6,37,0.0
19,7,46,0.0
21,9,53,0.0
17,8,44,0.0
19,9,48,0.0
27,14,67,0.0
24,14,60,0.0
27,16,68,0.0
30,20,78,0.0
27,18,69,0.0
34,24,85,0.0
34,25,85,0.0
32,25,83,0.0
42,34,105,0.0
34,28,86,0.0
42,36,105,0.0
40,36,100,0.0
34,32,88,0.0
33,32,84,0.0
39,39,98,0.0
38,39,97,0.0
39,43,101,0.0
41,45,104,0.0
36,42,94,0.0
39,46,100,0.0
38,46,98,0.0
33,42,86,0.0
46,59,118,0.0
40,53,103,0.0
43,60,111,0.0
39,55,100,0.0
43,63,112,0.0
40,62,106,0.0
40,62,105,0.0
40,64,105,0.0
37,61,97,0.0
40,67,104,0.0
38,66,99,0.0
39,67,100,0.0
38,69,99,0.0
39,72,102,0.0
38,72,98,0.0
38,73,98,0.0
36,72,95,0.0
38,77,98,0.0
38,80,100,0.0
37,79,96,0.0
39,84,102,0.0
39,85,100,0.0
41,94,106,0.0
40,93,104,0.0
39,93,102,0.0
41,100,108,0.0
40,101,106,0.0
41,105,108,0.0
42,112,112,0.0
41,111,109,0.0
43,116,112,0.0
43,119,112,0.0
45,127,117,0.0
45,130,118,0.0
44,131,115,0.0
44,134,116,0.0
67,-276,70,0.0
67,-276,73,0.0
70,-279,77,0.0
70,-278,81,0.0
71,-276,83,0.0
72,-275,86,0.0
72,-270,87,0.0
73,-270,91,0.0
74,-271,95,0.0
78,-280,101,0.0
77,-272,102,0.0
77,-269,104,0.0
81,-278,112,0.0
80,-270,111,0.0
84,-280,119,0.0
84,-276,122,0.0
85,-274,123,0.0
83,-262,122,0.0
85,-266,128,0.0
88,-271,134,0.0
85,-259,131,0.0
87,-259,134,0.0
90,-265,142,0.0
88,-257,141,0.0
99,-284,160,0.0
98,-275,158,0.0
96,-267,158,0.0
97,-263,159,0.0
91,-245,153,0.0
91,-240,153,0.0
83,-219,143,0.0
82,-211,142,0.0
79,-199,137,0.0
74,-186,132,0.0
8993,-21904,15791,0.0
8974,-21520,15886,0.0
8944,-21118,15960,0.0
8920,-20734,16042,0.0
8907,-20381,16140,0.0
8885,-20011,16219,0.0
8856,-19631,16283,0.0
8833,-19268,16355,0.0
8828,-18950,16459,0.0
8804,-18595,16525,0.0
8792,-18269,16612,0.0
8750,-17884,16639,0.0
8748,-17587,16742,0.0
8730,-17260,16810,0.0
8706,-16924,16864,0.0
8690,-16607,16932,0.0
8675,-16297,17001,0.0
8643,-15957,17033,0.0
8644,-15681,17130,0.0
8631,-15384,17199,0.0
8735,-15294,17499,0.0
8900,-15305,17924,0.0
9054,-15286,18326,1.0
9230,-15298,18777,1.0
9525,-15493,19473,1.0
9721,-15514,19968,1.0
9851,-15422,20332,1.0
9977,-15318,20687,1.0
972,-1463,2026,0.0
826,-1219,1729,0.0
731,-1059,1539,0.0
10204,-14450,21539,1.0
944,-1310,2004,0.0
10368,-14074,22071,1.0
10431,-13854,22296,1.0
10514,-13660,22564,1.0
927,-1179,2000,0.0
868,-1078,1879,0.0
10648,-12912,23120,1.0
10763,-12744,23457,1.0
720,-832,1576,0.0
10789,-12160,23689,1.0
10867,-11939,23944,1.0
867,-929,1919,0.0
801,-835,1779,0.0
10775,-10928,23995,1.0
911,-898,2036,0.0
10453,-10015,23433,1.0
0,0,0,0.0
0,0,0,0.0
840,-735,1903,0.0
782,-662,1776,0.0
818,-670,1863,0.0
914,-723,2090,0.0
11163,-8523,25581,1.0
11199,-8240,25737,1.0
0,0,0,0.0
11297,-7687,26113,1.0
0,0,0,0.0
896,-560,2084,0.0
861,-514,2010,0.0
919,-523,2150,0.0
0,0,0,0.0
0,0,0,0.0
844,-412,1991,0.0
876,-403,2069,0.0
10819,-4670,25617,1.0
980,-396,2328,0.0
10716,-4031,25502,1.0
0,0,0,0.0
10569,-3386,25274,1.0
10370,-3033,24858,1.0
2923,-774,7025,0.0
2839,-672,6839,0.0
2604,-543,6285,0.0
2417,-436,5848,0.0
2335,-355,5662,0.0
2307,-285,5605,0.0
2309,-221,5624,0.0
2300,-154,5613,0.0
2296,-88,5616,0.0
2313,-23,5669,0.0
2309,43,5672,0.0
2321,110,5712,0.0
2309,176,5695,0.0
2308,244,5704,0.0
2305,311,5706,0.0
2306,379,5719,0.0
2303,447,5723,0.0
2308,516,5747,0.0
2290,580,5711,0.0
2313,655,5782,0.0
20,6,53,0.0
13,4,35,0.0
22,7,56,0.0
17,6,43,0.0
18,8,46,0.0
18,8,48,0.0
26,12,66,0.0
24,12,62,0.0
20,11,53,0.0
25,15,65,0.0
34,21,89,0.0
29,19,77,0.0
28,20,74,0.0
30,21,78,0.0
31,24,83,0.0
36,28,94,0.0
37,29,96,0.0
39,33,100,0.0
36,32,94,0.0
39,36,101,0.0
41,39,106,0.0
42,42,113,0.0
41,43,109,0.0
39,43,105,0.0
41,46,110,0.0
44,51,116,0.0
43,51,113,0.0
46,57,121,0.0
45,57,119,0.0
38,50,102,0.0
41,56,111,0.0
43,61,117,0.0
40,57,108,0.0
42,62,112,0.0
42,63,111,0.0
42,65,112,0.0
42,67,114,0.0
42,69,112,0.0
41,68,108,0.0
39,68,107,0.0
41,73,111,0.0
41,75,112,0.0
39,73,106,0.0
38,72,103,0.0
38,74,102,0.0
35,69,93,0.0
35,72,95,0.0
37,76,98,0.0
37,80,100,0.0
35,77,96,0.0
41,90,109,0.0
37,86,102,0.0
38,90,104,0.0
39,94,106,0.0
40,100,110,0.0
40,100,108,0.0
39,101,106,0.0
40,105,108,0.0
42,113,115,0.0
42,116,115,0.0
43,121,117,0.0
40,115,109,0.0
42,123,114,0.0
42,127,116,0.0
44,136,120,0.0
44,139,120,0.0
61,-259,67,0.0
62,-263,71,0.0
64,-268,75,0.0
64,-263,77,0.0
66,-265,81,0.0
66,-264,84,0.0
67,-262,86,0.0
70,-268,92,0.0
67,-255,90,0.0
70,-261,96,0.0
72,-264,100,0.0
72,-262,103,0.0
75,-267,107,0.0
75,-263,109,0.0
75,-260,111,0.0
76,-260,115,0.0
79,-261,119,0.0
78,-258,120,0.0
80,-261,125,0.0
78,-251,125,0.0
80,-252,128,0.0
82,-252,132,0.0
82,-252,135,0.0
83,-248,137,0.0
93,-273,155,0.0
94,-272,158,0.0
90,-259,155,0.0
89,-253,154,0.0
85,-237,148,0.0
82,-223,144,0.0
78,-210,138,0.0
78,-207,140,0.0
81,-213,147,0.0
109,-282,199,0.0
101,-256,185,0.0
8658,-21424,15895,0.0
8632,-21028,15971,0.0
8614,-20657,16060,0.0
8598,-20294,16148,0.0
8578,-19927,16227,0.0
8560,-19568,16306,0.0
8543,-19217,16386,0.0
8521,-18862,16456,0.0
8502,-18516,16528,0.0
8490,-18186,16609,0.0
8477,-17863,16690,0.0
8446,-17502,16731,0.0
8451,-17220,16842,0.0
8421,-16870,16879,0.0
8412,-16567,16960,0.0
8378,-16219,16988,0.0
8137,-15479,16588,0.0
8362,-15632,17141,0.0
8355,-15343,17218,0.0
8473,-15284,17552,0.0
8593,-15221,17892,0.0
8751,-15220,18312,0.0
8981,-15332,18886,1.0
9244,-15487,19532,1.0
9440,-15518,20041,1.0
9541,-15386,20352,1.0
9694,-15329,20770,1.0
9686,-15016,20846,1.0
0,0,0,0.0
9866,-14689,21421,1.0
9899,-14438,21586,1.0
9963,-14227,21814,1.0
997,-1394,2193,0.0
10088,-13798,22269,1.0
10170,-13605,22538,1.0
10206,-13349,22706,1.0
10296,-13162,22996,1.0
10370,-12950,23248,1.0
10381,-12657,23360,1.0
10407,-12384,23506,1.0
768,-892,1742,0.0
10542,-11928,23979,1.0
0,0,0,0.0
0,0,0,0.0
0,0,0,0.0
0,0,0,0.0
731,-721,1693,0.0
1069,-1025,2483,0.0
0,0,0,0.0
136,-123,320,0.0
0,0,0,0.0
862,-727,2027,0.0
10692,-8715,25204,1.0
731,-575,1731,0.0
829,-628,1968,0.0
1087,-794,2588,0.0
11003,-7717,26239,1.0
839,-564,2007,0.0
852,-549,2045,0.0
10990,-6771,26428,1.0
646,-379,1559,0.0
833,-466,2016,0.0
804,-428,1950,0.0
795,-400,1933,0.0
10597,-5025,25821,1.0
867,-387,2120,0.0
838,-350,2053,0.0
873,-339,2143,0.0
866,-312,2133,0.0
10226,-3389,25224,1.0
10079,-3052,24923,1.0
2845,-779,7053,0.0
55,-14,139,0.0
2481,-537,6178,0.0
2336,-438,5830,0.0
2331,-369,5832,0.0
2335,-303,5855,0.0
2333,-233,5862,0.0
2322,-164,5846,0.0
2310,-96,5829,0.0
2308,-27,5839,0.0
2306,40,5846,0.0
2322,108,5897,0.0
2308,177,5873,0.0
2303,246,5873,0.0
2310,315,5900,0.0
2303,384,5893,0.0
2312,456,5931,0.0
2322,528,5966,0.0
2315,598,5960,0.0
2308,667,5955,0.0
7,2,21,0.0
9,2,24,0.0
26,9,71,0.0
4,1,12,0.0
12,5,34,0.0
12,5,33,0.0
19,9,50,0.0
22,12,61,0.0
65,37,173,0.0
22,14,60,0.0
22,15,61,0.0
25,16,67,0.0
25,18,69,0.0
24,18,65,0.0
28,21,76,0.0
24,19,64,0.0
30,25,82,0.0
33,28,88,0.0
32,29,85,0.0
33,32,92,0.0
36,36,98,0.0
33,35,91,0.0
36,38,99,0.0
33,37,92,0.0
34,39,93,0.0
37,44,101,0.0
34,41,93,0.0
29,38,82,0.0
38,49,104,0.0
37,49,101,0.0
35,49,97,0.0
39,55,107,0.0
37,54,102,0.0
39,59,109,0.0
34,54,96,0.0
36,58,101,0.0
35,58,98,0.0
35,59,97,0.0
36,63,101,0.0
36,63,100,0.0
35,62,96,0.0
30,56,83,0.0
32,61,88,0.0
31,61,87,0.0
32,66,92,0.0
32,66,90,0.0
31,66,88,0.0
32,70,92,0.0
32,71,91,0.0
31,71,88,0.0
35,82,99,0.0
35,83,98,0.0
34,84,97,0.0
33,83,95,0.0
34,87,96,0.0
37,95,103,0.0
35,95,101,0.0
36,100,103,0.0
39,107,109,0.0
39,110,110,0.0
38,110,107,0.0
38,113,107,0.0
38,117,108,0.0
38,121,110,0.0
40,128,114,0.0
39,127,111,0.0
58,-264,69,0.0
60,-265,72,0.0
62,-268,77,0.0
62,-264,78,0.0
65,-272,84,0.0
67,-277,89,0.0
66,-268,89,0.0
66,-265,91,0.0
67,-262,93,0.0
70,-272,100,0.0
71,-270,102,0.0
73,-271,107,0.0
72,-267,109,0.0
75,-272,114,0.0
74,-265,114,0.0
76,-269,119,0.0
77,-266,122,0.0
77,-261,123,0.0
77,-258,125,0.0
80,-262,130,0.0
79,-258,132,0.0
79,-253,133,0.0
80,-252,137,0.0
83,-259,144,0.0
91,-277,158,0.0
89,-269,158,0.0
91,-270,161,0.0
86,-251,154,0.0
84,-241,152,0.0
90,-255,164,0.0
91,-255,169,0.0
85,-234,158,0.0
103,-279,193,0.0
105,-279,198,0.0
104,-272,198,0.0
90,-232,173,0.0
70,-177,135,0.0
8314,-20585,16080,0.0
8293,-20210,16157,0.0
8277,-19852,16240,0.0
8262,-19496,16320,0.0
8244,-19140,16393,0.0
8240,-18823,16494,0.0
8213,-18457,16546,0.0
8206,-18137,16635,0.0
8193,-17809,16710,0.0
8176,-17480,16777,0.0
8147,-17125,16815,0.0
8135,-16812,16889,0.0
8122,-16498,16955,0.0
8115,-16202,17035,0.0
8035,-15765,16958,0.0
8089,-15593,17163,0.0
8082,-15305,17238,0.0
8207,-15266,17596,0.0
8423,-15383,18146,0.0
8484,-15213,18368,1.0
8722,-15352,18975,1.0
8966,-15487,19597,1.0
9203,-15596,20209,1.0
844,-1404,1863,0.0
9355,-15249,20729,1.0
9416,-15046,20955,1.0
9479,-14847,21189,1.0
9562,-14675,21465,1.0
0,0,0,0.0
1386,-2040,3137,0.0
9717,-13999,22083,1.0
9829,-13854,22422,1.0
9842,-13569,22540,1.0
9950,-13414,22877,1.0
827,-1090,1910,0.0
10029,-12906,23230,1.0
0,0,0,0.0
10138,-12433,23655,1.0
787,-942,1844,0.0
1465,-1708,3444,0.0
10275,-11674,24228,1.0
10239,-11327,24223,1.0
0,0,0,0.0
10005,-10473,23828,1.0
700,-713,1676,0.0
9913,-9789,23761,1.0
9957,-9539,23941,1.0
10138,-9413,24452,1.0
10287,-9249,24886,1.0
144,-125,351,0.0
179,-150,436,0.0
961,-778,2346,0.0
0,0,0,0.0
10639,-8007,26118,1.0
10727,-7760,26410,1.0
10761,-7470,26568,1.0
0,0,0,0.0
839,-533,2085,0.0
0,0,0,0.0
0,0,0,0.0
10312,-5653,25803,1.0
0,0,0,0.0
10282,-5035,25861,1.0
10258,-4723,25867,1.0
10176,-4388,25726,1.0
10078,-4050,25541,1.0
837,-313,2129,0.0
