//X,Y,Z,Classification
3.0,-75.0,98.0,0.0
3.0,-82.0,106.0,0.0
3.0,-91.0,114.0,0.0
3.0,-86.0,106.0,0.0
3.0,-79.0,96.0,0.0
3.0,-91.0,107.0,0.0
4.0,-92.0,107.0,0.0
3.0,-83.0,94.0,0.0
3.0,-95.0,105.0,0.0
4.0,-94.0,102.0,0.0
4.0,-102.0,108.0,0.0
4.0,-111.0,115.0,0.0
4.0,-104.0,106.0,0.0
5.0,-114.0,113.0,0.0
6.0,-126.0,122.0,0.0
5.0,-118.0,112.0,0.0
6.0,-115.0,107.0,0.0
6.0,-127.0,116.0,0.0
6.0,-129.0,114.0,0.0
7.0,-130.0,113.0,0.0
6.0,-129.0,110.0,0.0
6.0,-132.0,109.0,0.0
7.0,-143.0,116.0,0.0
7.0,-141.0,112.0,0.0
8.0,-138.0,107.0,0.0
9.0,-153.0,116.0,0.0
8.0,-141.0,104.0,0.0
8.0,-148.0,107.0,0.0
10.0,-157.0,112.0,0.0
10.0,-167.0,116.0,0.0
11.0,-168.0,114.0,0.0
10.0,-165.0,109.0,0.0
11.0,-173.0,112.0,0.0
12.0,-181.0,114.0,0.0
12.0,-178.0,110.0,0.0
12.0,-177.0,107.0,0.0
13.0,-182.0,107.0,0.0
13.0,-187.0,108.0,0.0
13.0,-180.0,101.0,0.0
14.0,-188.0,102.0,0.0
15.0,-200.0,107.0,0.0
14.0,-189.0,98.0,0.0
14.0,-189.0,96.0,0.0
15.0,-198.0,97.0,0.0
16.0,-204.0,98.0,0.0
16.0,-204.0,94.0,0.0
16.0,-201.0,91.0,0.0
16.0,-203.0,89.0,0.0
16.0,-205.0,87.0,0.0
17.0,-211.0,87.0,0.0
17.0,-198.0,79.0,0.0
18.0,-213.0,82.0,0.0
21.0,-246.0,93.0,0.0
23.0,-268.0,97.0,0.0
26.0,-289.0,101.0,0.0
26.0,-283.0,96.0,0.0
26.0,-286.0,93.0,0.0
27.0,-288.0,91.0,0.0
-671.0,34555.0,33544.0,0.0
-475.0,21576.0,21395.0,0.0
-519.0,21006.0,21277.0,0.0
-585.0,21379.0,22122.0,0.0
-629.0,20885.0,22077.0,0.0
-685.0,20770.0,22430.0,0.0
-733.0,20458.0,22573.0,0.0
0.0,0.0,0.0,0.0
-1134.0,27172.0,31302.0,0.0
-1212.0,27071.0,31869.0,0.0
-1248.0,26057.0,31350.0,0.0
-1311.0,25676.0,31573.0,0.0
-1369.0,25217.0,31698.0,0.0
-1437.0,24955.0,32069.0,0.0
-1291.0,21152.0,27794.0,0.0
-1670.0,25895.0,34797.0,0.0
-1422.0,20905.0,28731.0,0.0
-1471.0,20523.0,28855.0,0.0
-1508.0,19981.0,28741.0,0.0
-1551.0,19559.0,28792.0,0.0
-1596.0,19168.0,28881.0,0.0
-1613.0,18473.0,28496.0,0.0
-1628.0,17785.0,28092.0,0.0
-1677.0,17493.0,28304.0,0.0
-1907.0,19003.0,31503.0,0.0
-1965.0,18728.0,31819.0,0.0
-2043.0,18616.0,32425.0,0.0
-2141.0,18675.0,33359.0,0.0
-2180.0,18202.0,33355.0,0.0
-2214.0,17703.0,33293.0,0.0
-1789.0,13709.0,26469.0,0.0
-1847.0,13557.0,26884.0,0.0
-1919.0,13502.0,27514.0,0.0
-1939.0,13074.0,27389.0,0.0
-1960.0,12660.0,27277.0,0.0
-1979.0,12253.0,27170.0,0.0
-1997.0,11849.0,27052.0,0.0
-2014.0,11445.0,26925.0,0.0
-2030.0,11054.0,26808.0,0.0
-2049.0,10683.0,26730.0,0.0
-2065.0,10307.0,26625.0,0.0
-2080.0,9936.0,26519.0,0.0
-2097.0,9578.0,26435.0,0.0
-2111.0,9220.0,26338.0,0.0
-2129.0,8879.0,26277.0,0.0
-2139.0,8518.0,26145.0,0.0
-2154.0,8185.0,26083.0,0.0
-2167.0,7847.0,25994.0,0.0
-2174.0,7495.0,25839.0,0.0
-2190.0,7177.0,25793.0,0.0
-2198.0,6843.0,25668.0,0.0
-2214.0,6537.0,25641.0,0.0
-2222.0,6213.0,25532.0,0.0
-2230.0,5896.0,25428.0,0.0
-2240.0,5585.0,25340.0,0.0
-2250.0,5280.0,25264.0,0.0
-2259.0,4977.0,25185.0,0.0
-2264.0,4669.0,25058.0,0.0
-2276.0,4383.0,25034.0,0.0
-2285.0,4090.0,24964.0,0.0
-2293.0,3800.0,24890.0,0.0
-2298.0,3508.0,24785.0,0.0
-2305.0,3223.0,24709.0,0.0
-2314.0,2943.0,24657.0,0.0
-2319.0,2661.0,24569.0,0.0
-2324.0,2382.0,24496.0,0.0
-2331.0,2108.0,24438.0,0.0
-2335.0,1833.0,24357.0,0.0
-2341.0,1562.0,24287.0,0.0
-2344.0,1291.0,24207.0,0.0
-2348.0,1023.0,24132.0,0.0
-2352.0,757.0,24066.0,0.0
-2357.0,493.0,24001.0,0.0
-2359.0,230.0,23916.0,0.0
-2367.0,-30.0,23898.0,0.0
-2370.0,-290.0,23829.0,0.0
-2375.0,-550.0,23789.0,0.0
-2379.0,-808.0,23743.0,0.0
-2381.0,-1065.0,23663.0,0.0
-2381.0,-1319.0,23587.0,0.0
-2387.0,-1575.0,23558.0,0.0
-2390.0,-1832.0,23519.0,0.0
-2392.0,-2084.0,23451.0,0.0
-2393.0,-2336.0,23385.0,0.0
-2109.0,-2280.0,20550.0,0.0
-2111.0,-2504.0,20520.0,0.0
-2114.0,-2727.0,20480.0,0.0
-2114.0,-2948.0,20436.0,0.0
-2113.0,-3168.0,20375.0,0.0
-2115.0,-3391.0,20345.0,0.0
-2114.0,-3609.0,20286.0,0.0
-2113.0,-3828.0,20234.0,0.0
-2116.0,-4053.0,20210.0,0.0
-2113.0,-4270.0,20146.0,0.0
-2113.0,-4493.0,20109.0,0.0
-2113.0,-4713.0,20062.0,0.0
-2110.0,-4930.0,20002.0,0.0
-2110.0,-5155.0,19973.0,0.0
-2107.0,-5372.0,19916.0,0.0
-2108.0,-5601.0,19895.0,0.0
-2101.0,-5810.0,19809.0,0.0
-2102.0,-6041.0,19790.0,0.0
-2097.0,-6255.0,19717.0,0.0
-2095.0,-6483.0,19689.0,0.0
-2090.0,-6701.0,19624.0,0.0
-2088.0,-6927.0,19586.0,0.0
-2083.0,-7146.0,19523.0,0.0
-2078.0,-7369.0,19470.0,0.0
-2076.0,-7597.0,19429.0,0.0
-2070.0,-7821.0,19376.0,0.0
-2062.0,-8037.0,19300.0,0.0
-2061.0,-8279.0,19285.0,0.0
-2056.0,-8507.0,19234.0,0.0
-3.0,-14.0,32.0,0.0
-3.0,-13.0,28.0,0.0
-7.0,-26.0,57.0,0.0
-4.0,-21.0,45.0,0.0
-5.0,-24.0,48.0,0.0
-4.0,-18.0,34.0,0.0
-5.0,-25.0,47.0,0.0
-5.0,-26.0,48.0,0.0
-5.0,-26.0,47.0,0.0
-6.0,-36.0,62.0,0.0
-6.0,-34.0,57.0,0.0
-6.0,-38.0,62.0,0.0
-6.0,-33.0,54.0,0.0
-8.0,-45.0,71.0,0.0
-7.0,-47.0,73.0,0.0
-10.0,-59.0,88.0,0.0
-8.0,-52.0,78.0,0.0
-7.0,-49.0,71.0,0.0
-9.0,-62.0,87.0,0.0
-9.0,-67.0,90.0,0.0
-9.0,-64.0,86.0,0.0
-8.0,-62.0,81.0,0.0
-8.0,-60.0,78.0,0.0
-9.0,-73.0,91.0,0.0
-9.0,-74.0,91.0,0.0
-9.0,-70.0,82.0,0.0
-10.0,-87.0,101.0,0.0
-9.0,-79.0,91.0,0.0
-10.0,-87.0,97.0,0.0
-9.0,-82.0,89.0,0.0
-9.0,-84.0,89.0,0.0
-9.0,-86.0,90.0,0.0
-10.0,-92.0,95.0,0.0
-9.0,-88.0,88.0,0.0
-9.0,-98.0,95.0,0.0
-9.0,-99.0,94.0,0.0
-9.0,-106.0,99.0,0.0
-10.0,-109.0,100.0,0.0
-9.0,-107.0,95.0,0.0
-9.0,-116.0,101.0,0.0
-9.0,-117.0,100.0,0.0
-9.0,-113.0,95.0,0.0
-9.0,-115.0,94.0,0.0
-9.0,-128.0,103.0,0.0
-9.0,-133.0,104.0,0.0
-9.0,-136.0,104.0,0.0
-9.0,-134.0,100.0,0.0
-9.0,-139.0,102.0,0.0
-8.0,-134.0,96.0,0.0
-8.0,-143.0,100.0,0.0
-8.0,-150.0,103.0,0.0
-8.0,-148.0,98.0,0.0
-8.0,-153.0,100.0,0.0
-8.0,-158.0,100.0,0.0
-8.0,-157.0,98.0,0.0
-7.0,-154.0,92.0,0.0
-7.0,-162.0,95.0,0.0
-6.0,-153.0,88.0,0.0
-6.0,-164.0,91.0,0.0
-5.0,-156.0,85.0,0.0
-5.0,-158.0,84.0,0.0
-5.0,-156.0,82.0,0.0
-5.0,-164.0,83.0,0.0
-5.0,-158.0,78.0,0.0
-4.0,-159.0,76.0,0.0
-4.0,-164.0,77.0,0.0
-4.0,-155.0,71.0,0.0
-3.0,-165.0,73.0,0.0
-3.0,-172.0,73.0,0.0
-3.0,-171.0,70.0,0.0
-3.0,-167.0,67.0,0.0
-3.0,-177.0,69.0,0.0
-3.0,-217.0,82.0,0.0
-2.0,-279.0,102.0,0.0
-2.0,-281.0,100.0,0.0
-2.0,-293.0,100.0,0.0
-1.0,-286.0,95.0,0.0
0.0,-292.0,93.0,0.0
0.0,-301.0,92.0,0.0
107.0,-283.0,57.0,0.0
107.0,-281.0,59.0,0.0
103.0,-265.0,58.0,0.0
104.0,-263.0,62.0,0.0
103.0,-257.0,62.0,0.0
102.0,-251.0,64.0,0.0
102.0,-249.0,67.0,0.0
103.0,-248.0,70.0,0.0
104.0,-246.0,72.0,0.0
102.0,-240.0,73.0,0.0
103.0,-237.0,75.0,0.0
107.0,-245.0,80.0,0.0
107.0,-241.0,82.0,0.0
105.0,-234.0,83.0,0.0
109.0,-240.0,88.0,0.0
109.0,-235.0,89.0,0.0
109.0,-234.0,91.0,0.0
111.0,-233.0,94.0,0.0
113.0,-235.0,97.0,0.0
115.0,-235.0,101.0,0.0
114.0,-231.0,102.0,0.0
116.0,-231.0,106.0,0.0
118.0,-231.0,109.0,0.0
115.0,-225.0,110.0,0.0
119.0,-229.0,114.0,0.0
121.0,-228.0,117.0,0.0
120.0,-223.0,118.0,0.0
125.0,-231.0,126.0,0.0
130.0,-236.0,132.0,0.0
134.0,-241.0,138.0,0.0
131.0,-230.0,136.0,0.0
125.0,-217.0,132.0,0.0
124.0,-212.0,131.0,0.0
124.0,-208.0,133.0,0.0
123.0,-204.0,133.0,0.0
111.0,-182.0,121.0,0.0
103.0,-167.0,115.0,0.0
98.0,-157.0,111.0,0.0
103.0,-162.0,116.0,0.0
90.0,-140.0,104.0,0.0
90.0,-138.0,105.0,0.0
81.0,-122.0,95.0,0.0
84.0,-125.0,99.0,0.0
80.0,-116.0,96.0,0.0
67.0,-96.0,81.0,0.0
65.0,-92.0,80.0,0.0
64.0,-90.0,78.0,0.0
62.0,-84.0,76.0,0.0
52.0,-70.0,66.0,0.0
48.0,-64.0,61.0,0.0
57.0,-74.0,72.0,0.0
52.0,-68.0,66.0,0.0
14798.0,-18539.0,18851.0,0.0
15138.0,-18640.0,19419.0,0.0
15537.0,-18800.0,20068.0,0.0
39.0,-47.0,51.0,0.0
1143.0,-1335.0,1497.0,0.0
1128.0,-1294.0,1487.0,0.0
1142.0,-1285.0,1513.0,0.0
1134.0,-1252.0,1513.0,0.0
1128.0,-1222.0,1513.0,0.0
1149.0,-1221.0,1551.0,0.0
1158.0,-1207.0,1573.0,0.0
1149.0,-1174.0,1570.0,0.0
1161.0,-1162.0,1594.0,0.0
1152.0,-1131.0,1592.0,0.0
1184.0,-1137.0,1645.0,0.0
1182.0,-1110.0,1649.0,0.0
19041.0,-17508.0,26696.0,1.0
1149.0,-1033.0,1619.0,0.0
1151.0,-1012.0,1631.0,0.0
1165.0,-1000.0,1658.0,0.0
1163.0,-977.0,1665.0,0.0
1151.0,-942.0,1653.0,0.0
1153.0,-920.0,1663.0,0.0
1159.0,-902.0,1680.0,0.0
1177.0,-892.0,1714.0,0.0
1191.0,-880.0,1741.0,0.0
18217.0,-13095.0,26734.0,1.0
1156.0,-807.0,1704.0,0.0
18015.0,-12233.0,26652.0,1.0
17903.0,-11802.0,26592.0,1.0
1177.0,-752.0,1756.0,0.0
1176.0,-728.0,1761.0,0.0
1182.0,-708.0,1775.0,0.0
17549.0,-10179.0,26458.0,1.0
1173.0,-657.0,1776.0,0.0
1200.0,-648.0,1823.0,0.0
1161.0,-603.0,1769.0,0.0
1169.0,-585.0,1788.0,0.0
1194.0,-575.0,1833.0,0.0
17152.0,-7913.0,26389.0,1.0
1182.0,-522.0,1826.0,0.0
1168.0,-492.0,1809.0,0.0
4857.0,-1952.0,7542.0,0.0
5156.0,-1970.0,8030.0,0.0
5282.0,-1914.0,8252.0,0.0
16817.0,-5763.0,26342.0,1.0
1179.0,-381.0,1853.0,0.0
1173.0,-355.0,1847.0,0.0
1184.0,-335.0,1871.0,0.0
1182.0,-311.0,1873.0,0.0
1169.0,-285.0,1857.0,0.0
1165.0,-260.0,1855.0,0.0
1159.0,-236.0,1850.0,0.0
1184.0,-217.0,1894.0,0.0
1173.0,-191.0,1882.0,0.0
1154.0,-165.0,1853.0,0.0
1177.0,-145.0,1895.0,0.0
1168.0,-120.0,1886.0,0.0
1156.0,-95.0,1869.0,0.0
7.0,0.0,13.0,0.0
11.0,0.0,17.0,0.0
13.0,0.0,22.0,0.0
11.0,0.0,20.0,0.0
14.0,0.0,23.0,0.0
11.0,0.0,18.0,0.0
16.0,0.0,28.0,0.0
14.0,0.0,23.0,0.0
18.0,1.0,31.0,0.0
17.0,1.0,29.0,0.0
25.0,3.0,43.0,0.0
20.0,2.0,33.0,0.0
27.0,4.0,45.0,0.0
27.0,5.0,47.0,0.0
31.0,6.0,52.0,0.0
30.0,7.0,51.0,0.0
32.0,9.0,55.0,0.0
41.0,12.0,69.0,0.0
43.0,13.0,73.0,0.0
39.0,13.0,65.0,0.0
44.0,15.0,74.0,0.0
45.0,16.0,77.0,0.0
42.0,16.0,71.0,0.0
46.0,19.0,79.0,0.0
32.0,14.0,55.0,0.0
37.0,17.0,64.0,0.0
49.0,24.0,84.0,0.0
42.0,22.0,71.0,0.0
44.0,24.0,75.0,0.0
47.0,26.0,80.0,0.0
45.0,26.0,78.0,0.0
43.0,26.0,74.0,0.0
52.0,33.0,90.0,0.0
45.0,29.0,77.0,0.0
48.0,32.0,82.0,0.0
50.0,35.0,86.0,0.0
48.0,35.0,83.0,0.0
52.0,38.0,88.0,0.0
50.0,39.0,86.0,0.0
52.0,42.0,89.0,0.0
53.0,43.0,90.0,0.0
54.0,46.0,92.0,0.0
51.0,45.0,87.0,0.0
51.0,46.0,87.0,0.0
54.0,50.0,92.0,0.0
54.0,51.0,91.0,0.0
55.0,54.0,94.0,0.0
57.0,58.0,97.0,0.0
54.0,56.0,92.0,0.0
58.0,62.0,99.0,0.0
57.0,63.0,97.0,0.0
58.0,65.0,100.0,0.0
61.0,70.0,104.0,0.0
61.0,72.0,103.0,0.0
59.0,71.0,101.0,0.0
64.0,78.0,107.0,0.0
62.0,79.0,106.0,0.0
64.0,82.0,108.0,0.0
65.0,86.0,111.0,0.0
67.0,90.0,113.0,0.0
68.0,94.0,115.0,0.0
67.0,94.0,112.0,0.0
67.0,97.0,113.0,0.0
70.0,103.0,116.0,0.0
70.0,106.0,119.0,0.0
69.0,106.0,115.0,0.0
72.0,114.0,121.0,0.0
73.0,117.0,122.0,0.0
72.0,118.0,120.0,0.0
75.0,125.0,125.0,0.0
74.0,127.0,123.0,0.0
74.0,130.0,124.0,0.0
76.0,134.0,126.0,0.0
78.0,142.0,129.0,0.0
76.0,139.0,124.0,0.0
80.0,150.0,130.0,0.0
78.0,150.0,128.0,0.0
78.0,153.0,127.0,0.0
79.0,158.0,128.0,0.0
79.0,160.0,128.0,0.0
81.0,169.0,132.0,0.0
109.0,-294.0,60.0,0.0
103.0,-277.0,60.0,0.0
104.0,-273.0,62.0,0.0
101.0,-263.0,63.0,0.0
100.0,-256.0,63.0,0.0
102.0,-257.0,67.0,0.0
100.0,-250.0,68.0,0.0
103.0,-253.0,72.0,0.0
101.0,-244.0,72.0,0.0
106.0,-254.0,78.0,0.0
103.0,-243.0,78.0,0.0
101.0,-236.0,78.0,0.0
104.0,-242.0,83.0,0.0
105.0,-239.0,85.0,0.0
108.0,-244.0,90.0,0.0
106.0,-236.0,90.0,0.0
106.0,-233.0,92.0,0.0
113.0,-242.0,99.0,0.0
112.0,-238.0,100.0,0.0
112.0,-235.0,103.0,0.0
114.0,-235.0,106.0,0.0
116.0,-236.0,109.0,0.0
119.0,-240.0,115.0,0.0
113.0,-225.0,110.0,0.0
116.0,-229.0,116.0,0.0
118.0,-229.0,119.0,0.0
123.0,-234.0,125.0,0.0
122.0,-229.0,126.0,0.0
131.0,-242.0,136.0,0.0
133.0,-242.0,140.0,0.0
128.0,-231.0,137.0,0.0
126.0,-223.0,137.0,0.0
132.0,-231.0,145.0,0.0
129.0,-224.0,143.0,0.0
120.0,-205.0,135.0,0.0
111.0,-186.0,126.0,0.0
110.0,-182.0,126.0,0.0
103.0,-168.0,119.0,0.0
102.0,-163.0,119.0,0.0
90.0,-144.0,108.0,0.0
94.0,-146.0,113.0,0.0
88.0,-136.0,106.0,0.0
83.0,-125.0,101.0,0.0
80.0,-120.0,98.0,0.0
74.0,-108.0,91.0,0.0
74.0,-107.0,93.0,0.0
71.0,-101.0,90.0,0.0
63.0,-88.0,80.0,0.0
68.0,-94.0,87.0,0.0
60.0,-81.0,77.0,0.0
57.0,-75.0,74.0,0.0
57.0,-73.0,74.0,0.0
14484.0,-18533.0,18953.0,0.0
14853.0,-18681.0,19572.0,0.0
49.0,-61.0,66.0,0.0
1117.0,-1356.0,1492.0,0.0
1128.0,-1345.0,1517.0,0.0
1117.0,-1308.0,1512.0,0.0
1134.0,-1303.0,1544.0,0.0
1119.0,-1263.0,1533.0,0.0
1113.0,-1232.0,1534.0,0.0
1142.0,-1239.0,1582.0,0.0
1138.0,-1211.0,1585.0,0.0
1130.0,-1180.0,1584.0,0.0
1123.0,-1148.0,1582.0,0.0
1127.0,-1129.0,1598.0,0.0
18420.0,-18067.0,26226.0,1.0
1128.0,-1083.0,1615.0,0.0
1159.0,-1089.0,1668.0,0.0
1134.0,-1042.0,1640.0,0.0
1128.0,-1013.0,1640.0,0.0
18726.0,-16431.0,27327.0,1.0
1166.0,-999.0,1710.0,0.0
1138.0,-952.0,1677.0,0.0
1167.0,-953.0,1727.0,0.0
1157.0,-920.0,1719.0,0.0
1143.0,-886.0,1707.0,0.0
1119.0,-844.0,1678.0,0.0
17930.0,-13171.0,26980.0,1.0
1138.0,-813.0,1720.0,0.0
1161.0,-806.0,1762.0,0.0
1161.0,-781.0,1768.0,0.0
1182.0,-772.0,1808.0,0.0
1142.0,-723.0,1752.0,0.0
1129.0,-692.0,1738.0,0.0
1137.0,-674.0,1758.0,0.0
17189.0,-9847.0,26657.0,1.0
1144.0,-632.0,1781.0,0.0
1168.0,-622.0,1826.0,0.0
1161.0,-594.0,1821.0,0.0
1182.0,-581.0,1859.0,0.0
1162.0,-548.0,1834.0,0.0
1186.0,-535.0,1876.0,0.0
1164.0,-502.0,1848.0,0.0
4873.0,-2005.0,7754.0,0.0
5160.0,-2019.0,8235.0,0.0
16566.0,-6151.0,26517.0,1.0
1146.0,-403.0,1840.0,0.0
1164.0,-385.0,1876.0,0.0
1170.0,-364.0,1890.0,0.0
16318.0,-4739.0,26405.0,1.0
1180.0,-319.0,1915.0,0.0
1171.0,-292.0,1904.0,0.0
15911.0,-3651.0,25945.0,1.0
15779.0,-3299.0,25793.0,1.0
1163.0,-220.0,1906.0,0.0
1128.0,-190.0,1853.0,0.0
15518.0,-2292.0,25544.0,1.0
1130.0,-144.0,1865.0,0.0
1162.0,-124.0,1923.0,0.0
15193.0,-1305.0,25172.0,1.0
5.0,0.0,8.0,0.0
17.0,-1.0,29.0,0.0
13.0,0.0,22.0,0.0
8.0,0.0,14.0,0.0
15.0,0.0,26.0,0.0
16.0,0.0,28.0,0.0
8.0,0.0,14.0,0.0
24.0,1.0,42.0,0.0
15.0,1.0,26.0,0.0
25.0,2.0,43.0,0.0
27.0,4.0,46.0,0.0
26.0,4.0,44.0,0.0
30.0,4.0,52.0,0.0
31.0,6.0,55.0,0.0
33.0,7.0,56.0,0.0
31.0,8.0,55.0,0.0
38.0,10.0,64.0,0.0
31.0,9.0,53.0,0.0
40.0,12.0,69.0,0.0
42.0,14.0,73.0,0.0
46.0,17.0,80.0,0.0
40.0,16.0,70.0,0.0
50.0,20.0,87.0,0.0
47.0,20.0,83.0,0.0
44.0,19.0,77.0,0.0
50.0,23.0,87.0,0.0
43.0,22.0,76.0,0.0
46.0,24.0,81.0,0.0
46.0,25.0,81.0,0.0
45.0,25.0,79.0,0.0
48.0,29.0,85.0,0.0
44.0,27.0,78.0,0.0
47.0,30.0,82.0,0.0
52.0,34.0,91.0,0.0
51.0,34.0,88.0,0.0
49.0,35.0,86.0,0.0
49.0,36.0,86.0,0.0
49.0,37.0,85.0,0.0
51.0,41.0,90.0,0.0
51.0,42.0,90.0,0.0
52.0,43.0,90.0,0.0
50.0,44.0,88.0,0.0
52.0,46.0,91.0,0.0
52.0,49.0,92.0,0.0
50.0,48.0,90.0,0.0
51.0,49.0,90.0,0.0
55.0,56.0,97.0,0.0
58.0,59.0,101.0,0.0
56.0,59.0,99.0,0.0
56.0,61.0,99.0,0.0
58.0,65.0,102.0,0.0
61.0,68.0,105.0,0.0
56.0,66.0,98.0,0.0
57.0,69.0,101.0,0.0
57.0,70.0,100.0,0.0
61.0,77.0,107.0,0.0
60.0,78.0,105.0,0.0
63.0,82.0,108.0,0.0
65.0,88.0,113.0,0.0
62.0,86.0,108.0,0.0
64.0,90.0,110.0,0.0
65.0,94.0,114.0,0.0
66.0,97.0,114.0,0.0
70.0,105.0,120.0,0.0
69.0,106.0,118.0,0.0
69.0,108.0,119.0,0.0
69.0,110.0,118.0,0.0
72.0,118.0,123.0,0.0
70.0,117.0,121.0,0.0
73.0,125.0,126.0,0.0
77.0,133.0,131.0,0.0
74.0,130.0,126.0,0.0
74.0,134.0,127.0,0.0
76.0,142.0,131.0,0.0
76.0,142.0,128.0,0.0
76.0,146.0,129.0,0.0
76.0,149.0,128.0,0.0
81.0,162.0,136.0,0.0
79.0,161.0,132.0,0.0
77.0,160.0,129.0,0.0
75.0,159.0,125.0,0.0
109.0,-303.0,63.0,0.0
103.0,-283.0,62.0,0.0
104.0,-280.0,65.0,0.0
99.0,-265.0,64.0,0.0
100.0,-262.0,66.0,0.0
98.0,-253.0,67.0,0.0
98.0,-251.0,69.0,0.0
100.0,-254.0,73.0,0.0
101.0,-251.0,75.0,0.0
101.0,-249.0,78.0,0.0
102.0,-247.0,80.0,0.0
105.0,-251.0,84.0,0.0
104.0,-248.0,86.0,0.0
105.0,-244.0,88.0,0.0
107.0,-245.0,92.0,0.0
108.0,-245.0,96.0,0.0
108.0,-243.0,97.0,0.0
110.0,-244.0,101.0,0.0
112.0,-245.0,104.0,0.0
111.0,-240.0,105.0,0.0
110.0,-232.0,105.0,0.0
115.0,-241.0,113.0,0.0
114.0,-236.0,113.0,0.0
116.0,-234.0,116.0,0.0
113.0,-225.0,115.0,0.0
115.0,-229.0,119.0,0.0
119.0,-232.0,124.0,0.0
119.0,-228.0,126.0,0.0
128.0,-243.0,138.0,0.0
125.0,-234.0,137.0,0.0
131.0,-240.0,144.0,0.0
128.0,-232.0,143.0,0.0
123.0,-220.0,138.0,0.0
114.0,-201.0,130.0,0.0
115.0,-201.0,134.0,0.0
109.0,-187.0,127.0,0.0
100.0,-169.0,118.0,0.0
102.0,-169.0,122.0,0.0
93.0,-153.0,112.0,0.0
95.0,-153.0,115.0,0.0
92.0,-145.0,113.0,0.0
80.0,-126.0,100.0,0.0
77.0,-119.0,96.0,0.0
75.0,-112.0,94.0,0.0
72.0,-108.0,92.0,0.0
65.0,-96.0,84.0,0.0
63.0,-92.0,82.0,0.0
61.0,-87.0,79.0,0.0
13278.0,-18567.0,17346.0,0.0
60.0,-83.0,79.0,0.0
13839.0,-18719.0,18346.0,0.0
53.0,-71.0,71.0,0.0
14226.0,-18601.0,19129.0,0.0
14537.0,-18682.0,19679.0,0.0
14879.0,-18789.0,20277.0,0.0
1103.0,-1368.0,1513.0,0.0
1107.0,-1349.0,1528.0,0.0
1104.0,-1322.0,1535.0,0.0
17298.0,-20317.0,24175.0,1.0
17414.0,-20074.0,24482.0,1.0
1093.0,-1236.0,1546.0,0.0
1124.0,-1247.0,1598.0,0.0
1125.0,-1224.0,1610.0,0.0
1105.0,-1178.0,1589.0,0.0
1099.0,-1149.0,1591.0,0.0
17872.0,-18293.0,25980.0,1.0
1117.0,-1120.0,1634.0,0.0
1115.0,-1094.0,1639.0,0.0
1103.0,-1059.0,1630.0,0.0
1127.0,-1058.0,1673.0,0.0
1120.0,-1028.0,1671.0,0.0
18357.0,-16460.0,27485.0,1.0
1128.0,-988.0,1698.0,0.0
1150.0,-983.0,1739.0,0.0
18124.0,-15115.0,27503.0,1.0
1150.0,-935.0,1754.0,0.0
1125.0,-891.0,1723.0,0.0
1134.0,-874.0,1743.0,0.0
17636.0,-13243.0,27216.0,1.0
1107.0,-809.0,1717.0,0.0
1136.0,-806.0,1766.0,0.0
1146.0,-790.0,1791.0,0.0
1147.0,-765.0,1798.0,0.0
1134.0,-734.0,1784.0,0.0
1140.0,-715.0,1800.0,0.0
1145.0,-694.0,1814.0,0.0
1130.0,-662.0,1799.0,0.0
1142.0,-645.0,1824.0,0.0
1138.0,-619.0,1823.0,0.0
1145.0,-599.0,1839.0,0.0
1139.0,-573.0,1836.0,0.0
16556.0,-8001.0,26761.0,1.0
16483.0,-7628.0,26724.0,1.0
1136.0,-502.0,1848.0,0.0
1140.0,-480.0,1861.0,0.0
5214.0,-2091.0,8529.0,0.0
1113.0,-423.0,1827.0,0.0
1137.0,-410.0,1871.0,0.0
1150.0,-390.0,1898.0,0.0
1146.0,-366.0,1898.0,0.0
1163.0,-347.0,1930.0,0.0
1176.0,-327.0,1958.0,0.0
1155.0,-297.0,1926.0,0.0
15603.0,-3681.0,26077.0,1.0
1147.0,-247.0,1922.0,0.0
15452.0,-3003.0,25950.0,1.0
1132.0,-196.0,1906.0,0.0
1132.0,-173.0,1910.0,0.0
1152.0,-151.0,1948.0,0.0
1139.0,-126.0,1932.0,0.0
1116.0,-100.0,1896.0,0.0
13.0,0.0,22.0,0.0
13.0,-1.0,24.0,0.0
19.0,-1.0,32.0,0.0
19.0,0.0,32.0,0.0
19.0,0.0,34.0,0.0
21.0,0.0,38.0,0.0
21.0,0.0,38.0,0.0
28.0,2.0,49.0,0.0
13.0,1.0,23.0,0.0
23.0,2.0,40.0,0.0
32.0,4.0,57.0,0.0
26.0,3.0,47.0,0.0
23.0,4.0,41.0,0.0
35.0,7.0,62.0,0.0
32.0,7.0,56.0,0.0
37.0,9.0,65.0,0.0
34.0,9.0,60.0,0.0
35.0,10.0,63.0,0.0
34.0,10.0,61.0,0.0
42.0,14.0,75.0,0.0
41.0,15.0,73.0,0.0
44.0,17.0,79.0,0.0
41.0,16.0,72.0,0.0
44.0,20.0,80.0,0.0
46.0,21.0,84.0,0.0
46.0,22.0,82.0,0.0
47.0,24.0,84.0,0.0
48.0,25.0,86.0,0.0
51.0,28.0,90.0,0.0
48.0,28.0,86.0,0.0
47.0,28.0,84.0,0.0
53.0,33.0,96.0,0.0
52.0,34.0,94.0,0.0
49.0,33.0,88.0,0.0
47.0,33.0,85.0,0.0
46.0,33.0,83.0,0.0
54.0,41.0,96.0,0.0
48.0,38.0,88.0,0.0
47.0,38.0,85.0,0.0
48.0,40.0,88.0,0.0
50.0,42.0,89.0,0.0
47.0,41.0,85.0,0.0
53.0,49.0,96.0,0.0
51.0,49.0,93.0,0.0
48.0,47.0,87.0,0.0
51.0,51.0,92.0,0.0
52.0,53.0,93.0,0.0
54.0,56.0,96.0,0.0
52.0,56.0,95.0,0.0
54.0,59.0,96.0,0.0
57.0,64.0,102.0,0.0
60.0,71.0,109.0,0.0
53.0,63.0,95.0,0.0
58.0,71.0,104.0,0.0
56.0,70.0,99.0,0.0
58.0,73.0,103.0,0.0
59.0,77.0,106.0,0.0
61.0,81.0,108.0,0.0
61.0,85.0,110.0,0.0
62.0,86.0,110.0,0.0
62.0,89.0,111.0,0.0
65.0,96.0,116.0,0.0
65.0,98.0,116.0,0.0
64.0,98.0,114.0,0.0
69.0,108.0,123.0,0.0
66.0,106.0,117.0,0.0
69.0,113.0,122.0,0.0
68.0,113.0,120.0,0.0
69.0,118.0,122.0,0.0
71.0,123.0,124.0,0.0
74.0,131.0,129.0,0.0
72.0,130.0,126.0,0.0
73.0,134.0,127.0,0.0
75.0,142.0,131.0,0.0
75.0,145.0,132.0,0.0
75.0,147.0,130.0,0.0
76.0,153.0,133.0,0.0
73.0,149.0,126.0,0.0
77.0,160.0,133.0,0.0
77.0,165.0,133.0,0.0
78.0,169.0,133.0,0.0
104.0,-297.0,64.0,0.0
100.0,-282.0,63.0,0.0
99.0,-274.0,64.0,0.0
98.0,-268.0,66.0,0.0
97.0,-263.0,68.0,0.0
96.0,-256.0,69.0,0.0
97.0,-254.0,71.0,0.0
97.0,-252.0,74.0,0.0
95.0,-242.0,74.0,0.0
100.0,-251.0,80.0,0.0
100.0,-248.0,81.0,0.0
101.0,-247.0,84.0,0.0
100.0,-243.0,86.0,0.0
100.0,-240.0,88.0,0.0
107.0,-251.0,95.0,0.0
104.0,-241.0,94.0,0.0
104.0,-238.0,96.0,0.0
106.0,-240.0,100.0,0.0
107.0,-240.0,103.0,0.0
111.0,-245.0,109.0,0.0
112.0,-242.0,111.0,0.0
110.0,-236.0,112.0,0.0
114.0,-242.0,118.0,0.0
113.0,-233.0,117.0,0.0
115.0,-237.0,122.0,0.0
115.0,-233.0,123.0,0.0
114.0,-230.0,125.0,0.0
123.0,-243.0,135.0,0.0
129.0,-249.0,143.0,0.0
128.0,-244.0,144.0,0.0
127.0,-239.0,145.0,0.0
123.0,-229.0,142.0,0.0
116.0,-213.0,135.0,0.0
112.0,-203.0,132.0,0.0
109.0,-194.0,130.0,0.0
107.0,-187.0,128.0,0.0
97.0,-167.0,118.0,0.0
95.0,-160.0,116.0,0.0
87.0,-146.0,108.0,0.0
83.0,-137.0,104.0,0.0
76.0,-123.0,95.0,0.0
83.0,-134.0,107.0,0.0
80.0,-126.0,102.0,0.0
77.0,-120.0,100.0,0.0
64.0,-99.0,85.0,0.0
13052.0,-19585.0,17132.0,0.0
59.0,-88.0,78.0,0.0
57.0,-83.0,77.0,0.0
53.0,-76.0,71.0,0.0
13176.0,-18526.0,17828.0,0.0
13497.0,-18665.0,18395.0,0.0
13590.0,-18478.0,18653.0,0.0
13926.0,-18613.0,19244.0,0.0
14239.0,-18706.0,19809.0,0.0
14552.0,-18785.0,20379.0,0.0
1089.0,-1382.0,1536.0,0.0
1072.0,-1336.0,1521.0,0.0
1065.0,-1302.0,1519.0,0.0
16885.0,-20273.0,24241.0,1.0
1091.0,-1286.0,1576.0,0.0
1085.0,-1254.0,1576.0,0.0
1095.0,-1242.0,1601.0,0.0
1085.0,-1207.0,1595.0,0.0
1091.0,-1189.0,1612.0,0.0
1094.0,-1169.0,1625.0,0.0
1096.0,-1147.0,1636.0,0.0
1110.0,-1137.0,1665.0,0.0
1073.0,-1076.0,1618.0,0.0
1082.0,-1061.0,1639.0,0.0
1082.0,-1039.0,1649.0,0.0
18001.0,-16888.0,27530.0,1.0
1126.0,-1032.0,1730.0,0.0
1109.0,-992.0,1713.0,0.0
1117.0,-976.0,1732.0,0.0
1105.0,-942.0,1721.0,0.0
1102.0,-916.0,1724.0,0.0
1114.0,-903.0,1751.0,0.0
1140.0,-900.0,1798.0,0.0
1119.0,-859.0,1773.0,0.0
1117.0,-833.0,1776.0,0.0
1130.0,-820.0,1803.0,0.0
1117.0,-786.0,1790.0,0.0
1113.0,-761.0,1790.0,0.0
1110.0,-736.0,1792.0,0.0
1089.0,-699.0,1765.0,0.0
1127.0,-699.0,1833.0,0.0
1112.0,-667.0,1814.0,0.0
1113.0,-644.0,1822.0,0.0
1109.0,-618.0,1821.0,0.0
16347.0,-8775.0,26924.0,1.0
16267.0,-8391.0,26878.0,1.0
1132.0,-560.0,1877.0,0.0
1104.0,-523.0,1837.0,0.0
1116.0,-505.0,1863.0,0.0
1122.0,-484.0,1877.0,0.0
6743.0,-2771.0,11311.0,0.0
1113.0,-434.0,1872.0,0.0
1123.0,-415.0,1895.0,0.0
1115.0,-389.0,1888.0,0.0
15758.0,-5154.0,26726.0,1.0
15625.0,-4781.0,26572.0,1.0
15450.0,-4401.0,26340.0,1.0
15397.0,-4061.0,26318.0,1.0
15263.0,-3703.0,26152.0,1.0
15179.0,-3361.0,26074.0,1.0
1089.0,-218.0,1876.0,0.0
1103.0,-197.0,1906.0,0.0
14825.0,-2337.0,25643.0,1.0
1119.0,-153.0,1941.0,0.0
14541.0,-1670.0,25262.0,1.0
1113.0,-104.0,1939.0,0.0
13.0,-1.0,23.0,0.0
12.0,0.0,22.0,0.0
7.0,0.0,13.0,0.0
15.0,0.0,28.0,0.0
17.0,0.0,32.0,0.0
21.0,0.0,39.0,0.0
21.0,0.0,39.0,0.0
20.0,1.0,37.0,0.0
23.0,1.0,42.0,0.0
19.0,2.0,35.0,0.0
25.0,3.0,44.0,0.0
28.0,4.0,50.0,0.0
29.0,5.0,53.0,0.0
31.0,6.0,56.0,0.0
32.0,7.0,59.0,0.0
33.0,8.0,60.0,0.0
36.0,10.0,65.0,0.0
42.0,12.0,77.0,0.0
40.0,13.0,74.0,0.0
38.0,12.0,68.0,0.0
41.0,16.0,75.0,0.0
40.0,15.0,72.0,0.0
40.0,16.0,73.0,0.0
49.0,21.0,88.0,0.0
43.0,20.0,79.0,0.0
45.0,21.0,81.0,0.0
45.0,22.0,81.0,0.0
55.0,29.0,101.0,0.0
47.0,26.0,87.0,0.0
44.0,26.0,81.0,0.0
43.0,26.0,79.0,0.0
50.0,31.0,90.0,0.0
48.0,32.0,90.0,0.0
45.0,31.0,83.0,0.0
48.0,34.0,88.0,0.0
49.0,37.0,91.0,0.0
44.0,33.0,81.0,0.0
44.0,35.0,83.0,0.0
47.0,39.0,86.0,0.0
49.0,41.0,89.0,0.0
48.0,42.0,89.0,0.0
47.0,42.0,88.0,0.0
45.0,41.0,83.0,0.0
50.0,48.0,93.0,0.0
50.0,49.0,92.0,0.0
52.0,52.0,95.0,0.0
48.0,50.0,90.0,0.0
53.0,57.0,97.0,0.0
52.0,57.0,96.0,0.0
49.0,55.0,90.0,0.0
53.0,61.0,97.0,0.0
54.0,64.0,100.0,0.0
54.0,66.0,99.0,0.0
54.0,67.0,98.0,0.0
57.0,73.0,105.0,0.0
57.0,74.0,104.0,0.0
57.0,76.0,106.0,0.0
57.0,78.0,105.0,0.0
58.0,80.0,106.0,0.0
60.0,85.0,109.0,0.0
59.0,86.0,108.0,0.0
61.0,92.0,113.0,0.0
61.0,94.0,112.0,0.0
62.0,97.0,114.0,0.0
64.0,102.0,117.0,0.0
65.0,108.0,121.0,0.0
67.0,112.0,122.0,0.0
68.0,117.0,125.0,0.0
69.0,120.0,125.0,0.0
69.0,122.0,124.0,0.0
70.0,126.0,126.0,0.0
68.0,128.0,124.0,0.0
71.0,134.0,128.0,0.0
71.0,138.0,128.0,0.0
70.0,138.0,126.0,0.0
73.0,147.0,131.0,0.0
71.0,146.0,128.0,0.0
73.0,153.0,131.0,0.0
75.0,160.0,134.0,0.0
72.0,157.0,128.0,0.0
73.0,163.0,131.0,0.0
95.0,-280.0,60.0,0.0
93.0,-269.0,61.0,0.0
92.0,-262.0,62.0,0.0
92.0,-260.0,65.0,0.0
92.0,-255.0,67.0,0.0
89.0,-244.0,66.0,0.0
90.0,-242.0,69.0,0.0
91.0,-241.0,72.0,0.0
95.0,-249.0,77.0,0.0
94.0,-242.0,78.0,0.0
94.0,-239.0,79.0,0.0
96.0,-243.0,84.0,0.0
93.0,-233.0,83.0,0.0
97.0,-236.0,87.0,0.0
100.0,-241.0,92.0,0.0
102.0,-243.0,97.0,0.0
100.0,-236.0,97.0,0.0
99.0,-231.0,97.0,0.0
104.0,-237.0,103.0,0.0
103.0,-233.0,105.0,0.0
105.0,-234.0,108.0,0.0
107.0,-234.0,111.0,0.0
106.0,-230.0,113.0,0.0
110.0,-235.0,118.0,0.0
112.0,-234.0,121.0,0.0
109.0,-228.0,121.0,0.0
110.0,-224.0,123.0,0.0
117.0,-235.0,132.0,0.0
119.0,-237.0,137.0,0.0
120.0,-235.0,140.0,0.0
120.0,-233.0,143.0,0.0
115.0,-219.0,137.0,0.0
112.0,-210.0,135.0,0.0
110.0,-203.0,134.0,0.0
105.0,-191.0,129.0,0.0
96.0,-174.0,120.0,0.0
93.0,-165.0,116.0,0.0
84.0,-147.0,107.0,0.0
88.0,-150.0,112.0,0.0
79.0,-134.0,102.0,0.0
78.0,-130.0,102.0,0.0
74.0,-121.0,96.0,0.0
69.0,-111.0,91.0,0.0
69.0,-109.0,92.0,0.0
61.0,-96.0,82.0,0.0
51.0,-79.0,70.0,0.0
12630.0,-19078.0,17192.0,0.0
12616.0,-18750.0,17303.0,0.0
12621.0,-18453.0,17438.0,0.0
12929.0,-18592.0,17992.0,0.0
13148.0,-18594.0,18426.0,0.0
13318.0,-18520.0,18795.0,0.0
13625.0,-18625.0,19359.0,0.0
13952.0,-18744.0,19954.0,0.0
1054.0,-1392.0,1518.0,0.0
1040.0,-1348.0,1507.0,0.0
16305.0,-20768.0,23765.0,1.0
16344.0,-20440.0,23965.0,1.0
1066.0,-1309.0,1573.0,0.0
1089.0,-1312.0,1616.0,0.0
1079.0,-1275.0,1610.0,0.0
1064.0,-1234.0,1597.0,0.0
1056.0,-1201.0,1594.0,0.0
1066.0,-1189.0,1618.0,0.0
1100.0,-1202.0,1678.0,0.0
1079.0,-1155.0,1655.0,0.0
1083.0,-1136.0,1670.0,0.0
1090.0,-1118.0,1688.0,0.0
1091.0,-1094.0,1697.0,0.0
1075.0,-1055.0,1679.0,0.0
1086.0,-1042.0,1706.0,0.0
1077.0,-1010.0,1699.0,0.0
1067.0,-978.0,1693.0,0.0
1085.0,-970.0,1727.0,0.0
1084.0,-946.0,1733.0,0.0
17310.0,-14721.0,27780.0,1.0
1064.0,-881.0,1716.0,0.0
1088.0,-878.0,1762.0,0.0
1076.0,-845.0,1749.0,0.0
16945.0,-12946.0,27635.0,1.0
1080.0,-802.0,1769.0,0.0
1069.0,-770.0,1757.0,0.0
1089.0,-761.0,1798.0,0.0
1075.0,-729.0,1780.0,0.0
1087.0,-713.0,1807.0,0.0
1079.0,-685.0,1800.0,0.0
1090.0,-669.0,1823.0,0.0
1084.0,-641.0,1820.0,0.0
1095.0,-625.0,1845.0,0.0
16077.0,-8837.0,27162.0,1.0
1110.0,-585.0,1882.0,0.0
16005.0,-8114.0,27212.0,1.0
16004.0,-7771.0,27293.0,1.0
1086.0,-503.0,1858.0,0.0
1113.0,-492.0,1911.0,0.0
6752.0,-2844.0,11616.0,0.0
15652.0,-6261.0,27006.0,1.0
15603.0,-5907.0,26994.0,1.0
1100.0,-393.0,1909.0,0.0
1104.0,-371.0,1920.0,0.0
1090.0,-343.0,1901.0,0.0
1100.0,-322.0,1924.0,0.0
15077.0,-4089.0,26431.0,1.0
14947.0,-3731.0,26267.0,1.0
1071.0,-245.0,1888.0,0.0
14758.0,-3045.0,26060.0,1.0
1066.0,-196.0,1888.0,0.0
1072.0,-174.0,1903.0,0.0
1087.0,-153.0,1933.0,0.0
1073.0,-128.0,1912.0,0.0
1105.0,-108.0,1974.0,0.0
1085.0,-82.0,1943.0,0.0
12.0,-1.0,23.0,0.0
10.0,0.0,18.0,0.0
12.0,0.0,21.0,0.0
9.0,0.0,17.0,0.0
18.0,0.0,33.0,0.0
16.0,0.0,29.0,0.0
16.0,0.0,29.0,0.0
14.0,1.0,27.0,0.0
23.0,2.0,43.0,0.0
18.0,2.0,34.0,0.0
23.0,3.0,43.0,0.0
26.0,4.0,48.0,0.0
23.0,4.0,43.0,0.0
27.0,5.0,51.0,0.0
29.0,7.0,53.0,0.0
31.0,8.0,58.0,0.0
29.0,8.0,54.0,0.0
33.0,11.0,61.0,0.0
34.0,12.0,64.0,0.0
37.0,14.0,69.0,0.0
42.0,17.0,79.0,0.0
39.0,16.0,73.0,0.0
40.0,18.0,76.0,0.0
43.0,20.0,81.0,0.0
38.0,19.0,73.0,0.0
46.0,23.0,86.0,0.0
44.0,23.0,82.0,0.0
45.0,26.0,85.0,0.0
43.0,25.0,81.0,0.0
43.0,26.0,81.0,0.0
45.0,29.0,84.0,0.0
44.0,30.0,84.0,0.0
49.0,35.0,93.0,0.0
45.0,32.0,84.0,0.0
41.0,31.0,77.0,0.0
43.0,34.0,82.0,0.0
41.0,33.0,78.0,0.0
41.0,34.0,78.0,0.0
45.0,39.0,86.0,0.0
43.0,39.0,82.0,0.0
43.0,39.0,81.0,0.0
44.0,42.0,85.0,0.0
42.0,40.0,79.0,0.0
44.0,44.0,84.0,0.0
48.0,49.0,91.0,0.0
48.0,51.0,92.0,0.0
47.0,50.0,89.0,0.0
47.0,52.0,89.0,0.0
48.0,55.0,92.0,0.0
52.0,62.0,98.0,0.0
48.0,59.0,92.0,0.0
52.0,65.0,99.0,0.0
53.0,67.0,100.0,0.0
52.0,68.0,99.0,0.0
53.0,71.0,101.0,0.0
52.0,71.0,98.0,0.0
53.0,74.0,101.0,0.0
54.0,78.0,103.0,0.0
54.0,79.0,103.0,0.0
55.0,83.0,104.0,0.0
54.0,83.0,103.0,0.0
58.0,91.0,110.0,0.0
58.0,94.0,110.0,0.0
60.0,99.0,114.0,0.0
60.0,101.0,114.0,0.0
60.0,102.0,113.0,0.0
63.0,110.0,118.0,0.0
65.0,117.0,123.0,0.0
65.0,117.0,121.0,0.0
63.0,119.0,119.0,0.0
64.0,122.0,120.0,0.0
66.0,126.0,122.0,0.0
67.0,134.0,126.0,0.0
68.0,138.0,127.0,0.0
67.0,138.0,124.0,0.0
68.0,141.0,124.0,0.0
69.0,149.0,129.0,0.0
70.0,152.0,128.0,0.0
68.0,152.0,126.0,0.0
68.0,156.0,125.0,0.0
94.0,-281.0,62.0,0.0
93.0,-277.0,64.0,0.0
90.0,-264.0,64.0,0.0
91.0,-260.0,66.0,0.0
88.0,-251.0,67.0,0.0
90.0,-255.0,71.0,0.0
88.0,-244.0,71.0,0.0
91.0,-248.0,75.0,0.0
89.0,-240.0,76.0,0.0
92.0,-245.0,80.0,0.0
93.0,-243.0,82.0,0.0
95.0,-245.0,85.0,0.0
96.0,-244.0,88.0,0.0
96.0,-242.0,91.0,0.0
99.0,-245.0,95.0,0.0
100.0,-245.0,98.0,0.0
101.0,-242.0,100.0,0.0
99.0,-237.0,101.0,0.0
103.0,-242.0,107.0,0.0
100.0,-231.0,104.0,0.0
104.0,-235.0,110.0,0.0
106.0,-240.0,115.0,0.0
108.0,-240.0,119.0,0.0
109.0,-236.0,121.0,0.0
107.0,-231.0,121.0,0.0
108.0,-229.0,124.0,0.0
115.0,-240.0,133.0,0.0
116.0,-241.0,137.0,0.0
118.0,-242.0,141.0,0.0
115.0,-232.0,139.0,0.0
113.0,-223.0,137.0,0.0
112.0,-217.0,137.0,0.0
109.0,-211.0,136.0,0.0
102.0,-194.0,128.0,0.0
98.0,-184.0,124.0,0.0
92.0,-169.0,118.0,0.0
82.0,-149.0,107.0,0.0
80.0,-142.0,104.0,0.0
73.0,-128.0,96.0,0.0
77.0,-134.0,103.0,0.0
70.0,-119.0,94.0,0.0
72.0,-120.0,97.0,0.0
71.0,-117.0,97.0,0.0
59.0,-97.0,82.0,0.0
12385.0,-19766.0,17084.0,0.0
12360.0,-19414.0,17182.0,0.0
12306.0,-19022.0,17238.0,0.0
12287.0,-18686.0,17339.0,0.0
12386.0,-18530.0,17606.0,0.0
12685.0,-18665.0,18161.0,0.0
12781.0,-18494.0,18424.0,0.0
13018.0,-18522.0,18895.0,0.0
13341.0,-18658.0,19493.0,0.0
13653.0,-18767.0,20079.0,0.0
1038.0,-1403.0,1538.0,0.0
1026.0,-1363.0,1529.0,0.0
1022.0,-1331.0,1532.0,0.0
1034.0,-1323.0,1559.0,0.0
1032.0,-1297.0,1567.0,0.0
1027.0,-1267.0,1567.0,0.0
1038.0,-1256.0,1592.0,0.0
1037.0,-1231.0,1601.0,0.0
1040.0,-1210.0,1613.0,0.0
16584.0,-18911.0,25844.0,1.0
1046.0,-1169.0,1640.0,0.0
1049.0,-1148.0,1652.0,0.0
1061.0,-1138.0,1681.0,0.0
1077.0,-1130.0,1713.0,0.0
17025.0,-17478.0,27198.0,1.0
1048.0,-1053.0,1683.0,0.0
1050.0,-1030.0,1693.0,0.0
1064.0,-1021.0,1724.0,0.0
17188.0,-16104.0,27962.0,1.0
17174.0,-15708.0,28059.0,1.0
1071.0,-956.0,1759.0,0.0
1048.0,-912.0,1729.0,0.0
16857.0,-14298.0,27890.0,1.0
1050.0,-868.0,1746.0,0.0
1057.0,-849.0,1764.0,0.0
1055.0,-826.0,1768.0,0.0
1060.0,-805.0,1781.0,0.0
1050.0,-775.0,1772.0,0.0
1051.0,-753.0,1781.0,0.0
16204.0,-11248.0,27530.0,1.0
1071.0,-720.0,1827.0,0.0
1078.0,-701.0,1846.0,0.0
1038.0,-653.0,1784.0,0.0
1070.0,-649.0,1844.0,0.0
1075.0,-629.0,1860.0,0.0
1082.0,-609.0,1877.0,0.0
1045.0,-566.0,1820.0,0.0
1105.0,-573.0,1928.0,0.0
1080.0,-537.0,1891.0,0.0
1074.0,-511.0,1887.0,0.0
1068.0,-485.0,1880.0,0.0
6756.0,-2919.0,11927.0,0.0
15308.0,-6280.0,27098.0,1.0
15262.0,-5930.0,27092.0,1.0
15160.0,-5558.0,26984.0,1.0
1084.0,-374.0,1936.0,0.0
1060.0,-342.0,1898.0,0.0
14816.0,-4456.0,26578.0,1.0
14724.0,-4105.0,26480.0,1.0
14621.0,-3755.0,26359.0,1.0
14542.0,-3414.0,26282.0,1.0
14437.0,-3070.0,26153.0,1.0
1070.0,-204.0,1944.0,0.0
14225.0,-2394.0,25888.0,1.0
1073.0,-157.0,1959.0,0.0
13894.0,-1720.0,25396.0,1.0
16.0,-2.0,29.0,0.0
1076.0,-85.0,1975.0,0.0
16.0,0.0,32.0,0.0
8.0,0.0,15.0,0.0
0.0,0.0,0.0,0.0
12.0,0.0,23.0,0.0
24.0,0.0,46.0,0.0
12.0,0.0,24.0,0.0
14.0,0.0,28.0,0.0
23.0,2.0,45.0,0.0
30.0,3.0,58.0,0.0
20.0,2.0,39.0,0.0
30.0,4.0,57.0,0.0
27.0,4.0,51.0,0.0
26.0,6.0,51.0,0.0
30.0,6.0,57.0,0.0
29.0,8.0,56.0,0.0
34.0,9.0,66.0,0.0
27.0,8.0,52.0,0.0
34.0,11.0,67.0,0.0
34.0,12.0,65.0,0.0
40.0,15.0,77.0,0.0
39.0,16.0,75.0,0.0
35.0,15.0,67.0,0.0
41.0,18.0,78.0,0.0
39.0,19.0,77.0,0.0
45.0,22.0,87.0,0.0
45.0,23.0,86.0,0.0
37.0,20.0,72.0,0.0
45.0,26.0,88.0,0.0
43.0,26.0,84.0,0.0
43.0,27.0,84.0,0.0
50.0,32.0,97.0,0.0
42.0,28.0,82.0,0.0
41.0,30.0,81.0,0.0
46.0,35.0,91.0,0.0
44.0,33.0,84.0,0.0
43.0,34.0,84.0,0.0
40.0,32.0,77.0,0.0
43.0,36.0,84.0,0.0
42.0,36.0,81.0,0.0
42.0,38.0,82.0,0.0
42.0,40.0,83.0,0.0
42.0,41.0,82.0,0.0
42.0,42.0,82.0,0.0
45.0,46.0,89.0,0.0
45.0,47.0,87.0,0.0
45.0,48.0,87.0,0.0
43.0,48.0,84.0,0.0
48.0,54.0,93.0,0.0
43.0,50.0,85.0,0.0
42.0,51.0,82.0,0.0
47.0,59.0,93.0,0.0
49.0,62.0,96.0,0.0
47.0,61.0,92.0,0.0
51.0,68.0,99.0,0.0
52.0,71.0,102.0,0.0
51.0,71.0,100.0,0.0
52.0,74.0,101.0,0.0
53.0,78.0,104.0,0.0
52.0,79.0,102.0,0.0
56.0,86.0,109.0,0.0
55.0,86.0,106.0,0.0
56.0,89.0,109.0,0.0
58.0,94.0,111.0,0.0
57.0,95.0,110.0,0.0
58.0,98.0,112.0,0.0
59.0,103.0,114.0,0.0
62.0,110.0,119.0,0.0
60.0,110.0,116.0,0.0
63.0,117.0,121.0,0.0
63.0,119.0,120.0,0.0
64.0,124.0,123.0,0.0
64.0,127.0,122.0,0.0
65.0,131.0,124.0,0.0
65.0,135.0,125.0,0.0
64.0,134.0,122.0,0.0
66.0,143.0,126.0,0.0
68.0,150.0,129.0,0.0
70.0,157.0,134.0,0.0
65.0,148.0,124.0,0.0
66.0,153.0,124.0,0.0
88.0,-271.0,61.0,0.0
88.0,-269.0,63.0,0.0
87.0,-260.0,64.0,0.0
84.0,-250.0,65.0,0.0
82.0,-240.0,65.0,0.0
85.0,-247.0,69.0,0.0
84.0,-242.0,71.0,0.0
88.0,-244.0,75.0,0.0
85.0,-235.0,74.0,0.0
89.0,-240.0,80.0,0.0
88.0,-238.0,81.0,0.0
87.0,-232.0,82.0,0.0
92.0,-241.0,89.0,0.0
92.0,-238.0,90.0,0.0
95.0,-240.0,94.0,0.0
95.0,-240.0,97.0,0.0
96.0,-238.0,99.0,0.0
96.0,-235.0,101.0,0.0
100.0,-239.0,106.0,0.0
97.0,-231.0,105.0,0.0
101.0,-236.0,111.0,0.0
103.0,-237.0,115.0,0.0
104.0,-237.0,119.0,0.0
102.0,-231.0,118.0,0.0
103.0,-228.0,120.0,0.0
105.0,-230.0,124.0,0.0
113.0,-241.0,134.0,0.0
117.0,-248.0,141.0,0.0
114.0,-238.0,140.0,0.0
109.0,-225.0,136.0,0.0
109.0,-221.0,137.0,0.0
105.0,-211.0,133.0,0.0
102.0,-200.0,130.0,0.0
96.0,-186.0,124.0,0.0
91.0,-176.0,120.0,0.0
84.0,-158.0,111.0,0.0
86.0,-159.0,114.0,0.0
78.0,-143.0,105.0,0.0
73.0,-132.0,99.0,0.0
66.0,-117.0,90.0,0.0
67.0,-117.0,93.0,0.0
59.0,-102.0,83.0,0.0
58.0,-99.0,82.0,0.0
64.0,-107.0,91.0,0.0
45.0,-76.0,66.0,0.0
12007.0,-19311.0,17187.0,0.0
11967.0,-18937.0,17256.0,0.0
11941.0,-18592.0,17346.0,0.0
12102.0,-18535.0,17706.0,0.0
12427.0,-18720.0,18309.0,0.0
12439.0,-18426.0,18452.0,0.0
12740.0,-18555.0,19026.0,0.0
13031.0,-18657.0,19589.0,0.0
13335.0,-18762.0,20173.0,0.0
15314.0,-21171.0,23312.0,1.0
1012.0,-1376.0,1552.0,0.0
1000.0,-1335.0,1542.0,0.0
1024.0,-1341.0,1587.0,0.0
1026.0,-1320.0,1601.0,0.0
1021.0,-1288.0,1601.0,0.0
1009.0,-1248.0,1590.0,0.0
1027.0,-1247.0,1629.0,0.0
1011.0,-1205.0,1612.0,0.0
1013.0,-1183.0,1624.0,0.0
1040.0,-1189.0,1674.0,0.0
1025.0,-1149.0,1659.0,0.0
1035.0,-1134.0,1683.0,0.0
1044.0,-1121.0,1706.0,0.0
1013.0,-1065.0,1664.0,0.0
1019.0,-1048.0,1682.0,0.0
1061.0,-1066.0,1757.0,0.0
1015.0,-997.0,1691.0,0.0
1043.0,-1000.0,1743.0,0.0
1031.0,-966.0,1731.0,0.0
1037.0,-947.0,1748.0,0.0
1057.0,-942.0,1790.0,0.0
1053.0,-913.0,1789.0,0.0
1056.0,-892.0,1802.0,0.0
1055.0,-868.0,1808.0,0.0
1033.0,-828.0,1778.0,0.0
1052.0,-819.0,1817.0,0.0
1045.0,-790.0,1812.0,0.0
1029.0,-755.0,1790.0,0.0
15860.0,-11277.0,27665.0,1.0
1049.0,-722.0,1837.0,0.0
1064.0,-708.0,1868.0,0.0
1059.0,-682.0,1867.0,0.0
1034.0,-642.0,1829.0,0.0
1048.0,-628.0,1861.0,0.0
1041.0,-601.0,1854.0,0.0
1044.0,-579.0,1865.0,0.0
1058.0,-563.0,1896.0,0.0
1041.0,-531.0,1870.0,0.0
1063.0,-518.0,1916.0,0.0
1033.0,-481.0,1867.0,0.0
6757.0,-2995.0,12243.0,0.0
14952.0,-6296.0,27167.0,1.0
1038.0,-415.0,1892.0,0.0
1016.0,-382.0,1857.0,0.0
1050.0,-372.0,1923.0,0.0
1056.0,-350.0,1940.0,0.0
14485.0,-4480.0,26668.0,1.0
1045.0,-300.0,1930.0,0.0
14316.0,-3783.0,26488.0,1.0
1049.0,-253.0,1946.0,0.0
14037.0,-3077.0,26097.0,1.0
1049.0,-206.0,1956.0,0.0
1050.0,-182.0,1963.0,0.0
1033.0,-157.0,1934.0,0.0
13620.0,-1750.0,25550.0,1.0
1057.0,-112.0,1988.0,0.0
1016.0,-84.0,1916.0,0.0
13.0,-1.0,25.0,0.0
10.0,0.0,21.0,0.0
0.0,0.0,0.0,0.0
6.0,0.0,11.0,0.0
12.0,0.0,23.0,0.0
10.0,0.0,21.0,0.0
17.0,0.0,33.0,0.0
16.0,1.0,32.0,0.0
21.0,2.0,43.0,0.0
25.0,3.0,48.0,0.0
20.0,3.0,40.0,0.0
20.0,3.0,39.0,0.0
27.0,5.0,53.0,0.0
22.0,5.0,44.0,0.0
25.0,6.0,49.0,0.0
26.0,7.0,51.0,0.0
33.0,10.0,66.0,0.0
30.0,10.0,59.0,0.0
34.0,12.0,68.0,0.0
30.0,12.0,60.0,0.0
35.0,14.0,69.0,0.0
26.0,11.0,51.0,0.0
34.0,16.0,69.0,0.0
38.0,18.0,76.0,0.0
38.0,19.0,77.0,0.0
39.0,21.0,78.0,0.0
32.0,18.0,65.0,0.0
38.0,23.0,78.0,0.0
38.0,24.0,76.0,0.0
36.0,23.0,72.0,0.0
40.0,27.0,81.0,0.0
38.0,27.0,77.0,0.0
41.0,29.0,82.0,0.0
41.0,30.0,82.0,0.0
40.0,31.0,80.0,0.0
39.0,32.0,79.0,0.0
35.0,29.0,69.0,0.0
37.0,33.0,76.0,0.0
39.0,35.0,79.0,0.0
39.0,36.0,78.0,0.0
39.0,37.0,78.0,0.0
38.0,38.0,77.0,0.0
38.0,39.0,76.0,0.0
39.0,41.0,80.0,0.0
40.0,43.0,81.0,0.0
42.0,46.0,84.0,0.0
44.0,49.0,88.0,0.0
44.0,51.0,89.0,0.0
41.0,50.0,83.0,0.0
41.0,51.0,83.0,0.0
43.0,54.0,87.0,0.0
49.0,64.0,99.0,0.0
43.0,56.0,85.0,0.0
45.0,61.0,91.0,0.0
47.0,65.0,94.0,0.0
48.0,68.0,96.0,0.0
49.0,73.0,99.0,0.0
50.0,75.0,101.0,0.0
47.0,73.0,96.0,0.0
51.0,79.0,102.0,0.0
50.0,80.0,100.0,0.0
51.0,83.0,103.0,0.0
52.0,89.0,105.0,0.0
55.0,95.0,111.0,0.0
55.0,95.0,108.0,0.0
57.0,102.0,114.0,0.0
56.0,103.0,113.0,0.0
58.0,107.0,114.0,0.0
59.0,114.0,118.0,0.0
59.0,115.0,117.0,0.0
60.0,119.0,120.0,0.0
60.0,124.0,121.0,0.0
63.0,130.0,124.0,0.0
61.0,131.0,122.0,0.0
62.0,134.0,122.0,0.0
62.0,139.0,124.0,0.0
63.0,142.0,124.0,0.0
63.0,145.0,124.0,0.0
63.0,149.0,124.0,0.0
65.0,156.0,127.0,0.0
84.0,-267.0,61.0,0.0
84.0,-264.0,63.0,0.0
86.0,-266.0,67.0,0.0
82.0,-251.0,65.0,0.0
83.0,-248.0,68.0,0.0
86.0,-253.0,72.0,0.0
86.0,-249.0,74.0,0.0
88.0,-255.0,79.0,0.0
87.0,-250.0,80.0,0.0
91.0,-254.0,85.0,0.0
91.0,-251.0,87.0,0.0
94.0,-255.0,92.0,0.0
92.0,-247.0,92.0,0.0
94.0,-249.0,95.0,0.0
93.0,-245.0,96.0,0.0
97.0,-249.0,102.0,0.0
99.0,-251.0,106.0,0.0
101.0,-252.0,110.0,0.0
100.0,-247.0,111.0,0.0
99.0,-240.0,111.0,0.0
102.0,-244.0,116.0,0.0
106.0,-250.0,122.0,0.0
105.0,-245.0,123.0,0.0
105.0,-243.0,125.0,0.0
106.0,-241.0,128.0,0.0
105.0,-235.0,128.0,0.0
110.0,-243.0,136.0,0.0
114.0,-246.0,141.0,0.0
111.0,-236.0,140.0,0.0
115.0,-242.0,146.0,0.0
106.0,-220.0,138.0,0.0
106.0,-219.0,140.0,0.0
103.0,-208.0,136.0,0.0
92.0,-184.0,123.0,0.0
91.0,-179.0,123.0,0.0
92.0,-178.0,125.0,0.0
80.0,-153.0,111.0,0.0
79.0,-148.0,109.0,0.0
79.0,-147.0,112.0,0.0
73.0,-134.0,104.0,0.0
67.0,-121.0,96.0,0.0
62.0,-109.0,89.0,0.0
61.0,-106.0,88.0,0.0
62.0,-107.0,92.0,0.0
11710.0,-19605.0,17136.0,0.0
49.0,-81.0,73.0,0.0
11657.0,-18898.0,17314.0,0.0
11630.0,-18550.0,17398.0,0.0
11800.0,-18512.0,17776.0,0.0
12130.0,-18717.0,18399.0,0.0
12175.0,-18472.0,18592.0,0.0
12464.0,-18593.0,19159.0,0.0
12753.0,-18699.0,19730.0,0.0
13045.0,-18796.0,20308.0,0.0
992.0,-1404.0,1553.0,0.0
15023.0,-20895.0,23675.0,1.0
988.0,-1351.0,1568.0,0.0
981.0,-1316.0,1566.0,0.0
1002.0,-1319.0,1606.0,0.0
15527.0,-20062.0,25036.0,1.0
985.0,-1249.0,1597.0,0.0
993.0,-1235.0,1619.0,0.0
15773.0,-19232.0,25844.0,1.0
993.0,-1188.0,1636.0,0.0
1003.0,-1175.0,1661.0,0.0
993.0,-1139.0,1652.0,0.0
1024.0,-1150.0,1712.0,0.0
1017.0,-1119.0,1710.0,0.0
1007.0,-1084.0,1701.0,0.0
1000.0,-1052.0,1695.0,0.0
1017.0,-1047.0,1732.0,0.0
1016.0,-1022.0,1738.0,0.0
1027.0,-1009.0,1765.0,0.0
1018.0,-976.0,1756.0,0.0
16320.0,-15271.0,28261.0,1.0
1026.0,-937.0,1786.0,0.0
1018.0,-906.0,1778.0,0.0
1025.0,-888.0,1797.0,0.0
1016.0,-857.0,1789.0,0.0
15953.0,-13085.0,28171.0,1.0
1018.0,-812.0,1807.0,0.0
15791.0,-12228.0,28092.0,1.0
1034.0,-778.0,1848.0,0.0
1024.0,-745.0,1835.0,0.0
1063.0,-750.0,1911.0,0.0
1029.0,-702.0,1857.0,0.0
1018.0,-671.0,1844.0,0.0
15302.0,-9751.0,27786.0,1.0
1033.0,-635.0,1884.0,0.0
1036.0,-613.0,1895.0,0.0
1025.0,-583.0,1878.0,0.0
1032.0,-563.0,1898.0,0.0
5015.0,-2624.0,9250.0,0.0
14960.0,-7489.0,27670.0,1.0
6617.0,-3161.0,12275.0,0.0
7173.0,-3264.0,13345.0,0.0
14627.0,-6323.0,27287.0,1.0
14563.0,-5964.0,27242.0,1.0
14423.0,-5577.0,27052.0,1.0
14311.0,-5206.0,26913.0,1.0
1018.0,-347.0,1921.0,0.0
1038.0,-330.0,1963.0,0.0
1028.0,-303.0,1949.0,0.0
1027.0,-279.0,1952.0,0.0
1040.0,-259.0,1982.0,0.0
1005.0,-227.0,1920.0,0.0
13656.0,-2771.0,26127.0,1.0
1008.0,-181.0,1935.0,0.0
1017.0,-159.0,1956.0,0.0
1012.0,-135.0,1949.0,0.0
14.0,-2.0,28.0,0.0
8.0,-1.0,16.0,0.0
11.0,-1.0,23.0,0.0
21.0,0.0,41.0,0.0
6.0,0.0,11.0,0.0
13.0,0.0,27.0,0.0
19.0,0.0,40.0,0.0
21.0,0.0,42.0,0.0
26.0,1.0,53.0,0.0
14.0,0.0,28.0,0.0
23.0,2.0,48.0,0.0
21.0,2.0,43.0,0.0
33.0,5.0,67.0,0.0
23.0,4.0,46.0,0.0
33.0,7.0,67.0,0.0
33.0,8.0,67.0,0.0
29.0,8.0,60.0,0.0
25.0,7.0,52.0,0.0
34.0,11.0,70.0,0.0
38.0,13.0,78.0,0.0
44.0,16.0,88.0,0.0
34.0,13.0,69.0,0.0
39.0,16.0,80.0,0.0
37.0,16.0,76.0,0.0
37.0,17.0,77.0,0.0
33.0,16.0,67.0,0.0
43.0,22.0,87.0,0.0
35.0,20.0,74.0,0.0
44.0,25.0,91.0,0.0
43.0,26.0,89.0,0.0
41.0,26.0,84.0,0.0
45.0,30.0,93.0,0.0
47.0,32.0,97.0,0.0
39.0,28.0,80.0,0.0
41.0,31.0,85.0,0.0
40.0,31.0,83.0,0.0
41.0,33.0,85.0,0.0
45.0,37.0,93.0,0.0
40.0,34.0,83.0,0.0
42.0,37.0,86.0,0.0
42.0,38.0,85.0,0.0
40.0,38.0,84.0,0.0
37.0,36.0,77.0,0.0
42.0,42.0,86.0,0.0
41.0,42.0,84.0,0.0
37.0,39.0,76.0,0.0
39.0,43.0,81.0,0.0
43.0,48.0,87.0,0.0
41.0,48.0,86.0,0.0
43.0,51.0,89.0,0.0
42.0,52.0,87.0,0.0
44.0,55.0,91.0,0.0
42.0,55.0,88.0,0.0
46.0,62.0,97.0,0.0
46.0,62.0,95.0,0.0
48.0,67.0,99.0,0.0
49.0,70.0,101.0,0.0
48.0,70.0,99.0,0.0
49.0,74.0,102.0,0.0
51.0,78.0,105.0,0.0
47.0,75.0,99.0,0.0
50.0,81.0,104.0,0.0
52.0,84.0,107.0,0.0
50.0,85.0,104.0,0.0
53.0,90.0,109.0,0.0
55.0,97.0,114.0,0.0
54.0,97.0,111.0,0.0
56.0,102.0,115.0,0.0
56.0,106.0,117.0,0.0
57.0,109.0,117.0,0.0
57.0,113.0,119.0,0.0
61.0,121.0,125.0,0.0
57.0,116.0,117.0,0.0
58.0,122.0,121.0,0.0
63.0,133.0,127.0,0.0
61.0,133.0,126.0,0.0
60.0,133.0,123.0,0.0
60.0,137.0,123.0,0.0
63.0,145.0,128.0,0.0
65.0,154.0,132.0,0.0
64.0,153.0,129.0,0.0
62.0,151.0,125.0,0.0
79.0,-259.0,60.0,0.0
80.0,-258.0,63.0,0.0
78.0,-248.0,63.0,0.0
80.0,-250.0,66.0,0.0
80.0,-246.0,68.0,0.0
81.0,-245.0,71.0,0.0
81.0,-242.0,73.0,0.0
82.0,-242.0,76.0,0.0
82.0,-238.0,77.0,0.0
86.0,-247.0,83.0,0.0
85.0,-239.0,84.0,0.0
87.0,-242.0,87.0,0.0
84.0,-234.0,88.0,0.0
90.0,-245.0,94.0,0.0
92.0,-246.0,99.0,0.0
92.0,-243.0,100.0,0.0
94.0,-245.0,105.0,0.0
94.0,-241.0,106.0,0.0
94.0,-236.0,107.0,0.0
96.0,-242.0,112.0,0.0
97.0,-238.0,114.0,0.0
99.0,-242.0,119.0,0.0
101.0,-241.0,122.0,0.0
101.0,-239.0,124.0,0.0
100.0,-232.0,124.0,0.0
101.0,-233.0,128.0,0.0
105.0,-236.0,133.0,0.0
106.0,-236.0,136.0,0.0
100.0,-220.0,131.0,0.0
107.0,-232.0,142.0,0.0
99.0,-211.0,132.0,0.0
97.0,-205.0,132.0,0.0
93.0,-194.0,127.0,0.0
86.0,-177.0,120.0,0.0
80.0,-163.0,113.0,0.0
81.0,-161.0,114.0,0.0
73.0,-144.0,104.0,0.0
71.0,-137.0,102.0,0.0
67.0,-129.0,98.0,0.0
65.0,-123.0,96.0,0.0
59.0,-109.0,87.0,0.0
55.0,-100.0,82.0,0.0
54.0,-97.0,82.0,0.0
43.0,-77.0,66.0,0.0
52.0,-89.0,79.0,0.0
11315.0,-19107.0,17190.0,0.0
11319.0,-18807.0,17321.0,0.0
11294.0,-18461.0,17406.0,0.0
11536.0,-18547.0,17901.0,0.0
11783.0,-18633.0,18409.0,0.0
11883.0,-18477.0,18688.0,0.0
12161.0,-18590.0,19249.0,0.0
12453.0,-18711.0,19836.0,0.0
12705.0,-18761.0,20364.0,0.0
947.0,-1375.0,1529.0,0.0
962.0,-1371.0,1561.0,0.0
963.0,-1349.0,1573.0,0.0
974.0,-1338.0,1598.0,0.0
963.0,-1299.0,1589.0,0.0
973.0,-1288.0,1615.0,0.0
955.0,-1241.0,1594.0,0.0
973.0,-1240.0,1633.0,0.0
978.0,-1221.0,1648.0,0.0
971.0,-1190.0,1646.0,0.0
1001.0,-1200.0,1704.0,0.0
981.0,-1153.0,1679.0,0.0
979.0,-1127.0,1683.0,0.0
971.0,-1094.0,1677.0,0.0
1004.0,-1107.0,1743.0,0.0
993.0,-1071.0,1731.0,0.0
970.0,-1023.0,1698.0,0.0
976.0,-1006.0,1718.0,0.0
998.0,-1005.0,1763.0,0.0
16150.0,-15869.0,28627.0,1.0
995.0,-953.0,1772.0,0.0
996.0,-932.0,1781.0,0.0
985.0,-897.0,1769.0,0.0
1004.0,-892.0,1810.0,0.0
999.0,-863.0,1808.0,0.0
15646.0,-13154.0,28395.0,1.0
15497.0,-12664.0,28227.0,1.0
1000.0,-793.0,1828.0,0.0
1016.0,-782.0,1864.0,0.0
15250.0,-11390.0,28073.0,1.0
15160.0,-10968.0,28004.0,1.0
15129.0,-10592.0,28040.0,1.0
1008.0,-682.0,1875.0,0.0
1006.0,-657.0,1879.0,0.0
971.0,-611.0,1819.0,0.0
1011.0,-613.0,1899.0,0.0
998.0,-582.0,1881.0,0.0
14755.0,-8268.0,27870.0,1.0
1012.0,-543.0,1919.0,0.0
1012.0,-520.0,1924.0,0.0
6606.0,-3240.0,12588.0,0.0
7170.0,-3350.0,13701.0,0.0
14321.0,-6357.0,27442.0,1.0
991.0,-417.0,1904.0,0.0
1013.0,-402.0,1952.0,0.0
1016.0,-380.0,1964.0,0.0
1021.0,-358.0,1977.0,0.0
999.0,-327.0,1940.0,0.0
13705.0,-4162.0,26676.0,1.0
998.0,-279.0,1948.0,0.0
13534.0,-3474.0,26470.0,1.0
979.0,-228.0,1920.0,0.0
993.0,-208.0,1954.0,0.0
13436.0,-2497.0,26463.0,1.0
1008.0,-164.0,1991.0,0.0
997.0,-138.0,1974.0,0.0
1001.0,-115.0,1986.0,0.0
6.0,-1.0,13.0,0.0
11.0,-1.0,24.0,0.0
6.0,0.0,12.0,0.0
8.0,0.0,17.0,0.0
13.0,0.0,28.0,0.0
9.0,0.0,20.0,0.0
11.0,0.0,22.0,0.0
17.0,1.0,35.0,0.0
13.0,0.0,29.0,0.0
21.0,2.0,44.0,0.0
20.0,2.0,43.0,0.0
15.0,2.0,33.0,0.0
20.0,4.0,41.0,0.0
26.0,5.0,55.0,0.0
18.0,4.0,39.0,0.0
19.0,4.0,39.0,0.0
22.0,6.0,47.0,0.0
23.0,7.0,49.0,0.0
26.0,9.0,54.0,0.0
32.0,12.0,65.0,0.0
30.0,12.0,64.0,0.0
27.0,11.0,57.0,0.0
30.0,14.0,64.0,0.0
34.0,16.0,71.0,0.0
36.0,18.0,75.0,0.0
34.0,18.0,72.0,0.0
30.0,16.0,63.0,0.0
30.0,17.0,64.0,0.0
38.0,23.0,81.0,0.0
38.0,24.0,81.0,0.0
38.0,26.0,81.0,0.0
33.0,23.0,71.0,0.0
37.0,27.0,79.0,0.0
36.0,27.0,77.0,0.0
36.0,28.0,76.0,0.0
38.0,31.0,82.0,0.0
31.0,27.0,67.0,0.0
35.0,30.0,73.0,0.0
37.0,34.0,79.0,0.0
33.0,31.0,70.0,0.0
35.0,34.0,75.0,0.0
35.0,35.0,75.0,0.0
34.0,35.0,73.0,0.0
37.0,39.0,79.0,0.0
34.0,37.0,72.0,0.0
36.0,41.0,77.0,0.0
36.0,42.0,78.0,0.0
36.0,43.0,79.0,0.0
38.0,47.0,82.0,0.0
38.0,47.0,80.0,0.0
39.0,51.0,84.0,0.0
38.0,51.0,82.0,0.0
42.0,57.0,90.0,0.0
40.0,55.0,86.0,0.0
41.0,58.0,87.0,0.0
41.0,62.0,90.0,0.0
43.0,64.0,92.0,0.0
42.0,65.0,90.0,0.0
46.0,72.0,97.0,0.0
45.0,72.0,96.0,0.0
46.0,75.0,98.0,0.0
46.0,78.0,99.0,0.0
46.0,79.0,98.0,0.0
47.0,83.0,100.0,0.0
49.0,87.0,103.0,0.0
51.0,95.0,109.0,0.0
52.0,99.0,111.0,0.0
51.0,98.0,109.0,0.0
51.0,100.0,108.0,0.0
53.0,107.0,112.0,0.0
54.0,111.0,115.0,0.0
53.0,112.0,113.0,0.0
57.0,122.0,121.0,0.0
56.0,122.0,118.0,0.0
57.0,126.0,119.0,0.0
57.0,130.0,120.0,0.0
57.0,133.0,120.0,0.0
59.0,140.0,124.0,0.0
59.0,144.0,125.0,0.0
60.0,148.0,126.0,0.0
58.0,148.0,122.0,0.0
77.0,-261.0,61.0,0.0
81.0,-269.0,66.0,0.0
79.0,-260.0,67.0,0.0
78.0,-254.0,69.0,0.0
80.0,-254.0,72.0,0.0
79.0,-250.0,74.0,0.0
81.0,-250.0,76.0,0.0
82.0,-253.0,80.0,0.0
83.0,-249.0,82.0,0.0
86.0,-254.0,87.0,0.0
86.0,-252.0,89.0,0.0
88.0,-254.0,93.0,0.0
88.0,-250.0,95.0,0.0
92.0,-256.0,101.0,0.0
91.0,-254.0,102.0,0.0
95.0,-258.0,107.0,0.0
95.0,-255.0,109.0,0.0
98.0,-258.0,114.0,0.0
96.0,-251.0,114.0,0.0
97.0,-251.0,117.0,0.0
101.0,-256.0,124.0,0.0
100.0,-251.0,125.0,0.0
101.0,-248.0,127.0,0.0
101.0,-244.0,128.0,0.0
101.0,-243.0,131.0,0.0
102.0,-240.0,133.0,0.0
106.0,-248.0,141.0,0.0
106.0,-243.0,142.0,0.0
105.0,-239.0,143.0,0.0
102.0,-226.0,140.0,0.0
98.0,-215.0,136.0,0.0
94.0,-201.0,130.0,0.0
92.0,-194.0,129.0,0.0
91.0,-190.0,129.0,0.0
89.0,-183.0,127.0,0.0
79.0,-160.0,115.0,0.0
73.0,-145.0,106.0,0.0
65.0,-128.0,96.0,0.0
67.0,-129.0,100.0,0.0
67.0,-127.0,100.0,0.0
63.0,-118.0,96.0,0.0
57.0,-106.0,88.0,0.0
11110.0,-20184.0,17016.0,0.0
11085.0,-19824.0,17109.0,0.0
51.0,-90.0,80.0,0.0
10971.0,-18998.0,17181.0,0.0
10998.0,-18740.0,17347.0,0.0
11027.0,-18484.0,17515.0,0.0
11299.0,-18628.0,18068.0,0.0
11452.0,-18570.0,18436.0,0.0
11614.0,-18517.0,18819.0,0.0
11888.0,-18632.0,19384.0,0.0
12153.0,-18721.0,19939.0,0.0
937.0,-1419.0,1548.0,0.0
939.0,-1398.0,1561.0,0.0
14303.0,-20898.0,23891.0,1.0
934.0,-1340.0,1569.0,0.0
943.0,-1330.0,1595.0,0.0
947.0,-1310.0,1609.0,0.0
14766.0,-20041.0,25218.0,1.0
14771.0,-19667.0,25359.0,1.0
970.0,-1266.0,1674.0,0.0
969.0,-1242.0,1682.0,0.0
15067.0,-18913.0,26263.0,1.0
983.0,-1210.0,1722.0,0.0
949.0,-1144.0,1672.0,0.0
978.0,-1154.0,1730.0,0.0
963.0,-1113.0,1712.0,0.0
987.0,-1116.0,1762.0,0.0
966.0,-1067.0,1731.0,0.0
15645.0,-16910.0,28163.0,1.0
985.0,-1041.0,1782.0,0.0
15843.0,-16347.0,28762.0,1.0
964.0,-971.0,1758.0,0.0
975.0,-959.0,1787.0,0.0
977.0,-936.0,1796.0,0.0
984.0,-919.0,1816.0,0.0
969.0,-882.0,1797.0,0.0
985.0,-872.0,1832.0,0.0
970.0,-836.0,1811.0,0.0
989.0,-829.0,1854.0,0.0
983.0,-800.0,1849.0,0.0
970.0,-767.0,1831.0,0.0
977.0,-748.0,1849.0,0.0
987.0,-732.0,1875.0,0.0
980.0,-703.0,1868.0,0.0
979.0,-679.0,1872.0,0.0
959.0,-643.0,1839.0,0.0
993.0,-642.0,1910.0,0.0
991.0,-617.0,1914.0,0.0
985.0,-590.0,1909.0,0.0
14458.0,-8316.0,28065.0,1.0
995.0,-548.0,1939.0,0.0
14337.0,-7563.0,27995.0,1.0
6586.0,-3318.0,12897.0,0.0
7166.0,-3439.0,14072.0,0.0
14004.0,-6387.0,27574.0,1.0
13911.0,-6014.0,27465.0,1.0
13777.0,-5627.0,27274.0,1.0
13692.0,-5265.0,27178.0,1.0
992.0,-358.0,1975.0,0.0
13458.0,-4531.0,26850.0,1.0
13377.0,-4183.0,26755.0,1.0
13314.0,-3844.0,26693.0,1.0
991.0,-263.0,1993.0,0.0
987.0,-238.0,1990.0,0.0
13266.0,-2870.0,26787.0,1.0
981.0,-189.0,1988.0,0.0
990.0,-166.0,2010.0,0.0
980.0,-141.0,1993.0,0.0
955.0,-114.0,1948.0,0.0
976.0,-93.0,1994.0,0.0
14.0,-1.0,30.0,0.0
4.0,0.0,10.0,0.0
16.0,0.0,36.0,0.0
12.0,0.0,26.0,0.0
18.0,0.0,38.0,0.0
18.0,0.0,39.0,0.0
11.0,0.0,22.0,0.0
20.0,1.0,42.0,0.0
13.0,0.0,28.0,0.0
20.0,2.0,42.0,0.0
23.0,4.0,50.0,0.0
22.0,4.0,48.0,0.0
22.0,4.0,47.0,0.0
31.0,7.0,67.0,0.0
27.0,7.0,59.0,0.0
33.0,10.0,70.0,0.0
31.0,10.0,67.0,0.0
35.0,12.0,75.0,0.0
29.0,11.0,63.0,0.0
36.0,15.0,79.0,0.0
31.0,13.0,67.0,0.0
38.0,18.0,83.0,0.0
36.0,17.0,77.0,0.0
41.0,21.0,88.0,0.0
36.0,19.0,78.0,0.0
46.0,27.0,100.0,0.0
39.0,24.0,85.0,0.0
39.0,24.0,84.0,0.0
45.0,29.0,97.0,0.0
44.0,30.0,96.0,0.0
39.0,28.0,86.0,0.0
40.0,29.0,87.0,0.0
38.0,29.0,82.0,0.0
41.0,33.0,89.0,0.0
43.0,36.0,95.0,0.0
40.0,34.0,87.0,0.0
41.0,37.0,91.0,0.0
34.0,32.0,76.0,0.0
36.0,35.0,81.0,0.0
40.0,39.0,86.0,0.0
35.0,36.0,77.0,0.0
35.0,38.0,78.0,0.0
37.0,40.0,81.0,0.0
37.0,41.0,81.0,0.0
39.0,44.0,84.0,0.0
