//X,Y,Z,Classification
0,0,0,0.0
0,0,0,0.0
0,0,0,0.0
0,0,0,0.0
0,0,0,0.0
0,0,0,0.0
0,0,0,0.0
0,0,0,0.0
3163,-8394,34629,1.0
0,0,0,0.0
0,0,0,0.0
3147,-7222,34710,1.0
0,0,0,0.0
0,0,0,0.0
0,0,0,0.0
0,0,0,0.0
3115,-5296,34890,1.0
0,0,0,0.0
3096,-4526,34922,1.0
0,0,0,0.0
0,0,0,0.0
0,0,0,0.0
0,0,0,0.0
3045,-2615,35080,1.0
2087,-1537,24163,0.0
2005,-1229,23323,0.0
1923,-939,22474,0.0
1911,-693,22452,0.0
1909,-451,22552,0.0
1905,-206,22625,0.0
1893,39,22627,0.0
1890,286,22714,0.0
1880,534,22745,0.0
1873,785,22808,0.0
1871,1039,22938,0.0
1855,1286,22890,0.0
1849,1543,22984,0.0
1842,1800,23065,0.0
1831,2056,23099,0.0
1824,2319,23198,0.0
1811,2576,23220,0.0
1799,2837,23258,0.0
1788,3101,23318,0.0
1775,3366,23359,0.0
1768,3644,23480,0.0
1754,3911,23514,0.0
1741,4183,23566,0.0
1726,4456,23606,0.0
1715,4745,23721,0.0
1702,5025,23779,0.0
1683,5300,23798,0.0
4,11,50,0.0
4,15,63,0.0
3,10,42,0.0
5,17,66,0.0
5,21,75,0.0
4,16,55,0.0
6,27,89,0.0
5,27,86,0.0
6,31,97,0.0
7,37,110,0.0
6,37,104,0.0
6,41,114,0.0
7,41,111,0.0
6,43,110,0.0
6,41,103,0.0
6,47,114,0.0
7,53,125,0.0
7,56,128,0.0
6,58,129,0.0
7,63,137,0.0
7,67,140,0.0
6,65,133,0.0
5,67,131,0.0
6,67,130,0.0
6,74,139,0.0
6,83,153,0.0
6,79,143,0.0
6,88,152,0.0
6,85,145,0.0
5,86,142,0.0
5,91,149,0.0
5,93,147,0.0
4,89,137,0.0
4,95,143,0.0
4,102,150,0.0
4,96,138,0.0
3,101,142,0.0
3,103,141,0.0
3,107,143,0.0
2,107,140,0.0
2,105,135,0.0
1,105,133,0.0
2,106,130,0.0
1,111,133,0.0
1,106,124,0.0
1,103,119,0.0
0,111,125,0.0
0,108,119,0.0
0,117,126,0.0
0,113,119,0.0
0,114,117,0.0
0,127,129,0.0
-1,126,125,0.0
-1,126,122,0.0
-26,-346,111,0.0
-25,-339,112,0.0
-24,-331,113,0.0
-23,-319,114,0.0
-23,-319,118,0.0
-22,-316,120,0.0
-21,-300,118,0.0
-21,-304,123,0.0
-19,-290,121,0.0
-18,-281,121,0.0
-18,-283,125,0.0
-17,-281,128,0.0
-17,-281,132,0.0
-17,-274,132,0.0
-16,-276,136,0.0
-16,-278,142,0.0
-15,-282,147,0.0
-16,-295,157,0.0
-16,-299,165,0.0
-15,-297,167,0.0
-13,-268,155,0.0
-12,-246,146,0.0
-12,-256,155,0.0
-11,-228,142,0.0
-10,-236,150,0.0
-8,-204,133,0.0
-8,-200,134,0.0
-8,-193,132,0.0
-8,-187,131,0.0
-6,-163,117,0.0
0,0,0,0.0
-4,-123,92,0.0
-3,-101,78,0.0
-831,-22837,17891,0.0
-788,-22409,17948,0.0
-746,-22003,18015,0.0
-708,-21655,18121,0.0
-667,-21226,18155,0.0
-631,-20872,18244,0.0
-595,-20536,18345,0.0
-560,-20191,18431,0.0
-525,-19810,18479,0.0
-491,-19456,18544,0.0
-460,-19146,18646,0.0
-428,-18783,18692,0.0
-398,-18450,18759,0.0
-368,-18109,18814,0.0
-340,-17809,18907,0.0
-313,-17489,18971,0.0
-286,-17171,19034,0.0
-259,-16825,19062,0.0
-234,-16526,19135,0.0
-210,-16239,19216,0.0
-191,-16297,19713,0.0
-172,-16433,20320,0.0
-149,-16265,20561,0.0
-130,-16406,21206,0.0
-111,-16447,21739,0.0
-90,-16584,22418,0.0
-87,-20663,28572,1.0
0,0,0,0.0
0,0,0,0.0
0,0,0,0.0
0,0,0,0.0
0,0,0,0.0
0,0,0,0.0
0,0,0,0.0
111,-18686,31184,1.0
135,-18577,31775,1.0
158,-18312,32112,1.0
0,0,0,0.0
0,0,0,0.0
0,0,0,0.0
0,0,0,0.0
0,0,0,0.0
0,0,0,0.0
0,0,0,0.0
297,-15179,32927,1.0
314,-14915,33293,1.0
0,0,0,0.0
0,0,0,0.0
0,0,0,0.0
0,0,0,0.0
385,-13433,34923,1.0
0,0,0,0.0
0,0,0,0.0
0,0,0,0.0
0,0,0,0.0
0,0,0,0.0
0,0,0,0.0
0,0,0,0.0
446,-10387,36007,1.0
0,0,0,0.0
0,0,0,0.0
0,0,0,0.0
0,0,0,0.0
443,-8170,35386,1.0
0,0,0,0.0
434,-7286,34986,1.0
0,0,0,0.0
0,0,0,0.0
438,-6290,36011,1.0
0,0,0,0.0
430,-5517,36179,1.0
0,0,0,0.0
0,0,0,0.0
0,0,0,0.0
0,0,0,0.0
0,0,0,0.0
376,-3084,35538,1.0
0,0,0,0.0
243,-1587,24373,0.0
226,-1273,23458,0.0
210,-977,22491,0.0
201,-732,22438,0.0
193,-491,22514,0.0
185,-249,22587,0.0
175,-6,22675,0.0
166,238,22712,0.0
155,486,22814,0.0
145,733,22833,0.0
134,982,22893,0.0
122,1233,22961,0.0
110,1484,22997,0.0
97,1737,23054,0.0
84,1995,23133,0.0
70,2246,23135,0.0
56,2509,23226,0.0
41,2771,23292,0.0
25,3030,23325,0.0
9,3293,23379,0.0
-7,3561,23450,0.0
-24,3832,23515,0.0
-42,4108,23601,0.0
-61,4381,23660,0.0
-80,4650,23688,0.0
-99,4926,23731,0.0
-120,5214,23829,0.0
-142,5495,23876,0.0
-163,5774,23905,0.0
0,15,61,0.0
-210,6371,24088,0.0
0,14,54,0.0
0,19,69,0.0
0,21,71,0.0
-1,23,75,0.0
0,27,86,0.0
-1,25,75,0.0
0,27,78,0.0
-1,42,118,0.0
-1,33,89,0.0
-1,40,105,0.0
-1,43,109,0.0
-2,41,99,0.0
-3,53,126,0.0
-2,53,123,0.0
-2,53,119,0.0
-3,53,117,0.0
-3,60,129,0.0
-4,69,143,0.0
-4,75,151,0.0
-4,76,148,0.0
-3,70,134,0.0
-5,80,147,0.0
-4,82,149,0.0
-5,84,147,0.0
-6,91,156,0.0
-6,89,149,0.0
-6,93,152,0.0
-7,103,163,0.0
-6,91,144,0.0
-7,98,150,0.0
-8,103,153,0.0
-8,106,155,0.0
-8,106,151,0.0
-8,110,153,0.0
-9,111,151,0.0
-9,113,149,0.0
-9,119,155,0.0
-9,118,149,0.0
-10,116,144,0.0
-10,122,148,0.0
-10,114,135,0.0
-9,114,133,0.0
-10,112,127,0.0
-11,116,129,0.0
-11,117,128,0.0
-11,124,132,0.0
-12,124,130,0.0
-11,121,124,0.0
-12,124,125,0.0
-13,130,128,0.0
-41,-354,114,0.0
-40,-345,116,0.0
-37,-327,113,0.0
-37,-328,118,0.0
-37,-334,124,0.0
-36,-323,124,0.0
-35,-322,127,0.0
-33,-304,124,0.0
-32,-298,125,0.0
-31,-295,127,0.0
-30,-288,128,0.0
-30,-291,133,0.0
-30,-286,134,0.0
-28,-275,133,0.0
-28,-284,141,0.0
-30,-293,150,0.0
-32,-315,165,0.0
-29,-296,160,0.0
-28,-289,160,0.0
-27,-279,158,0.0
-25,-259,151,0.0
-22,-237,141,0.0
-21,-227,139,0.0
-20,-215,135,0.0
-19,-213,136,0.0
-18,-193,126,0.0
0,0,0,0.0
-185,-2023,1390,0.0
0,0,0,0.0
0,0,0,0.0
0,0,0,0.0
-2104,-23589,17740,0.0
-2050,-23176,17823,0.0
-1993,-22709,17854,0.0
-1949,-22376,17986,0.0
-1897,-21951,18035,0.0
-1849,-21552,18099,0.0
-1807,-21227,18219,0.0
-1762,-20836,18276,0.0
-1717,-20458,18337,0.0
-1677,-20119,18427,0.0
-1637,-19768,18500,0.0
-1596,-19391,18542,0.0
-1557,-19036,18599,0.0
-1523,-18738,18706,0.0
-1489,-18420,18789,0.0
-1454,-18096,18859,0.0
-1418,-17748,18901,0.0
-1385,-17427,18964,0.0
-1355,-17134,19052,0.0
-1306,-16589,18849,0.0
-1293,-16480,19137,0.0
-1265,-16196,19221,0.0
-1267,-16281,19750,0.0
-1270,-16371,20300,0.0
-1258,-16261,20614,0.0
-1263,-16362,21207,0.0
-1268,-16470,21829,0.0
-1274,-16582,22476,0.0
0,0,0,0.0
0,0,0,0.0
0,0,0,0.0
-1540,-20054,29782,1.0
0,0,0,0.0
0,0,0,0.0
0,0,0,0.0
0,0,0,0.0
0,0,0,0.0
0,0,0,0.0
0,0,0,0.0
-1409,-17887,32239,1.0
0,0,0,0.0
0,0,0,0.0
0,0,0,0.0
0,0,0,0.0
0,0,0,0.0
0,0,0,0.0
0,0,0,0.0
-1246,-14637,32732,1.0
-1239,-14356,33054,1.0
0,0,0,0.0
0,0,0,0.0
0,0,0,0.0
-1228,-13262,34527,1.0
-1221,-12916,34740,1.0
0,0,0,0.0
0,0,0,0.0
-1195,-11775,35098,1.0
0,0,0,0.0
0,0,0,0.0
-1175,-10606,35359,1.0
0,0,0,0.0
0,0,0,0.0
-1139,-9251,34893,1.0
-1141,-8902,35097,1.0
0,0,0,0.0
0,0,0,0.0
0,0,0,0.0
0,0,0,0.0
0,0,0,0.0
0,0,0,0.0
0,0,0,0.0
0,0,0,0.0
0,0,0,0.0
0,0,0,0.0
0,0,0,0.0
0,0,0,0.0
0,0,0,0.0
0,0,0,0.0
0,0,0,0.0
0,0,0,0.0
-817,-1598,24338,0.0
-795,-1290,23504,0.0
-766,-990,22464,0.0
-771,-745,22382,0.0
-785,-509,22569,0.0
-794,-266,22606,0.0
-805,-24,22666,0.0
-816,220,22700,0.0
-828,466,22759,0.0
-840,712,22805,0.0
-854,960,22865,0.0
-868,1211,22947,0.0
-881,1460,22974,0.0
-895,1711,23005,0.0
-912,1968,23101,0.0
-929,2228,23204,0.0
-946,2486,23260,0.0
-964,2747,23322,0.0
-982,3007,23363,0.0
-998,3265,23379,0.0
-1018,3532,23445,0.0
-1040,3803,23525,0.0
-1061,4071,23571,0.0
-1081,4339,23606,0.0
-1106,4626,23727,0.0
-1127,4896,23751,0.0
-1150,5170,23781,0.0
-1176,5459,23869,0.0
-1203,5752,23961,0.0
-1228,6031,23988,0.0
-1257,6335,24093,0.0
-1682,8677,31616,0.0
-1697,8942,31260,0.0
-1726,9288,31194,0.0
-119,661,2136,0.0
-3,19,62,0.0
-3,24,73,0.0
-3,22,67,0.0
-4,28,82,0.0
-4,27,74,0.0
-4,32,87,0.0
-6,38,98,0.0
-7,42,104,0.0
-6,42,102,0.0
-7,45,104,0.0
-8,53,120,0.0
-7,53,115,0.0
-9,64,135,0.0
-9,62,128,0.0
-8,62,125,0.0
-10,74,144,0.0
-10,69,133,0.0
-11,75,139,0.0
-11,80,146,0.0
-12,79,140,0.0
-12,82,141,0.0
-12,80,133,0.0
-14,94,155,0.0
-13,96,153,0.0
-15,100,156,0.0
-14,101,155,0.0
-14,100,150,0.0
-14,103,151,0.0
-15,109,157,0.0
-15,105,146,0.0
-16,107,147,0.0
-17,115,153,0.0
-17,116,152,0.0
-17,119,151,0.0
-18,118,146,0.0
-18,123,150,0.0
-17,115,136,0.0
-17,113,132,0.0
-16,115,130,0.0
-17,115,129,0.0
-17,121,132,0.0
-17,117,126,0.0
-19,126,132,0.0
-18,126,129,0.0
-19,128,128,0.0
-20,137,134,0.0
51,-261,71,0.0
52,-257,72,0.0
53,-259,76,0.0
54,-261,79,0.0
56,-266,84,0.0
57,-269,88,0.0
59,-270,92,0.0
58,-259,91,0.0
59,-260,95,0.0
60,-264,99,0.0
60,-260,101,0.0
63,-265,107,0.0
62,-261,109,0.0
65,-265,114,0.0
65,-262,115,0.0
67,-265,121,0.0
66,-254,119,0.0
67,-258,124,0.0
70,-263,130,0.0
69,-257,130,0.0
70,-255,134,0.0
69,-249,134,0.0
81,-286,158,0.0
74,-256,145,0.0
77,-263,152,0.0
67,-228,135,0.0
67,-220,134,0.0
62,-203,126,0.0
62,-199,127,0.0
61,-192,127,0.0
57,-175,118,0.0
0,0,0,0.0
0,0,0,0.0
0,0,0,0.0
0,0,0,0.0
8230,-23330,17637,0.0
8197,-22861,17687,0.0
8203,-22510,17821,0.0
8181,-22085,17889,0.0
8168,-21693,17978,0.0
8154,-21301,18060,0.0
8140,-20916,18140,0.0
8143,-20579,18257,0.0
8098,-20126,18264,0.0
8084,-19756,18337,0.0
8085,-19426,18442,0.0
8072,-19068,18516,0.0
8064,-18726,18599,0.0
8052,-18377,18670,0.0
8034,-18020,18725,0.0
8026,-17688,18800,0.0
8009,-17340,18855,0.0
7989,-16990,18899,0.0
7984,-16676,18979,0.0
7980,-16367,19058,0.0
8079,-16270,19387,0.0
8267,-16340,19926,0.0
8357,-16212,20234,0.0
8589,-16348,20887,0.0
8818,-16464,21535,0.0
9064,-16598,22232,0.0
0,0,0,0.0
10103,-17781,24985,1.0
0,0,0,0.0
10286,-17379,25641,1.0
10393,-17199,26010,1.0
0,0,0,0.0
0,0,0,0.0
0,0,0,0.0
10712,-16255,27214,1.0
0,0,0,0.0
10825,-15693,27697,1.0
0,0,0,0.0
10894,-15064,28070,1.0
0,0,0,0.0
10947,-14409,28398,1.0
10910,-14000,28396,1.0
10983,-13732,28680,1.0
0,0,0,0.0
0,0,0,0.0
11294,-13012,29777,1.0
0,0,0,0.0
11456,-12455,30391,1.0
0,0,0,0.0
0,0,0,0.0
0,0,0,0.0
0,0,0,0.0
0,0,0,0.0
0,0,0,0.0
0,0,0,0.0
11594,-9619,31476,1.0
0,0,0,0.0
0,0,0,0.0
0,0,0,0.0
0,0,0,0.0
11605,-7775,31937,1.0
0,0,0,0.0
0,0,0,0.0
0,0,0,0.0
0,0,0,0.0
0,0,0,0.0
11222,-5367,31360,1.0
11143,-4971,31214,1.0
11038,-4571,30998,1.0
0,0,0,0.0
0,0,0,0.0
0,0,0,0.0
10469,-2984,29682,1.0
0,0,0,0.0
0,0,0,0.0
8454,-1585,24139,0.0
8050,-1246,23038,0.0
7601,-928,21801,0.0
7783,-694,22374,0.0
7786,-437,22433,0.0
7798,-179,22518,0.0
7789,79,22541,0.0
7798,340,22617,0.0
7814,603,22712,0.0
7812,865,22756,0.0
7806,1129,22787,0.0
7800,1394,22817,0.0
7808,1662,22892,0.0
7818,1932,22966,0.0
7827,2205,23042,0.0
7831,2478,23101,0.0
7842,2756,23183,0.0
7844,3032,23238,0.0
7844,3310,23282,0.0
7849,3592,23348,0.0
7848,3872,23388,0.0
7836,4150,23404,0.0
7859,4447,23515,0.0
7870,4742,23598,0.0
7880,5038,23672,0.0
7874,5328,23704,0.0
7882,5629,23777,0.0
7892,5934,23851,0.0
5,4,17,0.0
10,8,31,0.0
13,11,40,0.0
13,12,42,0.0
18,17,58,0.0
21,21,65,0.0
23,24,75,0.0
28,30,87,0.0
26,29,83,0.0
26,30,84,0.0
27,33,86,0.0
26,32,82,0.0
30,40,99,0.0
31,41,99,0.0
32,45,103,0.0
29,43,95,0.0
32,48,104,0.0
32,49,104,0.0
32,50,103,0.0
33,54,107,0.0
35,58,111,0.0
40,68,128,0.0
38,67,122,0.0
39,69,124,0.0
38,70,121,0.0
36,70,119,0.0
38,75,123,0.0
37,73,119,0.0
36,75,117,0.0
36,77,118,0.0
34,74,111,0.0
33,75,109,0.0
33,75,107,0.0
32,76,106,0.0
34,82,112,0.0
33,83,109,0.0
32,82,106,0.0
31,81,103,0.0
30,81,102,0.0
32,87,105,0.0
31,88,104,0.0
32,92,106,0.0
28,82,94,0.0
28,86,96,0.0
28,87,95,0.0
28,90,95,0.0
30,97,101,0.0
29,98,99,0.0
29,101,101,0.0
29,101,98,0.0
29,103,99,0.0
30,111,104,0.0
31,115,104,0.0
31,118,105,0.0
23,-285,86,0.0
22,-270,84,0.0
23,-277,90,0.0
24,-276,93,0.0
25,-276,96,0.0
24,-269,96,0.0
27,-280,104,0.0
28,-278,106,0.0
28,-272,108,0.0
28,-277,113,0.0
29,-272,115,0.0
30,-278,120,0.0
30,-273,121,0.0
31,-271,124,0.0
32,-274,129,0.0
33,-270,131,0.0
33,-268,134,0.0
35,-271,139,0.0
35,-267,141,0.0
38,-287,155,0.0
38,-285,158,0.0
38,-274,156,0.0
37,-264,154,0.0
33,-229,137,0.0
35,-233,143,0.0
33,-217,136,0.0
30,-195,126,0.0
33,-209,138,0.0
31,-192,130,0.0
29,-177,123,0.0
28,-167,118,0.0
27,-153,111,0.0
23,-133,99,0.0
16,-93,70,0.0
18,-101,79,0.0
16,-85,67,0.0
13,-67,54,0.0
4218,-21775,18038,0.0
4226,-21387,18115,0.0
4233,-20996,18182,0.0
4242,-20628,18262,0.0
4249,-20258,18334,0.0
4260,-19912,18422,0.0
4259,-19510,18450,0.0
4276,-19208,18569,0.0
4279,-18841,18618,0.0
4288,-18514,18701,0.0
4295,-18177,18768,0.0
4304,-17856,18847,0.0
4308,-17518,18903,0.0
4314,-17197,18970,0.0
4318,-16872,19029,0.0
4270,-16351,18855,0.0
4329,-16247,19158,0.0
4425,-16274,19623,0.0
4562,-16437,20270,0.0
4606,-16258,20508,0.0
4735,-16376,21131,0.0
4864,-16475,21749,0.0
4997,-16573,22388,0.0
0,0,0,0.0
0,0,0,0.0
0,0,0,0.0
0,0,0,0.0
6176,-18405,27968,1.0
6195,-18056,28110,1.0
0,0,0,0.0
0,0,0,0.0
6219,-16935,28395,1.0
0,0,0,0.0
6349,-16503,29117,1.0
6375,-16179,29295,1.0
6440,-15952,29656,1.0
6475,-15648,29882,1.0
0,0,0,0.0
0,0,0,0.0
6595,-14767,30634,1.0
0,0,0,0.0
6575,-13957,30678,1.0
0,0,0,0.0
0,0,0,0.0
0,0,0,0.0
0,0,0,0.0
0,0,0,0.0
7069,-12595,33425,1.0
0,0,0,0.0
0,0,0,0.0
0,0,0,0.0
6911,-10780,32980,1.0
6919,-10415,33100,1.0
0,0,0,0.0
0,0,0,0.0
0,0,0,0.0
0,0,0,0.0
0,0,0,0.0
0,0,0,0.0
6877,-7729,33459,1.0
6852,-7330,33418,1.0
0,0,0,0.0
6805,-6544,33363,1.0
0,0,0,0.0
0,0,0,0.0
0,0,0,0.0
6458,-4809,31987,1.0
6423,-4434,31898,1.0
0,0,0,0.0
6421,-3732,32064,1.0
6397,-3368,32033,1.0
6377,-3008,32021,1.0
0,0,0,0.0
5002,-1807,25255,0.0
4629,-1416,23438,0.0
4486,-1122,22781,0.0
4264,-828,21720,0.0
4403,-609,22490,0.0
4393,-359,22505,0.0
4380,-109,22508,0.0
4390,140,22629,0.0
4389,392,22694,0.0
4383,645,22735,0.0
4378,899,22776,0.0
4385,1157,22892,0.0
4374,1413,22905,0.0
4373,1673,22974,0.0
4368,1933,23030,0.0
4368,2197,23107,0.0
4364,2462,23166,0.0
4355,2725,23197,0.0
4355,2996,23279,0.0
4345,3263,23313,0.0
4340,3534,23365,0.0
4339,3813,23453,0.0
4333,4088,23501,0.0
4329,4368,23570,0.0
4322,4649,23627,0.0
4316,4933,23688,0.0
4310,5219,23747,0.0
4298,5501,23778,0.0
4285,5785,23805,0.0
8,11,45,0.0
8,12,46,0.0
8,12,46,0.0
10,15,53,0.0
11,18,62,0.0
14,25,82,0.0
15,27,83,0.0
18,35,106,0.0
17,35,99,0.0
17,35,98,0.0
15,33,90,0.0
17,41,104,0.0
17,39,98,0.0
20,49,118,0.0
19,47,111,0.0
20,52,119,0.0
21,57,127,0.0
22,62,134,0.0
22,62,129,0.0
21,64,132,0.0
20,65,129,0.0
22,71,137,0.0
20,69,130,0.0
21,73,134,0.0
22,80,143,0.0
22,79,137,0.0
22,84,142,0.0
21,81,135,0.0
20,81,131,0.0
21,86,136,0.0
21,91,139,0.0
20,88,131,0.0
20,92,135,0.0
19,92,131,0.0
18,90,127,0.0
18,94,128,0.0
18,90,119,0.0
18,96,125,0.0
17,98,125,0.0
17,101,125,0.0
16,99,121,0.0
16,98,117,0.0
15,96,113,0.0
15,98,111,0.0
15,99,111,0.0
14,100,109,0.0
15,106,114,0.0
14,103,108,0.0
14,106,109,0.0
14,111,111,0.0
14,113,111,0.0
13,114,109,0.0
13,120,114,0.0
-13,-321,102,0.0
-12,-311,103,0.0
-11,-311,106,0.0
-11,-301,106,0.0
-9,-295,108,0.0
-8,-283,107,0.0
-8,-279,108,0.0
-8,-277,111,0.0
-7,-269,112,0.0
-6,-255,109,0.0
-5,-263,115,0.0
-5,-257,116,0.0
-5,-256,119,0.0
-4,-253,121,0.0
-4,-255,125,0.0
-4,-258,130,0.0
-3,-249,129,0.0
-3,-262,140,0.0
-2,-291,159,0.0
-2,-292,164,0.0
-1,-271,155,0.0
-1,-277,163,0.0
0,-268,161,0.0
0,-239,148,0.0
0,-241,153,0.0
0,-229,148,0.0
0,-200,133,0.0
1,-201,137,0.0
1,-204,142,0.0
2,-184,131,0.0
1,-173,125,0.0
1,-128,96,0.0
1,-108,82,0.0
1,-87,68,0.0
1,-88,70,0.0
1,-77,63,0.0
1,-57,48,0.0
1,-56,48,0.0
1,-37,32,0.0
527,-20562,18281,0.0
557,-20236,18385,0.0
585,-19874,18452,0.0
612,-19516,18516,0.0
639,-19171,18585,0.0
665,-18835,18660,0.0
691,-18534,18762,0.0
714,-18187,18813,0.0
736,-17811,18826,0.0
761,-17547,18954,0.0
782,-17213,19001,0.0
802,-16862,19023,0.0
824,-16584,19122,0.0
844,-16270,19175,0.0
879,-16254,19582,0.0
925,-16426,20230,0.0
950,-16231,20437,0.0
996,-16374,21082,0.0
1042,-16489,21711,0.0
1088,-16599,22353,0.0
0,0,0,0.0
0,0,0,0.0
1476,-20230,29179,1.0
0,0,0,0.0
1548,-19814,29943,1.0
0,0,0,0.0
0,0,0,0.0
0,0,0,0.0
0,0,0,0.0
0,0,0,0.0
0,0,0,0.0
0,0,0,0.0
0,0,0,0.0
0,0,0,0.0
0,0,0,0.0
1858,-16639,33128,1.0
1887,-16375,33504,1.0
0,0,0,0.0
1914,-15587,33725,1.0
1918,-15119,33666,1.0
1924,-14683,33666,1.0
0,0,0,0.0
0,0,0,0.0
0,0,0,0.0
0,0,0,0.0
0,0,0,0.0
0,0,0,0.0
0,0,0,0.0
0,0,0,0.0
0,0,0,0.0
0,0,0,0.0
0,0,0,0.0
0,0,0,0.0
0,0,0,0.0
0,0,0,0.0
2037,-8979,35375,1.0
2031,-8562,35333,1.0
0,0,0,0.0
2021,-7754,35329,1.0
0,0,0,0.0
0,0,0,0.0
2000,-6545,35263,1.0
0,0,0,0.0
0,0,0,0.0
0,0,0,0.0
0,0,0,0.0
0,0,0,0.0
0,0,0,0.0
1950,-3833,35485,1.0
1947,-3459,35641,1.0
0,0,0,0.0
0,0,0,0.0
1294,-1553,24143,0.0
1245,-1249,23384,0.0
1186,-956,22450,0.0
1179,-714,22502,0.0
1171,-470,22528,0.0
1165,-227,22618,0.0
1159,17,22692,0.0
1148,263,22685,0.0
1142,512,22785,0.0
1131,760,22816,0.0
1124,1010,22894,0.0
1114,1263,22962,0.0
1102,1514,22982,0.0
1090,1767,23025,0.0
1080,2024,23084,0.0
1071,2286,23189,0.0
1057,2542,23210,0.0
1047,2809,23308,0.0
1030,3064,23303,0.0
1018,3334,23393,0.0
1004,3604,23460,0.0
991,3876,23534,0.0
975,4147,23585,0.0
957,4410,23584,0.0
942,4690,23664,0.0
927,4975,23748,0.0
910,5261,23823,0.0
2,10,46,0.0
2,12,47,0.0
1,9,36,0.0
1,4,17,0.0
1,11,40,0.0
2,16,56,0.0
2,18,60,0.0
2,22,70,0.0
3,26,81,0.0
3,30,89,0.0
2,27,76,0.0
2,31,85,0.0
2,29,79,0.0
2,37,96,0.0
2,36,92,0.0
3,42,104,0.0
2,47,113,0.0
2,49,114,0.0
2,52,118,0.0
2,57,123,0.0
1,60,126,0.0
2,64,132,0.0
2,63,128,0.0
1,63,123,0.0
1,72,137,0.0
1,69,127,0.0
1,71,128,0.0
0,79,139,0.0
0,87,147,0.0
1,79,131,0.0
0,85,138,0.0
0,85,136,0.0
0,86,134,0.0
0,85,130,0.0
0,94,140,0.0
0,91,131,0.0
0,96,136,0.0
-1,91,126,0.0
-2,97,131,0.0
-1,102,134,0.0
-2,100,128,0.0
-2,99,124,0.0
-2,103,127,0.0
-2,97,117,0.0
-2,100,118,0.0
-3,97,112,0.0
-3,101,114,0.0
-3,95,105,0.0
-3,107,116,0.0
-4,106,112,0.0
-4,110,114,0.0
-5,112,114,0.0
-5,112,112,0.0
-6,116,113,0.0
43,-270,76,0.0
43,-268,79,0.0
44,-265,80,0.0
45,-269,85,0.0
46,-271,89,0.0
47,-267,91,0.0
48,-274,96,0.0
51,-277,100,0.0
49,-267,101,0.0
51,-268,104,0.0
51,-266,107,0.0
53,-269,111,0.0
54,-265,114,0.0
54,-261,115,0.0
56,-267,121,0.0
57,-269,125,0.0
57,-265,127,0.0
58,-265,130,0.0
58,-259,132,0.0
60,-263,137,0.0
59,-254,135,0.0
68,-288,158,0.0
67,-281,158,0.0
63,-260,150,0.0
61,-246,146,0.0
61,-243,148,0.0
53,-208,129,0.0
54,-209,133,0.0
50,-192,125,0.0
48,-181,121,0.0
46,-166,113,0.0
44,-162,113,0.0
45,-159,115,0.0
0,0,0,0.0
6949,-23440,17608,0.0
6955,-23068,17731,0.0
6940,-22635,17800,0.0
6942,-22259,17907,0.0
6922,-21822,17958,0.0
6909,-21411,18022,0.0
6911,-21054,18125,0.0
6906,-20682,18211,0.0
6888,-20274,18256,0.0
6894,-19947,18367,0.0
6875,-19545,18405,0.0
6885,-19237,18523,0.0
6875,-18873,18584,0.0
6865,-18519,18647,0.0
6856,-18167,18707,0.0
6850,-17829,18775,0.0
6835,-17474,18819,0.0
6831,-17147,18886,0.0
6823,-16818,18948,0.0
6825,-16517,19033,0.0
6836,-16237,19141,0.0
6975,-16261,19612,0.0
7177,-16418,20261,0.0
7245,-16257,20530,0.0
7463,-16429,21234,0.0
7664,-16545,21888,0.0
8845,-18720,25356,1.0
8856,-18371,25480,1.0
8920,-18135,25760,1.0
0,0,0,0.0
0,0,0,0.0
9152,-17483,26712,1.0
0,0,0,0.0
9246,-16918,27169,1.0
0,0,0,0.0
0,0,0,0.0
0,0,0,0.0
0,0,0,0.0
9551,-15598,28531,1.0
0,0,0,0.0
9609,-14952,28888,1.0
9677,-14685,29180,1.0
0,0,0,0.0
0,0,0,0.0
0,0,0,0.0
9955,-13597,30381,1.0
0,0,0,0.0
0,0,0,0.0
0,0,0,0.0
10227,-12440,31573,1.0
0,0,0,0.0
0,0,0,0.0
10348,-11439,32218,1.0
10427,-11142,32554,1.0
0,0,0,0.0
0,0,0,0.0
0,0,0,0.0
0,0,0,0.0
10475,-9271,33141,1.0
0,0,0,0.0
0,0,0,0.0
10310,-7996,32876,1.0
10246,-7572,32758,1.0
0,0,0,0.0
0,0,0,0.0
0,0,0,0.0
9948,-5899,32130,1.0
9832,-5471,31836,1.0
0,0,0,0.0
0,0,0,0.0
0,0,0,0.0
0,0,0,0.0
9316,-3472,30537,1.0
0,0,0,0.0
9056,-2704,29831,1.0
8937,-2337,29510,1.0
7420,-1664,24561,0.0
7059,-1320,23421,0.0
6611,-987,21987,0.0
6729,-752,22433,0.0
6715,-497,22437,0.0
6725,-243,22526,0.0
6728,12,22588,0.0
6727,270,22639,0.0
6719,527,22669,0.0
6724,787,22736,0.0
6734,1050,22825,0.0
6739,1313,22896,0.0
6736,1576,22938,0.0
6740,1843,23007,0.0
6740,2111,23057,0.0
6740,2380,23114,0.0
6741,2651,23172,0.0
6740,2923,23220,0.0
6754,3205,23326,0.0
6755,3483,23385,0.0
6753,3760,23431,0.0
6748,4039,23470,0.0
6756,4327,23552,0.0
6765,4620,23642,0.0
6745,4894,23626,0.0
6751,5189,23705,0.0
6757,5488,23783,0.0
6758,5784,23842,0.0
6768,6093,23934,0.0
6,5,24,0.0
11,11,41,0.0
12,13,46,0.0
18,19,65,0.0
16,18,59,0.0
18,21,65,0.0
18,23,66,0.0
23,30,86,0.0
23,31,86,0.0
23,32,88,0.0
24,34,89,0.0
27,40,100,0.0
25,39,94,0.0
27,44,101,0.0
28,46,105,0.0
27,46,103,0.0
28,51,109,0.0
33,59,123,0.0
34,62,127,0.0
34,65,128,0.0
34,69,131,0.0
31,63,117,0.0
33,70,127,0.0
32,70,123,0.0
34,77,133,0.0
31,71,118,0.0
32,76,125,0.0
33,80,129,0.0
29,74,114,0.0
29,75,114,0.0
32,83,125,0.0
30,80,116,0.0
27,77,110,0.0
27,78,108,0.0
27,81,110,0.0
28,84,111,0.0
26,82,107,0.0
26,83,106,0.0
25,84,104,0.0
26,88,107,0.0
24,83,98,0.0
24,87,100,0.0
26,94,105,0.0
23,88,97,0.0
24,93,101,0.0
22,89,95,0.0
23,93,96,0.0
23,96,97,0.0
23,103,102,0.0
25,106,103,0.0
25,110,104,0.0
25,115,107,0.0
24,111,101,0.0
30,-275,81,0.0
30,-272,82,0.0
30,-274,86,0.0
32,-278,91,0.0
33,-278,94,0.0
33,-273,96,0.0
33,-271,99,0.0
34,-271,102,0.0
36,-274,107,0.0
37,-276,110,0.0
37,-271,113,0.0
39,-278,119,0.0
39,-274,120,0.0
40,-270,123,0.0
40,-267,124,0.0
42,-270,130,0.0
42,-267,132,0.0
43,-274,138,0.0
43,-268,139,0.0
44,-263,140,0.0
51,-300,165,0.0
49,-283,159,0.0
46,-262,151,0.0
42,-235,139,0.0
42,-230,139,0.0
39,-210,130,0.0
40,-209,133,0.0
40,-204,133,0.0
34,-173,115,0.0
36,-178,122,0.0
34,-168,117,0.0
32,-150,108,0.0
30,-141,103,0.0
23,-105,79,0.0
16,-70,53,0.0
5102,-22716,17835,0.0
12,-53,43,0.0
5104,-21889,17976,0.0
5116,-21539,18088,0.0
5113,-21130,18143,0.0
5116,-20752,18219,0.0
5118,-20378,18291,0.0
5128,-20038,18389,0.0
5126,-19659,18443,0.0
5140,-19349,18558,0.0
5136,-18973,18603,0.0
5132,-18604,18650,0.0
5145,-18302,18757,0.0
5131,-17911,18766,0.0
5141,-17606,18860,0.0
5152,-17313,18963,0.0
5144,-16957,18988,0.0
5140,-16621,19033,0.0
5143,-16307,19097,0.0
5239,-16292,19512,0.0
5363,-16353,20032,0.0
5434,-16246,20358,0.0
5576,-16341,20950,0.0
5738,-16479,21617,0.0
5874,-16532,22194,0.0
0,0,0,0.0
0,0,0,0.0
0,0,0,0.0
6929,-17943,26467,1.0
6993,-17727,26784,1.0
6998,-17360,26874,1.0
7075,-17173,27245,1.0
0,0,0,0.0
0,0,0,0.0
0,0,0,0.0
7410,-16426,28833,1.0
0,0,0,0.0
7495,-15845,29315,1.0
0,0,0,0.0
0,0,0,0.0
7603,-14924,29967,1.0
0,0,0,0.0
7653,-14263,30318,1.0
0,0,0,0.0
0,0,0,0.0
0,0,0,0.0
7878,-13142,31522,1.0
0,0,0,0.0
0,0,0,0.0
0,0,0,0.0
8141,-12021,32907,1.0
8111,-11591,32866,1.0
0,0,0,0.0
0,0,0,0.0
0,0,0,0.0
8125,-10077,33251,1.0
0,0,0,0.0
8138,-9330,33472,1.0
0,0,0,0.0
0,0,0,0.0
0,0,0,0.0
0,0,0,0.0
0,0,0,0.0
7893,-6841,32956,1.0
0,0,0,0.0
7760,-6002,32565,1.0
7689,-5588,32346,1.0
0,0,0,0.0
7448,-4717,31496,1.0
7381,-4329,31292,1.0
0,0,0,0.0
7289,-3590,31061,1.0
0,0,0,0.0
0,0,0,0.0
7225,-2534,31028,1.0
5803,-1760,24989,0.0
5430,-1387,23444,0.0
5219,-1084,22596,0.0
5161,-823,22403,0.0
5157,-574,22447,0.0
5153,-324,22493,0.0
5162,-72,22592,0.0
5169,179,22686,0.0
5160,433,22708,0.0
5159,689,22766,0.0
5149,944,22790,0.0
5149,1203,22852,0.0
5144,1461,22892,0.0
5141,1722,22951,0.0
5148,1987,23046,0.0
5141,2249,23083,0.0
5128,2510,23093,0.0
5149,2791,23259,0.0
5136,3055,23268,0.0
5128,3324,23302,0.0
5134,3604,23404,0.0
5141,3889,23511,0.0
5117,4151,23468,0.0
5119,4436,23555,0.0
5114,4719,23610,0.0
5112,5006,23677,0.0
5117,5303,23774,0.0
5116,5600,23855,0.0
9,9,43,0.0
11,12,48,0.0
10,12,46,0.0
12,16,59,0.0
15,20,70,0.0
16,22,73,0.0
18,25,82,0.0
14,22,68,0.0
19,31,91,0.0
17,29,81,0.0
18,31,87,0.0
20,36,95,0.0
20,38,96,0.0
21,41,100,0.0
20,41,99,0.0
23,50,115,0.0
23,49,110,0.0
26,58,128,0.0
26,60,129,0.0
23,57,118,0.0
26,65,130,0.0
28,72,140,0.0
25,67,128,0.0
23,65,121,0.0
25,70,128,0.0
26,75,133,0.0
27,80,138,0.0
26,80,133,0.0
25,81,131,0.0
24,79,126,0.0
23,80,123,0.0
22,78,119,0.0
22,80,118,0.0
23,86,126,0.0
22,84,119,0.0
21,84,116,0.0
22,88,119,0.0
21,88,116,0.0
20,88,114,0.0
21,92,117,0.0
20,92,114,0.0
20,95,115,0.0
19,93,109,0.0
19,94,109,0.0
17,90,103,0.0
17,92,103,0.0
18,100,109,0.0
17,97,102,0.0
18,104,109,0.0
17,103,105,0.0
17,106,105,0.0
18,114,111,0.0
16,110,104,0.0
18,120,112,0.0
15,-276,85,0.0
15,-271,86,0.0
15,-268,88,0.0
16,-274,93,0.0
16,-272,96,0.0
18,-276,101,0.0
18,-274,103,0.0
19,-276,108,0.0
19,-267,107,0.0
20,-271,112,0.0
20,-271,116,0.0
22,-274,120,0.0
22,-277,126,0.0
23,-272,127,0.0
23,-272,130,0.0
24,-268,132,0.0
24,-263,133,0.0
25,-269,139,0.0
27,-279,148,0.0
30,-295,161,0.0
29,-280,157,0.0
29,-271,155,0.0
26,-244,144,0.0
26,-240,145,0.0
24,-211,131,0.0
25,-215,136,0.0
25,-209,136,0.0
26,-212,141,0.0
24,-195,132,0.0
22,-173,120,0.0
23,-173,123,0.0
19,-142,104,0.0
14,-105,78,0.0
13,-93,70,0.0
15,-106,82,0.0
14,-97,77,0.0
9,-59,48,0.0
9,-55,45,0.0
3349,-21242,18129,0.0
7,-48,42,0.0
3382,-20529,18310,0.0
3391,-20143,18364,0.0
3405,-19798,18449,0.0
3419,-19455,18531,0.0
3432,-19117,18610,0.0
3437,-18740,18647,0.0
3452,-18426,18739,0.0
3452,-18035,18747,0.0
3469,-17740,18849,0.0
3482,-17433,18934,0.0
3485,-17083,18966,0.0
3491,-16746,19006,0.0
3505,-16459,19097,0.0
3521,-16185,19201,0.0
3606,-16225,19682,0.0
3715,-16359,20293,0.0
3773,-16260,20630,0.0
3891,-16408,21295,0.0
4002,-16517,21929,0.0
0,0,0,0.0
0,0,0,0.0
5062,-19559,27828,1.0
0,0,0,0.0
5145,-19010,28352,1.0
0,0,0,0.0
5191,-18328,28678,1.0
0,0,0,0.0
0,0,0,0.0
5258,-17313,29167,1.0
0,0,0,0.0
0,0,0,0.0
5371,-16452,29924,1.0
5369,-16045,29959,1.0
5438,-15850,30395,1.0
0,0,0,0.0
5504,-15240,30864,1.0
0,0,0,0.0
0,0,0,0.0
0,0,0,0.0
5510,-13693,31114,1.0
0,0,0,0.0
0,0,0,0.0
0,0,0,0.0
0,0,0,0.0
5944,-12731,33882,1.0
0,0,0,0.0
0,0,0,0.0
0,0,0,0.0
0,0,0,0.0
0,0,0,0.0
5849,-10196,33769,1.0
0,0,0,0.0
0,0,0,0.0
0,0,0,0.0
0,0,0,0.0
0,0,0,0.0
0,0,0,0.0
0,0,0,0.0
0,0,0,0.0
0,0,0,0.0
0,0,0,0.0
0,0,0,0.0
0,0,0,0.0
0,0,0,0.0
0,0,0,0.0
5498,-4231,32967,1.0
0,0,0,0.0
0,0,0,0.0
0,0,0,0.0
5435,-2760,32978,1.0
4169,-1842,25373,0.0
3858,-1448,23552,0.0
3727,-1152,22832,0.0
3526,-853,21662,0.0
3631,-635,22388,0.0
3635,-390,22489,0.0
3639,-143,22590,0.0
3636,105,22650,0.0
3629,355,22682,0.0
3627,608,22757,0.0
3627,862,22837,0.0
3619,1115,22876,0.0
3604,1367,22872,0.0
3608,1628,22981,0.0
3604,1888,23047,0.0
3596,2147,23091,0.0
3591,2410,23153,0.0
3586,2675,23218,0.0
3584,2944,23302,0.0
3573,3209,23333,0.0
3571,3484,23420,0.0
3557,3750,23438,0.0
3556,4032,23542,0.0
3533,4291,23497,0.0
3541,4590,23664,0.0
3526,4864,23683,0.0
5,5,28,0.0
6,8,37,0.0
8,14,56,0.0
6,10,40,0.0
6,10,37,0.0
5,10,40,0.0
8,15,54,0.0
8,16,57,0.0
10,21,71,0.0
12,29,89,0.0
13,32,95,0.0
15,37,105,0.0
14,34,97,0.0
13,36,98,0.0
14,42,109,0.0
16,47,120,0.0
16,47,115,0.0
16,50,119,0.0
16,52,119,0.0
17,58,131,0.0
17,57,124,0.0
17,62,132,0.0
17,65,133,0.0
17,65,130,0.0
16,64,124,0.0
16,67,127,0.0
17,71,133,0.0
16,75,136,0.0
17,80,141,0.0
17,81,139,0.0
16,80,135,0.0
16,80,131,0.0
15,84,134,0.0
15,86,134,0.0
14,83,124,0.0
15,90,133,0.0
15,92,132,0.0
14,93,132,0.0
14,91,125,0.0
13,90,122,0.0
12,92,120,0.0
13,96,124,0.0
12,95,119,0.0
12,92,113,0.0
12,99,119,0.0
11,98,116,0.0
10,92,106,0.0
10,97,109,0.0
10,104,115,0.0
10,100,109,0.0
9,101,107,0.0
9,108,112,0.0
9,107,109,0.0
9,114,113,0.0
9,112,108,0.0
9,118,112,0.0
4,-276,86,0.0
4,-269,87,0.0
4,-272,91,0.0
5,-270,93,0.0
5,-268,96,0.0
7,-272,101,0.0
7,-268,102,0.0
8,-272,108,0.0
9,-265,108,0.0
9,-268,112,0.0
10,-261,113,0.0
10,-263,118,0.0
11,-263,121,0.0
11,-256,120,0.0
12,-260,126,0.0
12,-260,129,0.0
13,-263,134,0.0
13,-258,135,0.0
14,-273,147,0.0
15,-284,157,0.0
17,-297,169,0.0
17,-285,166,0.0
16,-255,151,0.0
17,-252,153,0.0
16,-241,150,0.0
16,-228,146,0.0
16,-229,150,0.0
16,-209,140,0.0
17,-215,148,0.0
16,-193,136,0.0
14,-174,125,0.0
15,-171,126,0.0
12,-137,102,0.0
11,-117,90,0.0
10,-105,83,0.0
9,-92,74,0.0
5,-48,40,0.0
8,-78,66,0.0
3,-39,33,0.0
2220,-20731,18245,0.0
6,-53,48,0.0
2260,-20021,18407,0.0
2278,-19651,18465,0.0
2295,-19301,18534,0.0
2314,-18971,18618,0.0
2332,-18640,18694,0.0
2349,-18311,18768,0.0
2366,-17994,18850,0.0
2376,-17627,18871,0.0
2391,-17307,18938,0.0
2409,-17010,19024,0.0
2369,-16330,18670,0.0
2433,-16372,19134,0.0
2472,-16233,19395,0.0
2536,-16257,19860,0.0
2600,-16271,20324,0.0
2673,-16334,20865,0.0
2758,-16453,21496,0.0
2844,-16566,22138,0.0
3598,-20458,27971,1.0
0,0,0,0.0
0,0,0,0.0
3749,-19830,29062,1.0
0,0,0,0.0
0,0,0,0.0
0,0,0,0.0
0,0,0,0.0
0,0,0,0.0
3949,-18024,30532,1.0
3945,-17557,30498,1.0
0,0,0,0.0
0,0,0,0.0
4004,-16499,30962,1.0
0,0,0,0.0
0,0,0,0.0
4025,-15320,31171,1.0
4054,-15014,31412,1.0
0,0,0,0.0
4019,-14079,31193,1.0
0,0,0,0.0
0,0,0,0.0
0,0,0,0.0
4326,-13473,33710,1.0
4353,-13146,33966,1.0
0,0,0,0.0
4421,-12526,34596,1.0
4424,-12125,34671,1.0
0,0,0,0.0
0,0,0,0.0
0,0,0,0.0
0,0,0,0.0
0,0,0,0.0
0,0,0,0.0
0,0,0,0.0
0,0,0,0.0
0,0,0,0.0
0,0,0,0.0
0,0,0,0.0
4249,-7099,34137,1.0
0,0,0,0.0
4206,-6294,33981,1.0
0,0,0,0.0
0,0,0,0.0
4181,-5160,34074,1.0
4178,-4790,34153,1.0
0,0,0,0.0
0,0,0,0.0
0,0,0,0.0
0,0,0,0.0
4116,-2902,34218,1.0
3053,-1880,25470,0.0
2848,-1498,23850,0.0
2755,-1200,23163,0.0
2656,-916,22419,0.0
2652,-672,22478,0.0
2653,-428,22583,0.0
2645,-182,22614,0.0
2636,65,22637,0.0
2633,314,22717,0.0
2631,564,22807,0.0
2622,815,22834,0.0
2620,1069,22928,0.0
2611,1322,22963,0.0
2601,1577,23002,0.0
2594,1834,23061,0.0
2578,2087,23047,0.0
2580,2355,23186,0.0
2569,2616,23234,0.0
2565,2884,23324,0.0
2549,3143,23321,0.0
2545,3418,23426,0.0
2535,3690,23495,0.0
2524,3962,23550,0.0
2511,4233,23582,0.0
2498,4505,23617,0.0
4,6,33,0.0
3,6,30,0.0
2,5,23,0.0
2,6,28,0.0
6,13,58,0.0
5,13,52,0.0
4,11,43,0.0
7,19,72,0.0
6,18,61,0.0
7,21,70,0.0
6,20,64,0.0
7,21,67,0.0
7,28,83,0.0
9,32,92,0.0
7,30,83,0.0
9,36,95,0.0
8,37,97,0.0
9,42,105,0.0
8,40,97,0.0
10,49,115,0.0
10,53,120,0.0
10,55,120,0.0
11,59,127,0.0
11,60,127,0.0
10,61,124,0.0
9,63,122,0.0
10,65,125,0.0
10,66,124,0.0
10,72,130,0.0
10,79,139,0.0
10,76,131,0.0
10,81,137,0.0
9,81,134,0.0
10,81,130,0.0
9,86,134,0.0
8,79,122,0.0
9,89,132,0.0
7,81,118,0.0
8,90,128,0.0
8,94,132,0.0
7,87,118,0.0
7,88,117,0.0
7,90,117,0.0
6,94,119,0.0
6,88,110,0.0
5,92,113,0.0
5,92,110,0.0
5,96,112,0.0
4,92,105,0.0
4,98,109,0.0
4,98,107,0.0
4,97,104,0.0
3,98,102,0.0
3,100,104,0.0
3,114,115,0.0
3,111,109,0.0
3,118,113,0.0
-6,-316,99,0.0
-6,-314,102,0.0
-5,-297,101,0.0
-5,-292,103,0.0
-4,-286,104,0.0
-3,-286,107,0.0
-3,-280,108,0.0
-2,-274,109,0.0
-2,-270,111,0.0
-1,-270,115,0.0
0,-264,115,0.0
0,-266,120,0.0
0,-262,121,0.0
0,-266,127,0.0
0,-257,126,0.0
1,-268,135,0.0
2,-260,134,0.0
2,-260,137,0.0
3,-302,164,0.0
4,-296,165,0.0
4,-288,165,0.0
4,-277,163,0.0
5,-276,166,0.0
4,-246,152,0.0
6,-252,159,0.0
5,-242,156,0.0
6,-236,156,0.0
6,-215,146,0.0
7,-209,144,0.0
6,-191,136,0.0
5,-172,124,0.0
6,-154,114,0.0
5,-123,94,0.0
4,-108,83,0.0
4,-92,73,0.0
4,-88,71,0.0
4,-79,66,0.0
3,-66,57,0.0
3,-61,53,0.0
3,-66,58,0.0
1119,-20320,18407,0.0
1144,-19967,18484,0.0
1166,-19567,18511,0.0
1192,-19249,18608,0.0
1213,-18879,18650,0.0
1236,-18548,18724,0.0
1256,-18208,18784,0.0
1279,-17906,18876,0.0
1299,-17574,18934,0.0
1320,-17268,19013,0.0
1338,-16944,19067,0.0
1359,-16661,19163,0.0
1373,-16312,19177,0.0
1411,-16244,19521,0.0
1462,-16326,20058,0.0
1497,-16209,20362,0.0
1555,-16334,20982,0.0
1613,-16454,21615,0.0
1669,-16531,22212,0.0
0,0,0,0.0
0,0,0,0.0
0,0,0,0.0
0,0,0,0.0
0,0,0,0.0
0,0,0,0.0
0,0,0,0.0
0,0,0,0.0
0,0,0,0.0
0,0,0,0.0
2503,-18087,31558,1.0
0,0,0,0.0
0,0,0,0.0
0,0,0,0.0
0,0,0,0.0
0,0,0,0.0
0,0,0,0.0
0,0,0,0.0
0,0,0,0.0
0,0,0,0.0
0,0,0,0.0
0,0,0,0.0
0,0,0,0.0
0,0,0,0.0
2765,-13164,34111,1.0
0,0,0,0.0
2788,-12421,34395,1.0
0,0,0,0.0
0,0,0,0.0
0,0,0,0.0
0,0,0,0.0
0,0,0,0.0
0,0,0,0.0
0,0,0,0.0
0,0,0,0.0
0,0,0,0.0
0,0,0,0.0
0,0,0,0.0
0,0,0,0.0
0,0,0,0.0
2761,-6859,34855,1.0
0,0,0,0.0
0,0,0,0.0
0,0,0,0.0
2743,-5332,35090,1.0
0,0,0,0.0
0,0,0,0.0
0,0,0,0.0
0,0,0,0.0
0,0,0,0.0
0,0,0,0.0
0,0,0,0.0
1825,-1545,24201,0.0
1748,-1234,23292,0.0
1676,-945,22459,0.0
1667,-700,22473,0.0
1662,-458,22535,0.0
1654,-213,22582,0.0
1649,32,22660,0.0
1645,279,22752,0.0
1635,526,22776,0.0
1626,776,22822,0.0
1617,1026,22865,0.0
1611,1280,22952,0.0
1599,1532,22980,0.0
1587,1785,23004,0.0
1585,2050,23160,0.0
1572,2306,23188,0.0
1557,2561,23186,0.0
1550,2829,23301,0.0
1535,3088,23309,0.0
1521,3351,23353,0.0
1513,3629,23465,0.0
1496,3890,23467,0.0
1486,4172,23583,0.0
1467,4434,23568,0.0
1455,4719,23667,0.0
3,8,41,0.0
1,2,15,0.0
2,9,40,0.0
2,9,42,0.0
3,13,51,0.0
3,15,58,0.0
4,18,66,0.0
4,21,76,0.0
4,20,66,0.0
4,22,72,0.0
4,25,78,0.0
4,31,92,0.0
4,24,72,0.0
4,34,96,0.0
4,33,88,0.0
4,35,91,0.0
4,40,100,0.0
4,44,106,0.0
4,43,101,0.0
5,50,115,0.0
4,53,116,0.0
4,56,120,0.0
5,60,127,0.0
5,62,128,0.0
5,68,134,0.0
4,70,135,0.0
4,67,126,0.0
4,76,139,0.0
3,72,129,0.0
4,85,147,0.0
4,82,140,0.0
3,80,134,0.0
3,92,148,0.0
3,91,144,0.0
2,88,136,0.0
3,92,138,0.0
2,94,137,0.0
1,93,133,0.0
2,96,135,0.0
2,92,127,0.0
1,97,130,0.0
0,100,132,0.0
1,101,129,0.0
0,94,118,0.0
0,103,126,0.0
0,97,118,0.0
0,98,116,0.0
0,99,114,0.0
0,97,109,0.0
0,105,116,0.0
0,101,109,0.0
-1,108,114,0.0
-1,112,116,0.0
-1,112,113,0.0
-2,116,114,0.0
-2,118,113,0.0
-19,-325,104,0.0
-18,-318,105,0.0
-17,-300,103,0.0
-16,-301,106,0.0
-15,-298,109,0.0
-15,-289,109,0.0
-13,-278,108,0.0
-13,-270,109,0.0
-13,-276,115,0.0
-12,-270,115,0.0
-12,-266,118,0.0
-11,-265,120,0.0
-10,-260,122,0.0
-11,-268,129,0.0
-9,-254,125,0.0
-9,-253,128,0.0
-8,-255,132,0.0
-9,-277,149,0.0
-9,-291,160,0.0
-9,-293,165,0.0
-8,-279,161,0.0
-7,-272,160,0.0
-6,-261,158,0.0
-5,-240,148,0.0
-5,-234,149,0.0
-4,-216,141,0.0
-4,-213,142,0.0
-3,-196,134,0.0
-3,-186,130,0.0
-2,-184,131,0.0
-2,-177,129,0.0
-1,-135,101,0.0
0,-130,100,0.0
0,-78,61,0.0
0,-93,74,0.0
0,-56,45,0.0
0,-64,53,0.0
-101,-21326,18199,0.0
-66,-20922,18248,0.0
-33,-20545,18313,0.0
0,-20146,18349,0.0
29,-19828,18455,0.0
60,-19495,18541,0.0
89,-19116,18578,0.0
118,-18813,18683,0.0
145,-18463,18735,0.0
172,-18166,18836,0.0
199,-17865,18928,0.0
224,-17519,18968,0.0
248,-17186,19015,0.0
272,-16879,19085,0.0
289,-16265,18796,0.0
316,-16179,19109,0.0
345,-16287,19664,0.0
378,-16457,20312,0.0
400,-16211,20456,0.0
434,-16370,21121,0.0
466,-16486,21753,0.0
499,-16593,22391,0.0
654,-20516,28319,1.0
0,0,0,0.0
721,-20235,29241,1.0
751,-19983,29554,1.0
778,-19700,29825,1.0
0,0,0,0.0
0,0,0,0.0
868,-19058,30994,1.0
0,0,0,0.0
0,0,0,0.0
0,0,0,0.0
0,0,0,0.0
0,0,0,0.0
0,0,0,0.0
0,0,0,0.0
0,0,0,0.0
0,0,0,0.0
0,0,0,0.0
0,0,0,0.0
1105,-14934,33298,1.0
0,0,0,0.0
0,0,0,0.0
0,0,0,0.0
0,0,0,0.0
1201,-13466,34974,1.0
0,0,0,0.0
0,0,0,0.0
0,0,0,0.0
0,0,0,0.0
0,0,0,0.0
0,0,0,0.0
0,0,0,0.0
1256,-10342,35832,1.0
0,0,0,0.0
0,0,0,0.0
0,0,0,0.0
0,0,0,0.0
0,0,0,0.0
0,0,0,0.0
0,0,0,0.0
1230,-6998,35534,1.0
0,0,0,0.0
0,0,0,0.0
0,0,0,0.0
0,0,0,0.0
1203,-5039,35668,1.0
1202,-4670,35854,1.0
0,0,0,0.0
0,0,0,0.0
1174,-3494,35880,1.0
0,0,0,0.0
0,0,0,0.0
774,-1577,24368,0.0
737,-1264,23473,0.0
698,-967,22472,0.0
689,-724,22476,0.0
682,-482,22563,0.0
675,-239,22597,0.0
668,4,22716,0.0
656,250,22684,0.0
648,497,22768,0.0
638,746,22828,0.0
628,993,22856,0.0
617,1246,22949,0.0
606,1499,23003,0.0
595,1754,23078,0.0
583,2010,23132,0.0
569,2261,23123,0.0
556,2523,23213,0.0
543,2788,23296,0.0
528,3046,23315,0.0
514,3315,23405,0.0
498,3580,23448,0.0
481,3838,23441,0.0
465,4118,23550,0.0
449,4400,23653,0.0
432,4673,23692,0.0
413,4947,23732,0.0
393,5219,23752,0.0
0,8,38,0.0
0,9,41,0.0
0,10,43,0.0
0,9,36,0.0
1,13,47,0.0
1,14,50,0.0
0,20,66,0.0
0,22,71,0.0
0,18,58,0.0
1,22,68,0.0
1,31,90,0.0
0,31,88,0.0
0,31,85,0.0
0,37,96,0.0
0,40,101,0.0
0,41,100,0.0
0,50,120,0.0
0,45,104,0.0
0,54,122,0.0
0,59,128,0.0
0,60,128,0.0
0,61,125,0.0
0,67,133,0.0
0,70,137,0.0
-1,70,132,0.0
-2,76,142,0.0
-1,76,137,0.0
-1,79,140,0.0
-2,81,139,0.0
-2,88,147,0.0
-2,87,142,0.0
-3,85,135,0.0
-3,90,140,0.0
-3,92,139,0.0
-3,88,131,0.0
-3,86,124,0.0
-4,92,129,0.0
-4,97,134,0.0
-5,101,137,0.0
-5,100,132,0.0
-5,105,136,0.0
-5,103,131,0.0
-5,100,124,0.0
-5,99,119,0.0
-5,93,111,0.0
-5,97,113,0.0
-6,99,112,0.0
-6,100,111,0.0
-6,106,115,0.0
-6,104,110,0.0
-7,108,113,0.0
-7,111,113,0.0
-8,114,114,0.0
-9,125,122,0.0
-39,-361,116,0.0
-38,-358,120,0.0
-36,-347,120,0.0
-35,-348,124,0.0
-34,-340,126,0.0
-34,-340,130,0.0
-33,-332,131,0.0
-31,-317,129,0.0
-30,-312,131,0.0
-29,-305,132,0.0
-29,-302,134,0.0
-27,-295,135,0.0
-28,-300,141,0.0
-27,-298,144,0.0
-27,-295,147,0.0
-26,-296,151,0.0
-28,-316,166,0.0
-27,-302,162,0.0
-25,-294,162,0.0
-25,-290,164,0.0
-24,-285,166,0.0
-21,-250,149,0.0
-20,-250,152,0.0
-19,-241,150,0.0
-17,-212,136,0.0
-16,-198,130,0.0
-16,-204,136,0.0
0,0,0,0.0
0,0,0,0.0
0,0,0,0.0
0,0,0,0.0
-1808,-23610,17742,0.0
-1758,-23221,17844,0.0
-1707,-22786,17902,0.0
-1660,-22406,17996,0.0
-1613,-22016,18075,0.0
-1565,-21587,18116,0.0
-1523,-21243,18219,0.0
-1479,-20852,18277,0.0
-1437,-20487,18350,0.0
-1397,-20126,18420,0.0
-1361,-19810,18528,0.0
-1322,-19449,18585,0.0
-1286,-19102,18651,0.0
-1250,-18771,18726,0.0
-1216,-18451,18808,0.0
-1182,-18098,18850,0.0
-1149,-17759,18899,0.0
-1116,-17427,18951,0.0
-1089,-17163,19073,0.0
-1056,-16796,19073,0.0
-1029,-16519,19170,0.0
-1002,-16230,19250,0.0
-999,-16306,19768,0.0
-998,-16429,20360,0.0
-979,-16249,20587,0.0
-980,-16373,21209,0.0
-979,-16492,21845,0.0
-980,-16603,22490,0.0
0,0,0,0.0
0,0,0,0.0
-1175,-20279,29412,1.0
0,0,0,0.0
-1135,-19782,30057,1.0
0,0,0,0.0
0,0,0,0.0
-1075,-18932,30893,1.0
0,0,0,0.0
0,0,0,0.0
0,0,0,0.0
0,0,0,0.0
0,0,0,0.0
-982,-17326,32859,1.0
0,0,0,0.0
0,0,0,0.0
0,0,0,0.0
0,0,0,0.0
-869,-14968,32517,1.0
0,0,0,0.0
0,0,0,0.0
0,0,0,0.0
0,0,0,0.0
0,0,0,0.0
0,0,0,0.0
0,0,0,0.0
0,0,0,0.0
-810,-12306,35405,1.0
0,0,0,0.0
0,0,0,0.0
0,0,0,0.0
0,0,0,0.0
0,0,0,0.0
0,0,0,0.0
0,0,0,0.0
0,0,0,0.0
0,0,0,0.0
0,0,0,0.0
-724,-7567,34466,1.0
0,0,0,0.0
0,0,0,0.0
0,0,0,0.0
-757,-6287,35961,1.0
0,0,0,0.0
0,0,0,0.0
-774,-5156,36380,1.0
0,0,0,0.0
0,0,0,0.0
-786,-3933,36105,1.0
0,0,0,0.0
-792,-3116,35738,1.0
-797,-2715,35558,1.0
-556,-1609,24552,0.0
-539,-1284,23465,0.0
-522,-986,22447,0.0
-527,-741,22338,0.0
-540,-505,22560,0.0
-549,-263,22584,0.0
-560,-20,22659,0.0
-571,224,22724,0.0
-581,469,22732,0.0
-593,716,22797,0.0
-606,964,22855,0.0
-620,1216,22948,0.0
-633,1466,22992,0.0
-647,1720,23059,0.0
-661,1970,23066,0.0
-679,2231,23181,0.0
-694,2488,23221,0.0
-712,2752,23315,0.0
-729,3009,23334,0.0
-747,3273,23393,0.0
-767,3545,23490,0.0
-785,3807,23511,0.0
-806,4081,23590,0.0
-825,4345,23599,0.0
-846,4620,23658,0.0
-870,4901,23738,0.0
-894,5185,23818,0.0
-917,5463,23858,0.0
-943,5763,23979,0.0
-967,6043,24002,0.0
-992,6327,24034,0.0
-1338,8692,31629,0.0
-2,21,76,0.0
-3,29,97,0.0
-99,680,2195,0.0
-3,26,81,0.0
-3,28,86,0.0
-4,33,97,0.0
-4,34,95,0.0
-5,44,121,0.0
-4,38,100,0.0
-6,48,123,0.0
-6,51,126,0.0
-7,56,133,0.0
-5,47,109,0.0
-7,58,130,0.0
-7,62,137,0.0
-8,66,140,0.0
-7,66,137,0.0
-9,74,149,0.0
-9,75,146,0.0
-10,80,154,0.0
-10,79,148,0.0
-10,85,154,0.0
-11,89,157,0.0
-11,95,164,0.0
-12,95,160,0.0
-12,95,156,0.0
-12,98,156,0.0
-13,110,172,0.0
-13,110,168,0.0
-14,114,170,0.0
-14,112,163,0.0
-15,117,167,0.0
-14,116,162,0.0
-15,115,155,0.0
-16,126,168,0.0
-16,122,158,0.0
-17,125,159,0.0
-16,124,155,0.0
-16,121,148,0.0
-16,124,148,0.0
-16,125,145,0.0
-16,125,142,0.0
-17,131,146,0.0
-16,122,134,0.0
-17,130,139,0.0
-17,131,137,0.0
-19,138,142,0.0
-19,142,142,0.0
-19,139,137,0.0
33,-281,82,0.0
33,-281,85,0.0
35,-286,90,0.0
35,-280,91,0.0
36,-280,95,0.0
37,-281,99,0.0
38,-285,103,0.0
39,-282,105,0.0
39,-275,107,0.0
40,-278,111,0.0
41,-277,114,0.0
42,-281,120,0.0
43,-284,125,0.0
44,-283,127,0.0
44,-278,129,0.0
46,-283,135,0.0
46,-280,138,0.0
46,-274,138,0.0
47,-271,141,0.0
48,-275,146,0.0
54,-304,166,0.0
52,-284,159,0.0
49,-265,152,0.0
48,-249,147,0.0
48,-243,147,0.0
43,-217,134,0.0
44,-217,137,0.0
43,-210,136,0.0
42,-198,131,0.0
40,-189,128,0.0
41,-187,130,0.0
36,-163,117,0.0
0,0,0,0.0
27,-117,88,0.0
21,-88,67,0.0
5397,-22732,17789,0.0
5408,-22367,17903,0.0
5413,-21980,17993,0.0
5415,-21589,18074,0.0
5406,-21165,18118,0.0
5427,-20859,18257,0.0
5422,-20462,18313,0.0
5418,-20074,18368,0.0
5427,-19742,18469,0.0
5423,-19367,18524,0.0
5426,-19021,18599,0.0
5423,-18662,18656,0.0
5430,-18342,18746,0.0
5428,-17998,18806,0.0
5418,-17629,18835,0.0
5416,-17292,18890,0.0
5423,-16989,18976,0.0
5412,-16632,18998,0.0
5421,-16346,19094,0.0
5507,-16286,19457,0.0
5615,-16285,19902,0.0
5717,-16260,20328,0.0
5857,-16332,20890,0.0
6028,-16476,21564,0.0
6184,-16567,22190,0.0
7134,-18726,25674,1.0
7225,-18580,26078,1.0
0,0,0,0.0
0,0,0,0.0
7319,-17672,26647,1.0
0,0,0,0.0
7442,-17211,27250,1.0
0,0,0,0.0
0,0,0,0.0
7692,-16632,28401,1.0
0,0,0,0.0
7789,-16078,28916,1.0
7820,-15761,29109,1.0
0,0,0,0.0
0,0,0,0.0
0,0,0,0.0
7928,-14463,29825,1.0
0,0,0,0.0
0,0,0,0.0
0,0,0,0.0
0,0,0,0.0
8243,-13118,31422,1.0
0,0,0,0.0
8519,-12774,32639,1.0
0,0,0,0.0
0,0,0,0.0
0,0,0,0.0
0,0,0,0.0
0,0,0,0.0
0,0,0,0.0
0,0,0,0.0
0,0,0,0.0
0,0,0,0.0
0,0,0,0.0
0,0,0,0.0
0,0,0,0.0
0,0,0,0.0
0,0,0,0.0
8204,-6776,32647,1.0
0,0,0,0.0
8110,-5975,32434,1.0
0,0,0,0.0
0,0,0,0.0
7826,-4717,31540,1.0
7749,-4324,31309,1.0
7657,-3929,31015,1.0
7585,-3551,30802,1.0
7543,-3192,30713,1.0
0,0,0,0.0
7487,-2490,30641,1.0
6097,-1752,25019,0.0
5678,-1372,23358,0.0
5447,-1067,22468,0.0
5424,-813,22427,0.0
5422,-563,22479,0.0
5422,-312,22540,0.0
5419,-59,22585,0.0
5416,192,22637,0.0
5407,447,22659,0.0
5408,703,22725,0.0
5413,961,22808,0.0
5419,1221,22898,0.0
5415,1481,22940,0.0
5396,1737,22926,0.0
5405,2004,23027,0.0
5401,2269,23076,0.0
5400,2536,23136,0.0
5407,2809,23231,0.0
5398,3077,23261,0.0
5392,3347,23303,0.0
5404,3631,23425,0.0
5392,3902,23440,0.0
5401,4190,23551,0.0
5403,4475,23628,0.0
5389,4752,23642,0.0
5384,5036,23691,0.0
9,8,37,0.0
5376,5616,23801,0.0
10,10,41,0.0
12,12,52,0.0
11,12,48,0.0
16,19,69,0.0
12,16,55,0.0
15,20,66,0.0
19,26,84,0.0
19,28,87,0.0
21,33,97,0.0
20,32,92,0.0
24,40,109,0.0
22,38,99,0.0
24,44,111,0.0
24,44,109,0.0
25,49,117,0.0
24,48,113,0.0
27,55,123,0.0
27,57,127,0.0
28,63,134,0.0
27,63,130,0.0
28,68,136,0.0
29,72,141,0.0
26,67,128,0.0
30,79,145,0.0
29,78,140,0.0
28,79,139,0.0
28,81,139,0.0
30,87,145,0.0
28,86,140,0.0
28,87,138,0.0
28,90,140,0.0
27,89,134,0.0
23,81,120,0.0
25,90,130,0.0
24,89,125,0.0
23,88,122,0.0
24,93,125,0.0
23,92,121,0.0
23,95,123,0.0
22,94,119,0.0
22,93,115,0.0
22,97,117,0.0
22,101,119,0.0
21,98,113,0.0
19,91,103,0.0
20,99,109,0.0
20,100,108,0.0
20,105,110,0.0
20,105,109,0.0
19,105,106,0.0
19,113,111,0.0
20,123,119,0.0
18,115,109,0.0
19,122,113,0.0
-10,-327,103,0.0
-9,-319,104,0.0
-8,-312,106,0.0
-8,-307,108,0.0
-7,-297,109,0.0
-6,-292,109,0.0
-5,-291,113,0.0
-5,-279,112,0.0
-5,-277,115,0.0
-4,-265,113,0.0
-3,-265,116,0.0
-2,-273,123,0.0
-2,-263,122,0.0
-1,-264,126,0.0
-1,-266,131,0.0
0,-264,133,0.0
0,-266,138,0.0
0,-275,147,0.0
0,-299,164,0.0
1,-295,165,0.0
1,-277,158,0.0
1,-274,161,0.0
1,-275,165,0.0
2,-263,162,0.0
2,-264,167,0.0
3,-238,154,0.0
3,-224,148,0.0
4,-221,150,0.0
3,-203,140,0.0
4,-203,144,0.0
4,-181,132,0.0
4,-158,117,0.0
3,-113,86,0.0
2,-101,78,0.0
3,-89,70,0.0
3,-101,81,0.0
2,-61,51,0.0
1,-58,49,0.0
778,-20924,18174,0.0
809,-20618,18304,0.0
836,-20243,18365,0.0
865,-19939,18485,0.0
890,-19548,18519,0.0
915,-19210,18598,0.0
938,-18846,18645,0.0
961,-18512,18714,0.0
986,-18209,18810,0.0
1008,-17868,18861,0.0
1029,-17546,18928,0.0
1050,-17235,19002,0.0
1072,-16943,19091,0.0
1090,-16604,19121,0.0
1107,-16285,19170,0.0
1147,-16281,19590,0.0
1198,-16418,20197,0.0
1225,-16229,20412,0.0
1277,-16369,21052,0.0
1328,-16478,21673,0.0
1380,-16575,22297,0.0
0,0,0,0.0
0,0,0,0.0
0,0,0,0.0
0,0,0,0.0
1926,-19770,29845,1.0
0,0,0,0.0
0,0,0,0.0
0,0,0,0.0
0,0,0,0.0
2091,-18450,31428,1.0
2115,-18105,31621,1.0
0,0,0,0.0
0,0,0,0.0
0,0,0,0.0
2230,-16943,32814,1.0
0,0,0,0.0
0,0,0,0.0
0,0,0,0.0
0,0,0,0.0
2305,-15039,33463,1.0
0,0,0,0.0
0,0,0,0.0
0,0,0,0.0
0,0,0,0.0
0,0,0,0.0
0,0,0,0.0
2408,-12520,34687,1.0
0,0,0,0.0
0,0,0,0.0
0,0,0,0.0
0,0,0,0.0
2453,-10644,35402,1.0
0,0,0,0.0
0,0,0,0.0
0,0,0,0.0
0,0,0,0.0
2408,-8486,35019,1.0
2408,-8104,35102,1.0
0,0,0,0.0
0,0,0,0.0
0,0,0,0.0
0,0,0,0.0
0,0,0,0.0
2373,-5749,35228,1.0
2361,-5349,35179,1.0
0,0,0,0.0
2352,-4590,35335,1.0
0,0,0,0.0
2329,-3810,35324,1.0
0,0,0,0.0
2308,-3041,35381,1.0
0,0,0,0.0
1558,-1547,24143,0.0
1498,-1243,23365,0.0
1432,-952,22479,0.0
1423,-707,22490,0.0
1415,-463,22513,0.0
1410,-220,22609,0.0
1402,24,22632,0.0
1395,271,22704,0.0
1388,519,22768,0.0
1381,769,22857,0.0
1371,1019,22888,0.0
1360,1270,22932,0.0
1349,1521,22956,0.0
1339,1775,22997,0.0
1331,2036,23109,0.0
1316,2286,23097,0.0
1308,2554,23223,0.0
1297,2818,23298,0.0
1281,3073,23282,0.0
1274,3352,23440,0.0
1257,3612,23443,0.0
1245,3888,23533,0.0
1230,4159,23585,0.0
1215,4430,23622,0.0
1198,4703,23659,0.0
1183,4986,23736,0.0
1168,5274,23819,0.0
1,7,31,0.0
2,12,51,0.0
3,17,68,0.0
3,16,64,0.0
4,22,80,0.0
3,21,77,0.0
4,24,80,0.0
4,30,98,0.0
3,27,86,0.0
4,29,85,0.0
4,34,98,0.0
4,36,100,0.0
3,37,100,0.0
3,39,101,0.0
3,36,92,0.0
3,43,105,0.0
3,45,106,0.0
4,49,112,0.0
4,54,122,0.0
3,60,130,0.0
3,58,121,0.0
3,69,142,0.0
3,66,133,0.0
3,70,137,0.0
4,80,151,0.0
3,79,144,0.0
3,82,147,0.0
3,83,144,0.0
2,82,140,0.0
2,87,146,0.0
1,86,140,0.0
2,89,142,0.0
1,96,149,0.0
0,91,137,0.0
1,98,145,0.0
1,98,140,0.0
0,100,142,0.0
0,95,130,0.0
0,105,141,0.0
0,97,128,0.0
0,108,138,0.0
0,106,134,0.0
-1,101,124,0.0
-1,108,130,0.0
-2,107,126,0.0
-2,105,121,0.0
-1,106,119,0.0
-2,104,115,0.0
-2,100,108,0.0
-3,111,117,0.0
-3,115,118,0.0
-3,120,122,0.0
-4,122,121,0.0
-4,128,124,0.0
-24,-353,113,0.0
-23,-341,113,0.0
-21,-337,116,0.0
-20,-323,115,0.0
-19,-317,116,0.0
-19,-317,120,0.0
-19,-308,121,0.0
-17,-292,118,0.0
-16,-287,120,0.0
-15,-286,123,0.0
-15,-292,129,0.0
-15,-279,127,0.0
-14,-274,128,0.0
-13,-277,133,0.0
-13,-283,140,0.0
-13,-278,141,0.0
-13,-276,143,0.0
-13,-297,159,0.0
-13,-311,171,0.0
-12,-294,166,0.0
-11,-287,165,0.0
-9,-262,155,0.0
-10,-252,152,0.0
-9,-251,155,0.0
-8,-236,150,0.0
-7,-224,146,0.0
-6,-212,142,0.0
-6,-203,139,0.0
-5,-201,140,0.0
-5,-178,128,0.0
-4,-163,119,0.0
-2,-142,106,0.0
-2,-104,80,0.0
-1,-80,63,0.0
-499,-22426,17941,0.0
-460,-22030,18016,0.0
-422,-21664,18110,0.0
-385,-21303,18201,0.0
-349,-20938,18283,0.0
-313,-20532,18321,0.0
-280,-20214,18433,0.0
-247,-19847,18494,0.0
-216,-19458,18528,0.0
-185,-19169,18649,0.0
-155,-18844,18734,0.0
-126,-18500,18792,0.0
-98,-18104,18792,0.0
-70,-17838,18919,0.0
-44,-17490,18955,0.0
-18,-17173,19020,0.0
5,-16873,19098,0.0
30,-16552,19147,0.0
53,-16271,19238,0.0
77,-16257,19646,0.0
102,-16447,20318,0.0
125,-16258,20535,0.0
151,-16342,21106,0.0
177,-16457,21733,0.0
204,-16573,22385,0.0
285,-20592,28449,1.0
0,0,0,0.0
0,0,0,0.0
0,0,0,0.0
0,0,0,0.0
422,-19387,30077,1.0
0,0,0,0.0
0,0,0,0.0
0,0,0,0.0
0,0,0,0.0
0,0,0,0.0
0,0,0,0.0
0,0,0,0.0
620,-17366,32859,1.0
0,0,0,0.0
0,0,0,0.0
0,0,0,0.0
687,-15829,33365,1.0
695,-15306,33183,1.0
708,-14906,33255,1.0
0,0,0,0.0
0,0,0,0.0
761,-14058,34299,1.0
782,-13855,34875,1.0
0,0,0,0.0
0,0,0,0.0
0,0,0,0.0
0,0,0,0.0
0,0,0,0.0
0,0,0,0.0
0,0,0,0.0
0,0,0,0.0
855,-10403,36053,1.0
0,0,0,0.0
0,0,0,0.0
0,0,0,0.0
0,0,0,0.0
847,-8248,35727,1.0
0,0,0,0.0
0,0,0,0.0
0,0,0,0.0
839,-6671,35909,1.0
831,-6249,35785,1.0
829,-5873,35924,1.0
0,0,0,0.0
818,-5092,36015,1.0
0,0,0,0.0
802,-4298,35998,1.0
0,0,0,0.0
773,-3463,35507,1.0
767,-3089,35660,1.0
753,-2694,35559,1.0
509,-1582,24376,0.0
481,-1266,23415,0.0
453,-970,22436,0.0
443,-726,22383,0.0
437,-487,22540,0.0
429,-245,22601,0.0
420,-1,22644,0.0
411,244,22720,0.0
402,491,22794,0.0
392,740,22871,0.0
381,987,22866,0.0
370,1240,22958,0.0
358,1490,22977,0.0
347,1748,23100,0.0
333,2000,23109,0.0
320,2259,23189,0.0
306,2517,23224,0.0
292,2774,23255,0.0
277,3040,23342,0.0
261,3303,23384,0.0
245,3564,23403,0.0
228,3839,23504,0.0
212,4117,23606,0.0
194,4383,23621,0.0
176,4662,23697,0.0
156,4941,23756,0.0
137,5232,23858,0.0
116,5502,23858,0.0
95,5794,23941,0.0
74,6084,24002,0.0
0,11,44,0.0
0,22,82,0.0
0,20,70,0.0
0,22,75,0.0
0,28,89,0.0
0,28,88,0.0
0,33,98,0.0
0,33,95,0.0
0,38,108,0.0
0,38,106,0.0
-1,38,98,0.0
0,40,102,0.0
-1,52,127,0.0
-1,57,136,0.0
-1,59,135,0.0
-1,58,131,0.0
-1,68,149,0.0
-1,60,128,0.0
-2,67,136,0.0
-2,66,133,0.0
-2,72,140,0.0
-3,79,150,0.0
-3,82,153,0.0
-3,85,154,0.0
-3,88,154,0.0
-4,92,157,0.0
-4,91,151,0.0
-5,102,167,0.0
-4,95,151,0.0
-5,105,162,0.0
-6,102,156,0.0
-6,102,152,0.0
-6,110,161,0.0
-6,110,156,0.0
-6,107,148,0.0
-7,108,146,0.0
-7,115,152,0.0
-7,115,149,0.0
-8,112,142,0.0
-8,118,146,0.0
-7,116,141,0.0
-8,115,137,0.0
-8,116,135,0.0
-8,115,130,0.0
-10,120,134,0.0
-9,122,132,0.0
-10,122,130,0.0
-9,121,127,0.0
-10,126,128,0.0
-11,133,132,0.0
-11,132,128,0.0
36,-271,78,0.0
36,-264,78,0.0
38,-274,85,0.0
39,-270,87,0.0
41,-278,93,0.0
41,-274,95,0.0
40,-265,95,0.0
42,-273,101,0.0
44,-275,106,0.0
44,-269,106,0.0
44,-266,109,0.0
46,-271,114,0.0
47,-276,119,0.0
47,-270,121,0.0
48,-267,122,0.0
50,-272,128,0.0
50,-268,130,0.0
50,-265,132,0.0
52,-268,138,0.0
52,-262,138,0.0
53,-262,142,0.0
58,-286,159,0.0
58,-280,160,0.0
52,-248,144,0.0
48,-224,134,0.0
50,-227,139,0.0
48,-216,135,0.0
48,-210,136,0.0
46,-197,131,0.0
44,-188,127,0.0
46,-190,131,0.0
38,-155,109,0.0
40,-160,116,0.0
35,-137,102,0.0
6005,-23234,17651,0.0
5995,-22788,17712,0.0
6011,-22448,17848,0.0
5991,-21984,17878,0.0
6011,-21671,18024,0.0
6005,-21264,18087,0.0
6011,-20912,18190,0.0
