//X,Y,Z,Classification
-2997,-14645,22830,0.0
-2989,-14961,22773,0.0
-2976,-15265,22691,0.0
-2967,-15589,22635,0.0
-2955,-15910,22568,0.0
-2947,-16249,22523,0.0
-2936,-16572,22452,0.0
-2927,-16927,22416,0.0
-2915,-17263,22349,0.0
-2901,-17591,22268,0.0
-2888,-17939,22205,0.0
-2876,-18288,22140,0.0
-2853,-18581,22002,0.0
-2848,-18993,21998,0.0
-2831,-19340,21913,0.0
-2819,-19730,21869,0.0
-2807,-20125,21823,0.0
-2789,-20483,21733,0.0
-2773,-20862,21659,0.0
-2757,-21257,21592,0.0
-2738,-21629,21498,0.0
-2726,-22080,21472,0.0
-4,-33,31,0.0
-2684,-22863,21286,0.0
-6,-45,41,0.0
-5,-48,43,0.0
-6,-61,53,0.0
-2604,-24592,20978,0.0
-8,-75,62,0.0
0,0,0,0.0
0,0,0,0.0
-9,-96,75,0.0
0,0,0,0.0
0,0,0,0.0
0,0,0,0.0
-164,-1931,1377,0.0
0,0,0,0.0
0,0,0,0.0
0,0,0,0.0
0,0,0,0.0
0,0,0,0.0
0,0,0,0.0
0,0,0,0.0
0,0,0,0.0
0,0,0,0.0
-126,-2073,1164,0.0
-9,-145,79,0.0
-9,-161,86,0.0
-10,-174,90,0.0
-9,-166,84,0.0
-10,-192,95,0.0
-9,-200,95,0.0
-9,-211,98,0.0
-9,-213,96,0.0
-10,-235,103,0.0
-10,-254,108,0.0
-9,-257,106,0.0
-9,-281,113,0.0
-9,-303,118,0.0
-10,-331,124,0.0
-10,-339,124,0.0
-9,-344,121,0.0
-9,-358,121,0.0
-8,-352,115,0.0
-6,-345,109,0.0
-6,-351,107,0.0
-335,17279,16772,0.0
-375,17030,16887,0.0
-382,15473,15672,0.0
-384,13998,14484,0.0
-416,13814,14601,0.0
-530,16084,17370,0.0
-548,15326,16910,0.0
-592,15291,17240,0.0
-626,15015,17297,0.0
-1212,27070,31868,0.0
-1232,25727,30953,0.0
-1290,25267,31071,0.0
-1338,24648,30982,0.0
0,0,0,0.0
-1424,23356,30689,0.0
-982,15225,20459,0.0
-996,14634,20113,0.0
-1069,14908,20960,0.0
-1114,14760,21232,0.0
-1142,14402,21200,0.0
-1175,14110,21261,0.0
-1712,19608,30246,0.0
-1755,19170,30282,0.0
-1817,18952,30665,0.0
-1866,18592,30821,0.0
-2075,19777,33602,0.0
-2111,19242,33516,0.0
-2145,18705,33411,0.0
-2175,18164,33287,0.0
-2210,17672,33234,0.0
-1869,14318,27646,0.0
-1892,13888,27542,0.0
-1916,13481,27471,0.0
-1957,13188,27628,0.0
-1992,12867,27724,0.0
-2020,12505,27731,0.0
-2015,11957,27301,0.0
-2008,11415,26852,0.0
-2043,11122,26975,0.0
-2231,11634,29109,0.0
-2264,11298,29184,0.0
-2512,11999,32025,0.0
-2535,11577,31953,0.0
-2557,11164,31891,0.0
0,0,0,0.0
0,0,0,0.0
-2616,9938,31669,0.0
-2602,9422,31211,0.0
-2639,9096,31361,0.0
-2695,8836,31753,0.0
-2782,8665,32501,0.0
-2870,8473,33233,0.0
-2418,6761,27781,0.0
-2438,6444,27792,0.0
-2448,6104,27693,0.0
-2461,5777,27641,0.0
-2469,5441,27529,0.0
-2484,5123,27494,0.0
-2492,4797,27399,0.0
-2500,4474,27301,0.0
-2511,4160,27249,0.0
-2522,3849,27196,0.0
-2529,3537,27114,0.0
-2523,3210,26896,0.0
-2539,2914,26915,0.0
-2544,2608,26816,0.0
-2551,2308,26750,0.0
-2558,2008,26679,0.0
-2464,1645,25576,0.0
-2483,1368,25636,0.0
-2501,1090,25708,0.0
-2495,803,25519,0.0
-2512,526,25580,0.0
-2586,252,26222,0.0
-2589,-33,26141,0.0
-2590,-317,26036,0.0
-2592,-600,25961,0.0
-2600,-882,25935,0.0
-2598,-1162,25825,0.0
-2604,-1442,25792,0.0
-2597,-1715,25639,0.0
-2605,-1995,25629,0.0
-2607,-2272,25564,0.0
-2595,-2534,25367,0.0
-2607,-2819,25405,0.0
-2604,-3088,25307,0.0
-2609,-3366,25287,0.0
-2602,-3629,25150,0.0
-2601,-3897,25067,0.0
-2602,-4170,25021,0.0
-2601,-4440,24956,0.0
-2600,-4710,24890,0.0
-2595,-4972,24790,0.0
-2596,-5246,24750,0.0
-2596,-5520,24706,0.0
-2596,-5791,24654,0.0
-2593,-6060,24587,0.0
-2590,-6327,24517,0.0
-2581,-6580,24391,0.0
-2574,-6839,24294,0.0
-2578,-7127,24294,0.0
-2571,-7388,24203,0.0
-2564,-7652,24119,0.0
-2566,-7938,24105,0.0
-2527,-8099,23720,0.0
-2503,-8303,23474,0.0
-2492,-8551,23361,0.0
-2541,-9008,23801,0.0
-2505,-9170,23453,0.0
-2484,-9386,23252,0.0
-2497,-9730,23367,0.0
-2525,-10142,23623,0.0
-2514,-10403,23522,0.0
-2507,-10683,23458,0.0
-2470,-10833,23115,0.0
-2431,-10972,22762,0.0
-2476,-11495,23197,0.0
-2479,-11828,23230,0.0
-2479,-12158,23246,0.0
-2465,-12425,23139,0.0
-2459,-12731,23102,0.0
-2450,-13027,23041,0.0
-2442,-13334,22995,0.0
-2423,-13581,22843,0.0
-2363,-13603,22323,0.0
-2351,-13887,22239,0.0
-2400,-14549,22744,0.0
-2390,-14867,22693,0.0
-2380,-15196,22654,0.0
-2370,-15526,22610,0.0
-2356,-15836,22530,0.0
-2345,-16173,22485,0.0
-2333,-16510,22436,0.0
-2321,-16852,22384,0.0
-2306,-17181,22312,0.0
-2294,-17543,22277,0.0
-2277,-17874,22197,0.0
-2264,-18238,22151,0.0
-2249,-18593,22087,0.0
-2229,-18925,21993,0.0
-2214,-19301,21942,0.0
-2196,-19667,21873,0.0
-2176,-20017,21783,0.0
-2158,-20400,21721,0.0
-2143,-20822,21694,0.0
-2118,-21155,21565,0.0
-2104,-21614,21560,0.0
-2078,-21966,21440,0.0
0,-5,4,0.0
-3,-33,32,0.0
-2012,-23208,21221,0.0
-3,-37,33,0.0
-1963,-24050,21053,0.0
-5,-60,51,0.0
-1910,-24917,20875,0.0
-1840,-24792,20317,0.0
0,0,0,0.0
-7,-93,73,0.0
0,0,0,0.0
-126,-1939,1454,0.0
-113,-1804,1322,0.0
0,0,0,0.0
0,0,0,0.0
0,0,0,0.0
0,0,0,0.0
0,0,0,0.0
0,0,0,0.0
0,0,0,0.0
0,0,0,0.0
0,0,0,0.0
-83,-2040,1180,0.0
0,0,0,0.0
0,0,0,0.0
-5,-164,87,0.0
-5,-167,87,0.0
-6,-184,93,0.0
-5,-178,88,0.0
-5,-186,89,0.0
-5,-210,98,0.0
-5,-222,100,0.0
-4,-228,100,0.0
-5,-247,106,0.0
-4,-248,103,0.0
-4,-252,101,0.0
-3,-275,107,0.0
-3,-313,118,0.0
-3,-342,126,0.0
-2,-338,120,0.0
-2,-350,121,0.0
-1,-345,114,0.0
0,-341,109,0.0
0,-344,106,0.0
92,16738,16310,0.0
54,16393,16316,0.0
16,16354,16627,0.0
-20,16444,17079,0.0
-49,13674,14508,0.0
-96,15897,17232,0.0
-132,15623,17303,0.0
-167,15205,17205,0.0
-202,15005,17350,0.0
-436,27119,32044,0.0
-479,25605,30922,0.0
-539,25166,31063,0.0
-592,24526,30946,0.0
0,0,0,0.0
-456,15293,20172,0.0
-747,22834,30798,0.0
-519,14546,20066,0.0
-582,15021,21198,0.0
-610,14544,20999,0.0
-649,14371,21235,0.0
0,0,0,0.0
-1015,19605,30358,0.0
-1054,19064,30230,0.0
-1106,18781,30505,0.0
-1157,18496,30781,0.0
-1307,19706,33611,0.0
-1346,19154,33492,0.0
-1382,18583,33324,0.0
-1149,14628,26911,0.0
-1206,14540,27453,0.0
-1246,14257,27636,0.0
-1275,13849,27574,0.0
-1301,13426,27468,0.0
-1340,13153,27666,0.0
-1356,12657,27383,0.0
-1454,12905,28732,0.0
-1521,12857,29477,0.0
-1408,11330,26764,0.0
-1451,11118,27077,0.0
-1689,12314,30941,0.0
-1741,12086,31352,0.0
-1809,11955,32046,0.0
-1842,11588,32123,0.0
-1862,11142,31968,0.0
-1884,10727,31886,0.0
0,0,0,0.0
0,0,0,0.0
-1923,9385,31230,0.0
-1963,9089,31484,0.0
-2008,8809,31806,0.0
-2081,8640,32567,0.0
-1757,6899,27197,0.0
-1817,6734,27813,0.0
-1834,6404,27762,0.0
-1850,6080,27729,0.0
-1861,5740,27612,0.0
-1874,5413,27539,0.0
-1884,5081,27424,0.0
-1898,4767,27390,0.0
-1909,4449,27312,0.0
-1921,4134,27249,0.0
-1929,3816,27141,0.0
-1940,3508,27084,0.0
-1944,3190,26923,0.0
-1958,2894,26932,0.0
-1934,2547,26402,0.0
-1889,2190,25624,0.0
-1899,1906,25581,0.0
-1905,1622,25509,0.0
-1914,1341,25463,0.0
-1918,1060,25371,0.0
-1928,782,25347,0.0
-1934,504,25286,0.0
-1940,229,25239,0.0
-1966,-45,25445,0.0
-1994,-326,25672,0.0
-2024,-611,25935,0.0
-2028,-891,25872,0.0
-2036,-1173,25857,0.0
-2038,-1451,25780,0.0
-2034,-1721,25617,0.0
-2040,-2001,25606,0.0
-2041,-2275,25519,0.0
-2045,-2551,25475,0.0
-2046,-2824,25407,0.0
-2048,-3096,25344,0.0
-2048,-3367,25263,0.0
-2048,-3639,25199,0.0
-2046,-3905,25106,0.0
-2051,-4183,25094,0.0
-2044,-4441,24963,0.0
-2045,-4714,24920,0.0
-2274,-5543,27648,0.0
-2285,-5872,27718,0.0
-2037,-5509,24675,0.0
-2035,-5776,24609,0.0
-2036,-6053,24580,0.0
-2011,-6252,24250,0.0
-1973,-6402,23759,0.0
-1943,-6576,23386,0.0
-2015,-7099,24232,0.0
-2015,-7381,24212,0.0
-2013,-7658,24176,0.0
-2006,-7918,24080,0.0
-1958,-8011,23499,0.0
-1946,-8247,23355,0.0
-1947,-8538,23365,0.0
-1958,-8878,23501,0.0
-1970,-9241,23675,0.0
-1977,-9576,23766,0.0
-1955,-9774,23516,0.0
-1962,-10122,23625,0.0
-1951,-10385,23530,0.0
-1941,-10650,23434,0.0
-1931,-10917,23344,0.0
-1912,-11138,23158,0.0
-1917,-11502,23263,0.0
-1912,-11813,23251,0.0
-1903,-12101,23189,0.0
-1894,-12400,23146,0.0
-1886,-12706,23109,0.0
-1873,-12987,23023,0.0
-1864,-13295,22982,0.0
-1856,-13622,22967,0.0
-1834,-13843,22774,0.0
-1818,-14117,22664,0.0
-1820,-14536,22782,0.0
-1808,-14853,22731,0.0
-1798,-15200,22717,0.0
-1783,-15508,22642,0.0
-1766,-15810,22553,0.0
-1752,-16137,22497,0.0
-1735,-16447,22411,0.0
-1722,-16807,22388,0.0
-1707,-17157,22345,0.0
-1688,-17468,22245,0.0
-1672,-17830,22207,0.0
-1655,-18179,22145,0.0
-1636,-18530,22079,0.0
-1616,-18882,22010,0.0
-1599,-19267,21971,0.0
-1577,-19623,21893,0.0
-1556,-19986,21817,0.0
-1532,-20328,21712,0.0
-1514,-20768,21705,0.0
-1486,-21086,21566,0.0
-1467,-21546,21563,0.0
-1442,-21924,21471,0.0
-1415,-22309,21379,0.0
-1389,-22717,21302,0.0
-1363,-23160,21251,0.0
-1336,-23578,21170,0.0
-3,-62,54,0.0
-1277,-24426,20994,0.0
-1246,-24861,20904,0.0
-1192,-24850,20439,0.0
-1133,-24715,19885,0.0
-81,-1856,1461,0.0
0,0,0,0.0
-74,-1856,1396,0.0
0,0,0,0.0
-67,-1885,1355,0.0
0,0,0,0.0
0,0,0,0.0
0,0,0,0.0
0,0,0,0.0
0,0,0,0.0
0,0,0,0.0
-46,-2094,1278,0.0
0,0,0,0.0
-38,-2095,1218,0.0
0,0,0,0.0
0,0,0,0.0
-2,-161,87,0.0
-2,-171,89,0.0
-1,-181,92,0.0
-1,-179,89,0.0
-1,-201,97,0.0
0,-207,97,0.0
-1,-218,99,0.0
0,-236,105,0.0
0,-242,104,0.0
0,-252,105,0.0
1,-273,111,0.0
1,-273,107,0.0
1,-304,115,0.0
3,-344,127,0.0
4,-351,125,0.0
4,-354,123,0.0
5,-358,120,0.0
5,-356,114,0.0
6,-358,110,0.0
1440,13505,13289,0.0
1415,13365,13433,0.0
1416,13465,13825,0.0
1395,13361,14014,0.0
1394,13448,14409,0.0
1357,13194,14444,0.0
1343,13155,14714,0.0
1316,12977,14831,0.0
1534,15241,17798,0.0
1512,15117,18040,0.0
1441,14516,17704,0.0
1369,13890,17317,0.0
1249,12765,16268,0.0
1233,12687,16531,0.0
1619,16771,22344,0.0
1530,15958,21742,0.0
1367,14358,20009,0.0
1438,15207,21680,0.0
1364,14520,21179,0.0
1329,14234,21248,0.0
1302,14037,21450,0.0
1633,17721,27725,0.0
1502,16401,26279,0.0
1463,16081,26392,0.0
1400,15477,26027,0.0
1370,15235,26258,0.0
1329,14865,26268,0.0
1289,14495,26270,0.0
1248,14109,26234,0.0
1209,13753,26246,0.0
1163,13290,26041,0.0
1118,12830,25823,0.0
1087,12537,25931,0.0
1131,13109,27879,0.0
1111,12924,28273,0.0
1105,12902,29047,0.0
1167,13661,31671,0.0
1116,13115,31333,0.0
1082,12757,31425,0.0
1049,12397,31507,0.0
1032,12210,32045,0.0
997,11801,32005,0.0
962,11391,31954,0.0
924,10950,31796,0.0
894,10580,31834,0.0
860,10159,31708,0.0
827,9755,31616,0.0
787,9253,31184,0.0
765,8956,31422,0.0
752,8751,32011,0.0
740,8558,32686,0.0
732,8389,33512,0.0
585,6635,27776,0.0
562,6301,27703,0.0
541,5979,27662,0.0
519,5645,27553,0.0
498,5317,27457,0.0
478,5001,27409,0.0
460,4683,27339,0.0
440,4359,27205,0.0
423,4049,27148,0.0
406,3740,27074,0.0
390,3434,27013,0.0
374,3130,26936,0.0
358,2823,26814,0.0
344,2524,26747,0.0
330,2226,26672,0.0
317,1934,26632,0.0
293,1580,25582,0.0
291,1339,26294,0.0
274,1030,25680,0.0
261,745,25431,0.0
254,473,25563,0.0
249,200,26019,0.0
240,-80,25892,0.0
232,-358,25889,0.0
224,-637,25828,0.0
217,-911,25705,0.0
210,-1187,25659,0.0
202,-1453,25441,0.0
198,-1734,25525,0.0
192,-1998,25356,0.0
184,-2226,24827,0.0
180,-2494,24796,0.0
177,-2762,24773,0.0
177,-3086,25208,0.0
175,-3347,25089,0.0
173,-3616,25044,0.0
171,-3891,25028,0.0
169,-4148,24906,0.0
169,-4417,24865,0.0
169,-4666,24709,0.0
169,-4944,24718,0.0
170,-5201,24622,0.0
172,-5466,24558,0.0
172,-5706,24394,0.0
176,-5995,24435,0.0
179,-6260,24380,0.0
182,-6528,24331,0.0
186,-6757,24140,0.0
189,-7004,24020,0.0
195,-7277,23989,0.0
196,-7420,23545,0.0
194,-7376,22549,0.0
200,-7609,22438,0.0
206,-7866,22402,0.0
227,-8668,23856,0.0
235,-8893,23677,0.0
244,-9202,23719,0.0
251,-9419,23521,0.0
254,-9433,22841,0.0
263,-9695,22774,0.0
283,-10259,23397,0.0
294,-10548,23364,0.0
306,-10814,23282,0.0
318,-11090,23217,0.0
330,-11382,23181,0.0
343,-11644,23083,0.0
358,-11931,23030,0.0
373,-12242,23018,0.0
388,-12517,22936,0.0
405,-12843,22941,0.0
422,-13130,22870,0.0
440,-13438,22834,0.0
457,-13747,22792,0.0
477,-14073,22774,0.0
496,-14375,22710,0.0
519,-14743,22744,0.0
539,-15061,22696,0.0
549,-15035,22134,0.0
556,-14961,21522,0.0
589,-15571,21892,0.0
625,-16209,22275,0.0
652,-16595,22297,0.0
681,-17009,22346,0.0
707,-17327,22260,0.0
733,-17640,22165,0.0
762,-18017,22144,0.0
778,-18073,21732,0.0
820,-18695,21992,0.0
852,-19074,21952,0.0
884,-19435,21887,0.0
916,-19787,21805,0.0
950,-20175,21757,0.0
985,-20535,21672,0.0
1020,-20895,21581,0.0
1058,-21302,21531,0.0
1087,-21523,21290,0.0
1054,-20521,19865,0.0
1091,-20876,19777,0.0
1117,-21025,19493,0.0
1163,-21532,19535,0.0
1201,-21859,19406,0.0
1350,-24190,21013,0.0
1395,-24581,20892,0.0
1303,-22595,18789,0.0
1336,-22813,18557,0.0
1372,-23046,18338,0.0
1415,-23399,18211,0.0
1447,-23555,17928,0.0
0,0,0,0.0
0,0,0,0.0
0,0,0,0.0
0,0,0,0.0
0,0,0,0.0
0,0,0,0.0
0,0,0,0.0
0,0,0,0.0
0,0,0,0.0
0,0,0,0.0
0,0,0,0.0
0,0,0,0.0
0,0,0,0.0
161,-2144,1171,0.0
11,-162,87,0.0
12,-173,90,0.0
13,-178,90,0.0
15,-198,98,0.0
16,-205,98,0.0
17,-220,101,0.0
19,-228,103,0.0
20,-242,106,0.0
21,-258,110,0.0
21,-259,107,0.0
23,-279,111,0.0
25,-293,114,0.0
29,-324,121,0.0
30,-343,125,0.0
32,-355,125,0.0
32,-352,120,0.0
32,-351,115,0.0
33,-354,112,0.0
2120,13433,13244,0.0
2113,13391,13485,0.0
2118,13424,13809,0.0
2094,13266,13941,0.0
2561,16212,17404,0.0
2093,13241,14522,0.0
2082,13167,14754,0.0
2380,15034,17213,0.0
2328,14684,17181,0.0
1924,12117,14489,0.0
1918,12061,14739,0.0
2168,13606,16996,0.0
2175,13626,17401,0.0
2179,13617,17778,0.0
2186,13617,18179,0.0
2199,13659,18649,0.0
2211,13692,19121,0.0
2209,13628,19469,0.0
2204,13542,19797,0.0
2202,13470,20152,0.0
2213,13476,20638,0.0
2226,13489,21150,0.0
2192,13206,21207,0.0
2140,12819,21086,0.0
2009,11962,20162,0.0
2017,11931,20611,0.0
2002,11757,20825,0.0
2002,11667,21193,0.0
2439,14098,26274,0.0
2392,13711,26229,0.0
2328,13220,25966,0.0
2058,11571,23346,0.0
2037,11339,23509,0.0
2375,13068,27857,0.0
2370,12890,28266,0.0
2086,11208,25297,0.0
2081,11033,25645,0.0
2497,13055,31268,0.0
2048,10550,26055,0.0
2040,10349,26370,0.0
2445,12196,32089,0.0
2397,11750,31949,0.0
2356,11339,31889,0.0
2315,10919,31791,0.0
2270,10490,31649,0.0
2239,10117,31660,0.0
2197,9695,31508,0.0
2143,9225,31173,0.0
2132,8938,31446,0.0
2136,8709,31944,0.0
1635,6464,24763,0.0
1606,6152,24650,0.0
1590,5888,24725,0.0
1565,5588,24640,0.0
1536,5278,24491,0.0
1704,5613,27484,0.0
1484,4676,24225,0.0
1505,4519,24849,0.0
1490,4247,24875,0.0
1468,3954,24767,0.0
1473,3735,25132,0.0
1437,3405,24744,0.0
1425,3140,24789,0.0
1413,2874,24825,0.0
1401,2603,24837,0.0
1389,2334,24849,0.0
1377,2063,24839,0.0
1358,1784,24688,0.0
1348,1518,24714,0.0
1333,1246,24607,0.0
1317,975,24477,0.0
1300,706,24307,0.0
1300,448,24484,0.0
1288,182,24390,0.0
1273,-78,24235,0.0
1246,-334,23837,0.0
1211,-577,23271,0.0
1219,-837,23515,0.0
1246,-1118,24131,0.0
1239,-1376,24068,0.0
1305,-1728,25426,0.0
1304,-2006,25463,0.0
1223,-2146,23935,0.0
1220,-2404,23920,0.0
1271,-2777,24934,0.0
1281,-3074,25137,0.0
1226,-3205,24055,0.0
1206,-3414,23672,0.0
1204,-3668,23628,0.0
1204,-3920,23577,0.0
1201,-4166,23487,0.0
1226,-4512,23931,0.0
1227,-4766,23869,0.0
1258,-5146,24402,0.0
1231,-5286,23794,0.0
1262,-5674,24299,0.0
1221,-5733,23412,0.0
1207,-5898,23014,0.0
1214,-6164,23019,0.0
1217,-6411,22950,0.0
1226,-6684,22968,0.0
1230,-6930,22893,0.0
1237,-7186,22850,0.0
1243,-7438,22790,0.0
1250,-7692,22735,0.0
1258,-7953,22697,0.0
1265,-8197,22612,0.0
1272,-8446,22537,0.0
1283,-8707,22496,0.0
1291,-8956,22418,0.0
1305,-9234,22411,0.0
1315,-9490,22346,0.0
1328,-9759,22309,0.0
1340,-10016,22242,0.0
1351,-10272,22167,0.0
1365,-10531,22100,0.0
1381,-10810,22071,0.0
1395,-11075,22008,0.0
1410,-11338,21940,0.0
1423,-11580,21831,0.0
1442,-11864,21794,0.0
1459,-12142,21744,0.0
1479,-12427,21701,0.0
1493,-12667,21580,0.0
1516,-12966,21554,0.0
1533,-13225,21458,0.0
1556,-13518,21415,0.0
1578,-13809,21361,0.0
1597,-14062,21247,0.0
1623,-14368,21210,0.0
1643,-14633,21108,0.0
1664,-14889,20992,0.0
1803,-16205,22332,0.0
1804,-16273,21926,0.0
1790,-16208,21354,0.0
1780,-16161,20822,0.0
1767,-16090,20276,0.0
1760,-16059,19795,0.0
1786,-16322,19681,0.0
1819,-16651,19643,0.0
1849,-16951,19566,0.0
1882,-17260,19494,0.0
1916,-17582,19432,0.0
1953,-17922,19384,0.0
1989,-18252,19319,0.0
2025,-18574,19241,0.0
2064,-18907,19167,0.0
2105,-19271,19120,0.0
2139,-19560,18993,0.0
2184,-19939,18947,0.0
2227,-20297,18876,0.0
2267,-20620,18765,0.0
2314,-20996,18698,0.0
2363,-21388,18638,0.0
2408,-21746,18543,0.0
2456,-22117,18449,0.0
2510,-22531,18388,0.0
2558,-22893,18276,0.0
2613,-23307,18199,0.0
0,0,0,0.0
0,0,0,0.0
0,0,0,0.0
222,-1954,1394,0.0
0,0,0,0.0
0,0,0,0.0
0,0,0,0.0
0,0,0,0.0
0,0,0,0.0
0,0,0,0.0
0,0,0,0.0
0,0,0,0.0
251,-2111,1217,0.0
251,-2108,1185,0.0
0,0,0,0.0
20,-168,90,0.0
19,-162,84,0.0
21,-180,91,0.0
21,-177,87,0.0
24,-204,98,0.0
25,-207,96,0.0
26,-209,95,0.0
29,-236,103,0.0
29,-232,99,0.0
30,-246,102,0.0
34,-264,106,0.0
36,-282,110,0.0
40,-316,119,0.0
45,-350,128,0.0
45,-353,124,0.0
45,-343,117,0.0
45,-340,112,0.0
46,-346,110,0.0
-3828,16120,14770,0.0
-3911,16078,15049,0.0
-3988,16006,15308,0.0
-4071,15953,15588,0.0
-4153,15889,15863,0.0
-4210,15726,16042,0.0
-4320,15753,16418,0.0
-4339,15447,16452,0.0
-4432,15408,16770,0.0
-4422,15007,16692,0.0
-4465,14791,16816,0.0
-4763,15401,17897,0.0
-4866,15357,18242,0.0
-4964,15292,18572,0.0
-5026,15109,18760,0.0
-5157,15126,19207,0.0
-5212,14916,19371,0.0
-5182,14466,19217,0.0
-5224,14223,19331,0.0
-5581,14822,20614,0.0
-5701,14760,21009,0.0
-5815,14677,21386,0.0
-5923,14571,21739,0.0
-6014,14418,22029,0.0
-6675,15589,24401,0.0
-6665,15160,24316,0.0
-6632,14687,24147,0.0
-6543,14102,23773,0.0
-6558,13754,23780,0.0
-6471,13201,23418,0.0
-6619,13130,23907,0.0
-9248,17834,33343,0.0
-9220,17274,33175,0.0
-9193,16727,33015,0.0
-9203,16254,32985,0.0
-9199,15762,32907,0.0
-9204,15295,32863,0.0
-8485,13665,30237,0.0
-8505,13266,30252,0.0
-8387,12662,29774,0.0
-8601,12560,30474,0.0
-8748,12348,30937,0.0
-9118,12430,32183,0.0
-9116,11993,32117,0.0
-9118,11564,32059,0.0
-9119,11139,32003,0.0
-9095,10690,31859,0.0
-9079,10255,31740,0.0
0,0,0,0.0
-9002,9357,31352,0.0
-9068,9022,31521,0.0
-9269,8815,32159,0.0
-7205,6538,24951,0.0
-7193,6216,24861,0.0
-7192,5906,24809,0.0
-7176,5588,24708,0.0
-7188,5295,24703,0.0
-7169,4980,24588,0.0
-7163,4679,24522,0.0
-7173,4390,24511,0.0
-7155,4087,24399,0.0
-7144,3790,24314,0.0
-7156,3507,24308,0.0
-7141,3213,24206,0.0
-7129,2924,24119,0.0
-7128,2641,24070,0.0
-7125,2360,24011,0.0
-7115,2079,23930,0.0
-7116,1801,23885,0.0
-7122,1528,23858,0.0
-7111,1251,23772,0.0
-7108,979,23713,0.0
-7100,706,23637,0.0
-7096,436,23578,0.0
-7100,167,23541,0.0
-7083,-99,23435,0.0
-7077,-364,23366,0.0
-7063,-628,23272,0.0
-7182,-906,23610,0.0
-7410,-1210,24312,0.0
-7801,-1563,25539,0.0
-8049,-1910,26291,2.0
-8074,-2214,26317,2.0
-8151,-2534,26509,2.0
-8261,-2872,26808,2.0
-8354,-3210,27047,2.0
-8409,-3538,27163,2.0
-8457,-3867,27256,2.0
-8534,-4213,27445,2.0
-8599,-4558,27591,2.0
-8650,-4900,27689,2.0
-8743,-5270,27922,2.0
-8806,-5628,28057,2.0
-8806,-5948,27991,2.0
-8816,-6273,27952,2.0
-8717,-6520,27575,2.0
-8887,-6969,28040,2.0
-8932,-7328,28116,2.0
-9057,-7759,28435,2.0
-9064,-8094,28385,2.0
-9076,-8436,28354,2.0
-9137,-8825,28469,2.0
-9100,-9120,28279,2.0
-9119,-9473,28265,2.0
-9122,-9810,28200,2.0
-9085,-10103,28008,2.0
-9051,-10397,27828,2.0
-8874,-10521,27210,2.0
-8840,-10808,27033,2.0
-8970,-11298,27350,2.0
-9049,-11734,27514,2.0
-9093,-12129,27567,2.0
-9116,-12499,27555,2.0
-9176,-12928,27658,2.0
-9137,-13215,27456,2.0
-9120,-13534,27321,2.0
-9057,-13785,27051,2.0
-8965,-13986,26692,2.0
-8893,-14213,26393,2.0
-8831,-14456,26128,2.0
-8777,-14705,25884,2.0
-8749,-14998,25716,2.0
-8690,-15237,25457,2.0
-8635,-15479,25212,2.0
-8575,-15711,24951,2.0
-8480,-15874,24588,2.0
-8403,-16066,24280,2.0
-8337,-16274,24000,2.0
-8261,-16464,23698,2.0
-8094,-16460,23131,0.0
-7862,-16312,22384,0.0
-7639,-16166,21667,0.0
-7455,-16087,21062,0.0
-7302,-16065,20548,0.0
-7141,-16013,20014,0.0
-7110,-16246,19843,0.0
-7107,-16547,19754,0.0
-7128,-16906,19727,0.0
-7160,-17295,19730,0.0
-7162,-17617,19647,0.0
-7162,-17941,19562,0.0
-7168,-18279,19487,0.0
-7172,-18617,19408,0.0
-7182,-18975,19341,0.0
-7187,-19322,19260,0.0
-7198,-19692,19195,0.0
-7201,-20044,19105,0.0
-7215,-20430,19044,0.0
-7211,-20773,18934,0.0
-7225,-21170,18867,0.0
-7238,-21569,18796,0.0
-7251,-21973,18723,0.0
-7250,-22342,18612,0.0
-7261,-22756,18532,0.0
-7276,-23184,18455,0.0
-7216,-23380,18192,0.0
0,0,0,0.0
0,0,0,0.0
0,0,0,0.0
0,0,0,0.0
0,0,0,0.0
0,0,0,0.0
0,0,0,0.0
0,0,0,0.0
0,0,0,0.0
0,0,0,0.0
0,0,0,0.0
-503,-1989,1162,0.0
0,0,0,0.0
0,0,0,0.0
0,0,0,0.0
-524,-2214,1167,0.0
0,0,0,0.0
0,0,0,0.0
-38,-170,83,0.0
-41,-187,88,0.0
-42,-199,91,0.0
-45,-215,96,0.0
-47,-224,96,0.0
-51,-253,106,0.0
-51,-258,105,0.0
-57,-287,113,0.0
-64,-326,125,0.0
-64,-333,123,0.0
-64,-344,123,0.0
-64,-350,121,0.0
-62,-344,115,0.0
-62,-350,113,0.0
-62,-354,110,0.0
-60,-347,104,0.0
-59,-352,100,0.0
-59,-355,98,0.0
-2658,15986,15005,0.0
-5878,34360,32949,0.0
-4030,22905,22438,0.0
-2990,16531,16544,0.0
-3023,16257,16623,0.0
-3026,15830,16537,0.0
-3086,15704,16761,0.0
-3153,15615,17030,0.0
-3227,15550,17330,0.0
-3230,15146,17250,0.0
-3365,15357,17876,0.0
-3382,15020,17870,0.0
-3374,14587,17740,0.0
-3607,15178,18870,0.0
-3694,15129,19232,0.0
-3777,15055,19571,0.0
-3856,14956,19885,0.0
-3948,14902,20268,0.0
0,0,0,0.0
-4038,14428,20544,0.0
-4049,14074,20510,0.0
-4273,14447,21555,0.0
-4399,14466,22099,0.0
-4499,14388,22510,0.0
-4599,14295,22913,0.0
-4702,14207,23338,0.0
-4804,14109,23757,0.0
-4913,14015,24198,0.0
-5019,13907,24630,0.0
-5140,13826,25126,0.0
-5189,13549,25275,0.0
-5209,13200,25289,0.0
-5239,12875,25339,0.0
-5622,13397,27100,0.0
-5745,13266,27597,0.0
-5881,13156,28157,0.0
-5988,12970,28578,0.0
-6085,12754,28944,0.0
-6201,12570,29401,0.0
-6339,12419,29959,0.0
-6557,12408,30894,0.0
-6713,12263,31534,0.0
-6863,12089,32135,0.0
-6877,11673,32102,0.0
-6867,11222,31960,0.0
-6862,10787,31847,0.0
-6864,10367,31760,0.0
-6862,9947,31662,0.0
-6787,9432,31226,0.0
-6841,9102,31390,0.0
-6959,8850,31840,0.0
-7136,8662,32559,0.0
-7328,8475,33342,0.0
-6161,6775,27952,0.0
-6158,6427,27865,0.0
-6167,6095,27836,0.0
-6153,5742,27697,0.0
-6143,5399,27581,0.0
-6152,5074,27549,0.0
-6153,4746,27480,0.0
-6163,4428,27458,0.0
-6145,4091,27303,0.0
-6149,3774,27257,0.0
-6148,3455,27182,0.0
-6147,3138,27107,0.0
-6137,2821,26998,0.0
-6132,2509,26909,0.0
-6125,2198,26813,0.0
-6131,1893,26773,0.0
-5891,1527,25662,0.0
-6104,1281,26526,0.0
-6008,966,26049,0.0
-5964,669,25794,0.0
-6107,388,26352,0.0
-6108,93,26293,0.0
-6102,-199,26204,0.0
-6099,-492,26133,0.0
-6099,-782,26067,0.0
-6086,-1069,25950,0.0
-6093,-1360,25923,0.0
-6074,-1642,25786,0.0
-6079,-1929,25747,0.0
-5907,-2152,24955,0.0
-5911,-2430,24918,0.0
-5748,-2631,24175,0.0
-6071,-3062,25476,0.0
-6063,-3339,25381,0.0
-6060,-3619,25309,0.0
-6047,-3891,25195,0.0
-6059,-4181,25189,0.0
-6047,-4452,25079,0.0
-6046,-4731,25019,0.0
-6041,-5007,24944,0.0
-6037,-5283,24870,0.0
-6031,-5556,24789,0.0
-6024,-5828,24697,0.0
-6019,-6102,24621,0.0
-6013,-6374,24539,0.0
-6014,-6654,24489,0.0
-6009,-6928,24409,0.0
-6005,-7203,24338,0.0
-6004,-7484,24281,0.0
-5990,-7745,24165,0.0
-5996,-8034,24134,0.0
-5995,-8315,24072,0.0
-5994,-8595,24011,0.0
-5994,-8878,23951,0.0
-5995,-9164,23900,0.0
-5982,-9429,23790,0.0
-5997,-9741,23793,0.0
-5993,-10022,23721,0.0
-5990,-10304,23647,0.0
-5997,-10609,23621,0.0
-5987,-10881,23521,0.0
-5993,-11186,23487,0.0
-5994,-11483,23432,0.0
-6000,-11791,23396,0.0
-5992,-12073,23303,0.0
-6000,-12391,23278,0.0
-6009,-12711,23250,0.0
-6004,-13007,23174,0.0
-6007,-13324,23128,0.0
-5996,-13607,23023,0.0
-6007,-13942,23001,0.0
-6007,-14259,22943,0.0
-6003,-14564,22862,0.0
-6020,-14928,22867,0.0
-6013,-15234,22778,0.0
-5781,-14958,21836,0.0
-5860,-15486,22075,0.0
-5901,-15919,22165,0.0
-5980,-16467,22398,0.0
-6006,-16877,22429,0.0
-6016,-17249,22401,0.0
-6023,-17616,22360,0.0
-6018,-17951,22272,0.0
-6024,-18325,22226,0.0
-6027,-18694,22168,0.0
-6026,-19055,22096,0.0
-6023,-19413,22013,0.0
-6023,-19788,21943,0.0
-6029,-20187,21894,0.0
-6034,-20587,21837,0.0
-6036,-20982,21769,0.0
-6034,-21370,21686,0.0
-6034,-21773,21612,0.0
-6038,-22194,21550,0.0
-17,-62,59,0.0
-21,-81,76,0.0
-20,-73,67,0.0
-18,-68,61,0.0
-21,-87,75,0.0
-19,-74,63,0.0
-20,-81,67,0.0
-22,-93,76,0.0
0,0,0,0.0
-21,-93,72,0.0
-18,-80,60,0.0
0,0,0,0.0
-397,-1847,1340,0.0
0,0,0,0.0
-405,-1957,1356,0.0
0,0,0,0.0
0,0,0,0.0
0,0,0,0.0
0,0,0,0.0
0,0,0,0.0
0,0,0,0.0
0,0,0,0.0
0,0,0,0.0
0,0,0,0.0
-357,-2082,1128,0.0
-26,-152,80,0.0
-27,-164,84,0.0
-28,-172,86,0.0
-30,-185,90,0.0
-32,-200,95,0.0
-31,-201,92,0.0
-31,-214,95,0.0
-35,-240,104,0.0
-36,-251,105,0.0
-37,-262,108,0.0
-40,-291,115,0.0
-43,-317,122,0.0
-45,-347,129,0.0
-43,-342,123,0.0
-43,-348,120,0.0
-42,-342,115,0.0
-41,-344,111,0.0
-40,-349,109,0.0
-40,-351,105,0.0
-39,-356,102,0.0
0,0,0,0.0
-1971,32965,32473,0.0
-913,14492,14583,0.0
-946,14273,14671,0.0
-2140,30716,32257,0.0
-2164,29609,31769,0.0
-2222,29023,31814,0.0
-2267,28303,31700,0.0
-2335,27875,31902,0.0
-2361,26988,31564,0.0
-2364,25897,30955,0.0
-2420,25415,31050,0.0
-1537,15497,19352,0.0
-2476,23973,30607,0.0
-1588,14774,19287,0.0
-1701,15215,20311,0.0
-1729,14883,20322,0.0
-1754,14526,20288,0.0
-1858,14818,21175,0.0
-1883,14460,21145,0.0
-1922,14220,21285,0.0
-2759,19668,30138,0.0
-2836,19486,30576,0.0
-2874,19034,30592,0.0
-2932,18725,30834,0.0
-2954,18193,30702,0.0
-3267,19403,33568,0.0
-3292,18855,33451,0.0
-2650,14635,26636,0.0
0,0,0,0.0
-2811,14437,27684,0.0
-2830,14014,27600,0.0
-2851,13606,27535,0.0
-2879,13243,27549,0.0
-2914,12912,27627,0.0
-2964,12657,27868,0.0
-2926,12031,27273,0.0
-2935,11612,27122,0.0
-2946,11218,27010,0.0
-3195,11700,29061,0.0
-3221,11340,29080,0.0
-3575,12093,32037,0.0
-3602,11698,32045,0.0
-3623,11290,32007,0.0
0,0,0,0.0
-3649,10440,31794,0.0
0,0,0,0.0
-3651,9559,31410,0.0
-3662,9155,31307,0.0
-3719,8867,31602,0.0
-3840,8719,32435,0.0
-3206,6922,26918,0.0
-3323,6812,27747,0.0
-3358,6523,27886,0.0
-3364,6180,27784,0.0
-3370,5840,27683,0.0
-3378,5509,27609,0.0
-3385,5180,27523,0.0
-3385,4845,27393,0.0
-3395,4529,27349,0.0
-3403,4210,27277,0.0
-3409,3893,27197,0.0
-3413,3579,27117,0.0
-3421,3271,27061,0.0
-3424,2959,26965,0.0
-3427,2651,26870,0.0
-3433,2350,26814,0.0
-3431,2044,26695,0.0
-3373,1714,26137,0.0
-3317,1397,25604,0.0
-3343,1120,25709,0.0
-3334,832,25546,0.0
-3363,554,25678,0.0
-3448,278,26242,0.0
-3447,-8,26144,0.0
-3452,-295,26086,0.0
-3449,-579,25983,0.0
-3449,-862,25900,0.0
-3450,-1143,25822,0.0
-3452,-1424,25765,0.0
-3454,-1705,25708,0.0
-3460,-1985,25668,0.0
-3457,-2261,25574,0.0
-3457,-2537,25508,0.0
-3458,-2814,25444,0.0
-3456,-3088,25365,0.0
-3452,-3357,25269,0.0
-3454,-3634,25224,0.0
-3451,-3905,25141,0.0
-3450,-4176,25072,0.0
-3453,-4455,25040,0.0
-3447,-4720,24937,0.0
-3440,-4982,24830,0.0
-3441,-5258,24791,0.0
-3440,-5530,24726,0.0
-3434,-5795,24638,0.0
-3429,-6058,24544,0.0
-3433,-6341,24532,0.0
-3425,-6602,24430,0.0
-3418,-6864,24336,0.0
-3417,-7139,24288,0.0
-3407,-7396,24176,0.0
-3414,-7689,24181,0.0
-3397,-7932,24030,0.0
-3407,-8238,24066,0.0
-3394,-8488,23934,0.0
-3393,-8770,23894,0.0
-3393,-9058,23865,0.0
-3384,-9321,23769,0.0
-3382,-9607,23727,0.0
-3377,-9886,23666,0.0
-3379,-10186,23652,0.0
-3370,-10457,23567,0.0
-3362,-10731,23485,0.0
-3358,-11019,23430,0.0
-3360,-11333,23430,0.0
-3342,-11578,23281,0.0
-3344,-11898,23281,0.0
-3338,-12187,23216,0.0
-3333,-12488,23168,0.0
-3323,-12772,23085,0.0
-3323,-13100,23078,0.0
-3310,-13378,22977,0.0
-3310,-13708,22962,0.0
-3301,-14011,22897,0.0
-3294,-14321,22838,0.0
-3289,-14648,22802,0.0
-3281,-14966,22745,0.0
-3267,-15257,22643,0.0
-3256,-15571,22573,0.0
-3259,-15954,22595,0.0
-3245,-16259,22502,0.0
-3239,-16612,22469,0.0
-3226,-16930,22382,0.0
-3219,-17289,22345,0.0
-3210,-17643,22296,0.0
-3191,-17946,22177,0.0
-3185,-18332,22154,0.0
-3172,-18672,22070,0.0
-3161,-19043,22017,0.0
-3146,-19399,21939,0.0
-3135,-19781,21887,0.0
-3119,-20137,21798,0.0
-3107,-20527,21739,0.0
-3100,-20965,21724,0.0
-3081,-21325,21620,0.0
-3062,-21700,21526,0.0
-3047,-22112,21461,0.0
-3035,-22549,21414,0.0
-3009,-22891,21270,0.0
-2994,-23328,21207,0.0
-2971,-23720,21097,0.0
-8,-73,64,0.0
-2942,-24667,20997,0.0
-10,-88,73,0.0
-12,-98,80,0.0
0,0,0,0.0
0,0,0,0.0
0,0,0,0.0
0,0,0,0.0
0,0,0,0.0
0,0,0,0.0
0,0,0,0.0
0,0,0,0.0
0,0,0,0.0
0,0,0,0.0
-171,-2035,1288,0.0
0,0,0,0.0
0,0,0,0.0
0,0,0,0.0
0,0,0,0.0
-154,-2148,1201,0.0
-12,-170,92,0.0
-11,-176,93,0.0
-12,-182,94,0.0
-12,-197,99,0.0
-13,-216,105,0.0
-12,-212,101,0.0
-13,-228,105,0.0
-12,-232,104,0.0
-13,-250,109,0.0
-13,-260,111,0.0
-13,-280,115,0.0
-13,-285,114,0.0
-13,-317,123,0.0
-13,-329,123,0.0
-13,-341,123,0.0
-12,-344,121,0.0
-12,-351,119,0.0
-11,-354,115,0.0
-10,-351,110,0.0
-9,-353,107,0.0
842,15079,14780,0.0
800,14718,14736,0.0
757,14338,14664,0.0
705,13756,14372,0.0
676,13597,14513,0.0
638,13250,14448,0.0
616,13219,14728,0.0
591,13140,14958,0.0
565,13032,15158,0.0
538,12897,15331,0.0
1018,25441,30907,0.0
957,24981,31018,0.0
595,16294,20682,0.0
558,16021,20790,0.0
511,15473,20530,0.0
483,15459,20976,0.0
424,14404,19990,0.0
419,15191,21568,0.0
381,14817,21525,0.0
342,14387,21388,0.0
307,14075,21418,0.0
319,16089,25066,0.0
281,15791,25195,0.0
244,15548,25411,0.0
207,15302,25624,0.0
171,15034,25802,0.0
134,14762,25976,0.0
100,14488,26144,0.0
64,14174,26243,0.0
28,13541,25729,0.0
-4,13386,26115,0.0
-36,12685,25419,0.0
-71,12864,26488,0.0
-102,12429,26313,0.0
-136,12250,26678,0.0
-169,12093,27104,0.0
-191,11283,26041,0.0
-225,11206,26650,0.0
-259,11054,27104,0.0
-341,12733,32211,0.0
-372,12271,32053,0.0
-404,11853,31995,0.0
-434,11454,31976,0.0
-464,11031,31878,0.0
0,0,0,0.0
-518,10191,31647,0.0
-544,9789,31568,0.0
-566,9322,31255,0.0
-595,8998,31405,0.0
-630,8767,31898,0.0
-672,8598,32663,0.0
-578,6819,27094,0.0
-613,6675,27789,0.0
-633,6351,27762,0.0
-652,6024,27708,0.0
-669,5684,27584,0.0
-686,5364,27533,0.0
-700,5032,27405,0.0
-716,4712,27327,0.0
-731,4401,27285,0.0
-745,4082,27177,0.0
-758,3772,27114,0.0
-770,3458,26996,0.0
-784,3156,26947,0.0
-796,2853,26877,0.0
-806,2547,26766,0.0
-817,2251,26703,0.0
-791,1867,25444,0.0
-799,1583,25337,0.0
-809,1307,25322,0.0
-831,1046,25664,0.0
-834,760,25414,0.0
-849,488,25585,0.0
-874,214,26044,0.0
-879,-67,25921,0.0
-890,-348,25958,0.0
-894,-626,25833,0.0
-900,-905,25786,0.0
-904,-1180,25673,0.0
-904,-1448,25496,0.0
-912,-1728,25536,0.0
-916,-2000,25457,0.0
-921,-2277,25438,0.0
-924,-2548,25377,0.0
-922,-2804,25171,0.0
-927,-3083,25190,0.0
-928,-3351,25115,0.0
-930,-3622,25067,0.0
-931,-3890,25008,0.0
-932,-4158,24950,0.0
-928,-4405,24769,0.0
-931,-4688,24798,0.0
-931,-4959,24760,0.0
-930,-5223,24688,0.0
-929,-5495,24650,0.0
-925,-5749,24531,0.0
-925,-6029,24528,0.0
-922,-6292,24456,0.0
-919,-6560,24399,0.0
-914,-6815,24292,0.0
-906,-7053,24130,0.0
-903,-7332,24114,0.0
-893,-7549,23896,0.0
-890,-7835,23894,0.0
-886,-8109,23853,0.0
-876,-8353,23726,0.0
-875,-8664,23783,0.0
-868,-8935,23723,0.0
-859,-9189,23619,0.0
-854,-9499,23654,0.0
-842,-9717,23461,0.0
-839,-10061,23564,0.0
-831,-10337,23502,0.0
-823,-10638,23494,0.0
-810,-10881,23356,0.0
-802,-11192,23358,0.0
-791,-11466,23279,0.0
-779,-11757,23232,0.0
-768,-12044,23174,0.0
-756,-12346,23138,0.0
-744,-12638,23081,0.0
-732,-12965,23081,0.0
-716,-13221,22950,0.0
-702,-13514,22884,0.0
-690,-13870,22915,0.0
-673,-14133,22792,0.0
-658,-14477,22791,0.0
-643,-14799,22750,0.0
-624,-15093,22661,0.0
-608,-15428,22631,0.0
-589,-15739,22558,0.0
-570,-16065,22503,0.0
-551,-16386,22435,0.0
-531,-16715,22374,0.0
-510,-17049,22313,0.0
-488,-17384,22247,0.0
-465,-17725,22186,0.0
-442,-18060,22110,0.0
-418,-18388,22021,0.0
-394,-18777,21999,0.0
-369,-19136,21935,0.0
-343,-19490,21859,0.0
-316,-19871,21808,0.0
-288,-20229,21724,0.0
-261,-20651,21702,0.0
-230,-21006,21601,0.0
-200,-21373,21510,0.0
-169,-21785,21455,0.0
-137,-22178,21376,0.0
-103,-22562,21280,0.0
-69,-23016,21244,0.0
-34,-23393,21128,0.0
1,-23869,21094,0.0
39,-24232,20954,0.0
78,-24760,20948,0.0
116,-24901,20609,0.0
152,-24646,19955,0.0
0,0,0,0.0
0,0,0,0.0
0,0,0,0.0
0,0,0,0.0
27,-2035,1474,0.0
0,0,0,0.0
0,0,0,0.0
0,0,0,0.0
0,0,0,0.0
0,0,0,0.0
0,0,0,0.0
0,0,0,0.0
50,-2006,1204,0.0
56,-2122,1243,0.0
0,0,0,0.0
0,0,0,0.0
4,-155,84,0.0
5,-167,88,0.0
5,-172,88,0.0
6,-180,90,0.0
6,-185,90,0.0
7,-204,97,0.0
8,-214,98,0.0
9,-233,104,0.0
9,-227,99,0.0
9,-231,98,0.0
11,-255,105,0.0
12,-264,105,0.0
13,-279,108,0.0
15,-327,122,0.0
17,-338,121,0.0
18,-349,122,0.0
18,-348,117,0.0
19,-349,114,0.0
19,-345,107,0.0
1778,13451,13252,0.0
1766,13401,13485,0.0
1769,13457,13834,0.0
1742,13293,13959,0.0
1806,13813,14818,0.0
1721,13198,14465,0.0
1708,13126,14699,0.0
1680,12941,14806,0.0
1617,12482,14594,0.0
1576,12189,14564,0.0
1625,12590,15374,0.0
1644,12753,15918,0.0
1633,12687,16188,0.0
1624,12632,16480,0.0
1614,12559,16754,0.0
1602,12478,17023,0.0
1593,12416,17326,0.0
1583,12341,17615,0.0
1574,12269,17920,0.0
1565,12192,18225,0.0
1558,12134,18566,0.0
1548,12050,18878,0.0
1541,11975,19212,0.0
1532,11889,19539,0.0
1525,11810,19889,0.0
1518,11730,20245,0.0
1512,11649,20613,0.0
1503,11550,20962,0.0
1497,11457,21333,0.0
1494,11390,21767,0.0
1488,11291,22156,0.0
1482,11192,22559,0.0
1478,11100,22993,0.0
1474,11007,23441,0.0
1469,10900,23879,0.0
1467,10806,24365,0.0
1467,10717,24887,0.0
1465,10609,25386,0.0
1462,10486,25871,0.0
1455,10330,26297,0.0
1521,10683,28083,0.0
1695,11764,31955,0.0
1660,11369,31942,0.0
1620,10936,31807,0.0
1586,10549,31793,0.0
1544,10098,31569,0.0
1512,9715,31538,0.0
1469,9262,31267,0.0
1445,8930,31383,0.0
1447,8740,32024,0.0
1188,7007,26809,0.0
1460,8393,33589,0.0
1185,6624,27784,0.0
1161,6293,27717,0.0
1137,5964,27647,0.0
1112,5632,27541,0.0
1089,5306,27456,0.0
1067,4983,27363,0.0
1047,4669,27310,0.0
1026,4352,27220,0.0
1007,4044,27167,0.0
989,3734,27090,0.0
970,3426,27002,0.0
952,3118,26900,0.0
935,2816,26828,0.0
920,2518,26766,0.0
903,2217,26639,0.0
890,1925,26599,0.0
843,1571,25529,0.0
859,1338,26357,0.0
827,1025,25665,0.0
810,741,25436,0.0
806,470,25600,0.0
811,197,26016,0.0
806,-83,26092,0.0
797,-364,26039,0.0
787,-642,25940,0.0
778,-919,25850,0.0
771,-1196,25807,0.0
760,-1462,25587,0.0
759,-1746,25678,0.0
709,-1904,24149,0.0
726,-2228,24847,0.0
722,-2495,24811,0.0
710,-2728,24473,0.0
734,-3098,25318,0.0
730,-3367,25249,0.0
727,-3631,25161,0.0
726,-3900,25101,0.0
725,-4168,25043,0.0
724,-4434,24979,0.0
722,-4690,24861,0.0
721,-4953,24784,0.0
723,-5221,24736,0.0
724,-5488,24679,0.0
726,-5752,24612,0.0
729,-6019,24554,0.0
730,-6267,24431,0.0
734,-6537,24388,0.0
737,-6798,24313,0.0
741,-7054,24216,0.0
747,-7327,24181,0.0
753,-7600,24141,0.0
759,-7860,24057,0.0
754,-7997,23611,0.0
772,-8377,23883,0.0
781,-8665,23878,0.0
745,-8423,22454,0.0
799,-9207,23761,0.0
762,-8929,22327,0.0
820,-9755,23649,0.0
830,-10029,23587,0.0
842,-10304,23528,0.0
850,-10536,23370,0.0
864,-10824,23335,0.0
874,-11068,23199,0.0
894,-11422,23294,0.0
909,-11713,23249,0.0
926,-12009,23211,0.0
942,-12296,23152,0.0
958,-12574,23072,0.0
977,-12883,23044,0.0
994,-13174,22980,0.0
1012,-13462,22906,0.0
1003,-13373,22203,0.0
999,-13340,21619,0.0
1012,-13553,21443,0.0
1034,-13854,21406,0.0
1119,-14997,22634,0.0
1138,-15249,22483,0.0
1168,-15644,22539,0.0
1192,-15947,22454,0.0
1144,-15284,21037,0.0
1175,-15664,21078,0.0
1197,-15921,20949,0.0
1220,-16186,20826,0.0
1230,-16269,20474,0.0
1226,-16158,19890,0.0
1255,-16468,19832,0.0
1326,-17340,20431,0.0
1464,-19055,21966,0.0
1366,-17694,19958,0.0
1366,-17600,19426,0.0
1398,-17926,19363,0.0
1434,-18284,19327,0.0
1468,-18610,19251,0.0
1503,-18955,19191,0.0
1539,-19285,19108,0.0
1575,-19616,19021,0.0
1614,-19958,18941,0.0
1653,-20309,18861,0.0
1693,-20653,18770,0.0
1737,-21045,18716,0.0
1781,-21431,18650,0.0
1826,-21819,18577,0.0
1871,-22187,18483,0.0
1917,-22576,18398,0.0
1964,-22938,18286,0.0
2016,-23365,18217,0.0
2049,-23571,17974,0.0
0,0,0,0.0
162,-1850,1349,0.0
0,0,0,0.0
0,0,0,0.0
0,0,0,0.0
0,0,0,0.0
0,0,0,0.0
0,0,0,0.0
0,0,0,0.0
194,-2062,1246,0.0
0,0,0,0.0
0,0,0,0.0
207,-2143,1203,0.0
209,-2148,1176,0.0
16,-162,87,0.0
17,-172,89,0.0
17,-175,88,0.0
17,-180,88,0.0
20,-200,95,0.0
21,-215,99,0.0
24,-235,106,0.0
26,-247,108,0.0
24,-240,102,0.0
27,-266,110,0.0
30,-278,111,0.0
30,-285,111,0.0
35,-329,124,0.0
38,-348,127,0.0
39,-358,126,0.0
40,-361,123,0.0
40,-349,115,0.0
39,-352,111,0.0
-4025,16153,14733,0.0
-4105,16089,14993,0.0
-4187,16031,15262,0.0
-4270,15969,15534,0.0
-4357,15915,15817,0.0
-4417,15756,16001,0.0
-4510,15716,16308,0.0
-4552,15489,16424,0.0
-4521,15029,16286,0.0
-4611,14968,16576,0.0
-4721,14965,16938,0.0
-4991,15449,17873,0.0
-5088,15379,18188,0.0
-5191,15314,18516,0.0
-5286,15225,18823,0.0
-5348,15035,19008,0.0
-5444,14936,19312,0.0
-5367,14370,19006,0.0
-5438,14206,19222,0.0
-5806,14797,20487,0.0
-6639,16500,23382,0.0
0,0,0,0.0
-6905,16314,24231,0.0
-6981,16074,24452,0.0
-6997,15700,24466,0.0
-6962,15217,24300,0.0
-6964,14826,24268,0.0
-6966,14436,24226,0.0
-6962,14043,24172,0.0
-6919,13578,23980,0.0
-6900,13170,23873,0.0
-9628,17867,33253,0.0
-9634,17373,33214,0.0
-9632,16871,33148,0.0
-9610,16344,33015,0.0
-9598,15840,32916,0.0
0,0,0,0.0
-9574,14856,32720,0.0
-8856,13313,30214,0.0
-8799,12805,29966,0.0
-8944,12592,30404,0.0
-9023,12281,30621,0.0
0,0,0,0.0
-9455,11998,31973,0.0
-9518,11648,32132,0.0
-9469,11163,31909,0.0
-9488,10764,31913,0.0
-9407,10258,31585,0.0
-9430,9874,31608,0.0
-9367,9402,31339,0.0
-9455,9087,31575,0.0
-9612,8832,32045,0.0
-7519,6593,25024,0.0
-7508,6271,24938,0.0
-7489,5946,24834,0.0
-7488,5639,24781,0.0
-7488,5335,24738,0.0
-7479,5027,24660,0.0
-7457,4714,24545,0.0
-7459,4418,24503,0.0
-7441,4115,24401,0.0
-7454,3830,24397,0.0
-7429,3529,24269,0.0
-7442,3248,24267,0.0
-7425,2954,24167,0.0
-7431,2673,24135,0.0
-7403,2382,24000,0.0
-7410,2105,23974,0.0
-7399,1824,23891,0.0
-7402,1547,23858,0.0
-7392,1270,23774,0.0
-7379,996,23687,0.0
-7385,724,23659,0.0
-7376,453,23585,0.0
-7375,184,23533,0.0
-7373,-84,23478,0.0
-7382,-352,23455,0.0
-7321,-613,23213,0.0
-7402,-886,23423,0.0
-7695,-1197,24299,0.0
-8048,-1540,25358,0.0
-8383,-1903,26357,2.0
-8439,-2216,26475,2.0
-8490,-2531,26577,2.0
-8611,-2872,26893,2.0
-8736,-3223,27227,2.0
-8804,-3559,27377,2.0
-8844,-3887,27439,2.0
-8902,-4225,27555,2.0
-8967,-4571,27693,2.0
-9032,-4922,27830,2.0
-9108,-5283,27998,2.0
-9158,-5633,28084,2.0
-9151,-5948,27994,2.0
-9124,-6251,27846,2.0
-9081,-6539,27649,2.0
-9232,-6971,28038,2.0
-9320,-7363,28234,2.0
-9408,-7762,28428,2.0
-9495,-8167,28619,2.0
-9559,-8559,28738,2.0
-9564,-8898,28677,2.0
-9542,-9215,28538,2.0
-9533,-9541,28433,2.0
-9465,-9807,28155,2.0
-9434,-10108,27986,2.0
-9402,-10407,27814,2.0
-9271,-10591,27351,2.0
-9207,-10845,27083,2.0
-9278,-11260,27215,2.0
-9373,-11711,27416,2.0
-9422,-12110,27477,2.0
-9478,-12523,27556,2.0
-9482,-12870,27486,2.0
-9521,-13268,27514,2.0
-9422,-13472,27142,2.0
-9431,-13832,27087,2.0
-9352,-14058,26773,2.0
-9229,-14213,26337,2.0
-9185,-14486,26125,2.0
-9153,-14773,25946,2.0
-9072,-14982,25630,2.0
-9026,-15246,25414,2.0
-8980,-15507,25195,2.0
-8904,-15714,24895,2.0
-8854,-15964,24666,2.0
-8777,-16161,24360,2.0
-8740,-16433,24171,2.0
0,0,0,0.0
-8396,-16441,23044,0.0
-8174,-16329,22349,0.0
-7911,-16116,21541,0.0
-7772,-16143,21076,0.0
-7587,-16065,20492,0.0
-7434,-16043,19994,0.0
-7413,-16303,19854,0.0
-7429,-16645,19813,0.0
-7449,-17001,19779,0.0
-7455,-17326,19704,0.0
-7452,-17634,19605,0.0
-7462,-17977,19540,0.0
-7468,-18314,19463,0.0
-7494,-18706,19437,0.0
-7493,-19031,19336,0.0
-7502,-19389,19262,0.0
-7503,-19729,19166,0.0
-7502,-20067,19062,0.0
-7512,-20441,18987,0.0
-7543,-20876,18960,0.0
-7559,-21273,18892,0.0
-7555,-21622,18773,0.0
-7561,-22004,18679,0.0
-7579,-22426,18612,0.0
-7592,-22837,18526,0.0
-7588,-23204,18401,0.0
-7521,-23382,18122,0.0
0,0,0,0.0
0,0,0,0.0
0,0,0,0.0
0,0,0,0.0
0,0,0,0.0
0,0,0,0.0
0,0,0,0.0
0,0,0,0.0
0,0,0,0.0
0,0,0,0.0
0,0,0,0.0
0,0,0,0.0
0,0,0,0.0
-545,-2127,1175,0.0
0,0,0,0.0
-525,-2122,1112,0.0
0,0,0,0.0
0,0,0,0.0
-42,-178,86,0.0
-46,-200,93,0.0
-46,-204,92,0.0
-52,-233,103,0.0
-52,-237,102,0.0
-55,-259,109,0.0
-57,-268,108,0.0
-62,-301,118,0.0
-66,-324,123,0.0
-69,-341,125,0.0
-69,-348,123,0.0
-68,-352,120,0.0
-67,-348,115,0.0
-64,-343,110,0.0
-64,-348,107,0.0
-63,-351,104,0.0
-62,-354,101,0.0
-61,-349,95,0.0
123,-326,65,0.0
119,-310,65,0.0
118,-304,68,0.0
117,-298,70,0.0
115,-290,71,0.0
114,-281,72,0.0
115,-279,74,0.0
117,-282,79,0.0
114,-271,79,0.0
112,-261,79,0.0
112,-258,82,0.0
113,-257,84,0.0
113,-256,87,0.0
114,-255,90,0.0
116,-255,93,0.0
116,-253,96,0.0
117,-249,98,0.0
116,-246,99,0.0
123,-256,107,0.0
120,-246,106,0.0
120,-244,108,0.0
119,-239,110,0.0
129,-256,120,0.0
125,-244,119,0.0
129,-247,123,0.0
127,-240,123,0.0
131,-243,129,0.0
149,-274,149,0.0
154,-279,156,0.0
156,-279,160,0.0
139,-247,145,0.0
130,-226,137,0.0
121,-207,129,0.0
114,-194,123,0.0
1102,-1829,1196,0.0
0,0,0,0.0
1111,-1792,1233,0.0
0,0,0,0.0
0,0,0,0.0
0,0,0,0.0
0,0,0,0.0
15552,-23270,18126,0.0
15470,-22793,18195,0.0
15431,-22388,18311,0.0
15373,-21958,18401,0.0
15292,-21500,18459,0.0
15273,-21133,18588,0.0
15199,-20696,18647,0.0
15176,-20330,18767,0.0
15071,-19860,18781,0.0
15079,-19542,18932,0.0
15016,-19135,18991,0.0
14983,-18770,19087,0.0
14917,-18367,19135,0.0
14907,-18036,19254,0.0
14855,-17659,19317,0.0
14837,-17324,19421,0.0
14791,-16958,19484,0.0
14676,-16518,19456,0.0
14696,-16233,19602,0.0
14953,-16205,20065,0.0
15327,-16293,20688,0.0
15586,-16245,21160,0.0
16076,-16425,21949,0.0
16536,-16555,22702,0.0
0,0,0,0.0
0,0,0,0.0
0,0,0,0.0
0,0,0,0.0
0,0,0,0.0
18658,-16401,26419,1.0
0,0,0,0.0
0,0,0,0.0
0,0,0,0.0
18603,-14857,26837,1.0
0,0,0,0.0
0,0,0,0.0
0,0,0,0.0
0,0,0,0.0
18732,-13092,27603,1.0
18870,-12813,27918,1.0
18925,-12476,28109,1.0
0,0,0,0.0
0,0,0,0.0
0,0,0,0.0
0,0,0,0.0
0,0,0,0.0
0,0,0,0.0
0,0,0,0.0
0,0,0,0.0
0,0,0,0.0
0,0,0,0.0
0,0,0,0.0
0,0,0,0.0
0,0,0,0.0
0,0,0,0.0
18839,-6828,29425,1.0
0,0,0,0.0
0,0,0,0.0
0,0,0,0.0
0,0,0,0.0
0,0,0,0.0
18581,-4518,29495,1.0
18557,-4142,29530,1.0
18659,-3791,29767,1.0
0,0,0,0.0
0,0,0,0.0
0,0,0,0.0
18529,-2274,29833,1.0
15486,-1588,24989,0.0
14835,-1221,23989,0.0
14208,-881,23023,0.0
14180,-590,23023,0.0
14238,-302,23164,0.0
14244,-10,23218,0.0
14248,281,23268,0.0
14277,576,23358,0.0
14265,870,23381,0.0
14308,1170,23490,0.0
14336,1470,23576,0.0
14340,1770,23620,0.0
14367,2074,23703,0.0
14389,2380,23777,0.0
14399,2686,23827,0.0
14448,3001,23943,0.0
14445,3308,23972,0.0
14481,3626,24062,0.0
14484,3939,24100,0.0
14557,4273,24251,0.0
14563,4590,24290,0.0
14578,4912,24342,0.0
14615,5245,24432,0.0
14593,5558,24421,0.0
14653,5905,24545,0.0
14709,6255,24662,0.0
14740,6597,24735,0.0
18752,8816,31497,0.0
30,15,52,0.0
26,13,46,0.0
33,18,56,0.0
44,25,76,0.0
35,21,61,0.0
48,29,82,0.0
35,22,60,0.0
40,26,69,0.0
48,32,82,0.0
43,30,74,0.0
48,35,82,0.0
48,37,82,0.0
53,41,90,0.0
62,50,106,0.0
63,52,108,0.0
62,52,105,0.0
63,55,107,0.0
61,55,105,0.0
70,64,119,0.0
61,58,104,0.0
60,59,102,0.0
69,70,118,0.0
61,63,104,0.0
62,65,105,0.0
64,70,109,0.0
63,70,107,0.0
70,80,120,0.0
68,79,115,0.0
64,77,108,0.0
67,82,113,0.0
70,88,118,0.0
70,90,118,0.0
70,93,119,0.0
72,97,122,0.0
71,98,120,0.0
72,102,121,0.0
69,100,116,0.0
70,103,118,0.0
73,110,123,0.0
72,110,121,0.0
73,115,122,0.0
77,122,127,0.0
75,122,125,0.0
73,123,122,0.0
74,127,124,0.0
76,131,125,0.0
74,132,123,0.0
75,136,123,0.0
75,139,124,0.0
74,140,121,0.0
77,148,125,0.0
75,147,122,0.0
79,158,128,0.0
77,157,125,0.0
80,165,128,0.0
125,-335,69,0.0
118,-316,69,0.0
116,-304,69,0.0
117,-303,73,0.0
114,-293,74,0.0
118,-297,78,0.0
110,-275,74,0.0
111,-274,78,0.0
111,-270,80,0.0
110,-265,82,0.0
111,-264,85,0.0
112,-261,87,0.0
112,-259,89,0.0
108,-245,88,0.0
112,-252,93,0.0
115,-256,99,0.0
116,-253,100,0.0
116,-251,103,0.0
115,-245,103,0.0
120,-251,110,0.0
119,-247,111,0.0
121,-247,115,0.0
125,-251,120,0.0
122,-244,119,0.0
125,-246,123,0.0
129,-249,129,0.0
134,-256,137,0.0
156,-293,161,0.0
154,-285,161,0.0
150,-274,159,0.0
140,-253,151,0.0
132,-235,143,0.0
129,-226,142,0.0
123,-211,136,0.0
1093,-1854,1223,0.0
0,0,0,0.0
0,0,0,0.0
0,0,0,0.0
0,0,0,0.0
0,0,0,0.0
15183,-23566,18037,0.0
15160,-23174,18176,0.0
15068,-22681,18227,0.0
15039,-22290,18352,0.0
14964,-21834,18416,0.0
14932,-21445,18529,0.0
14861,-21005,18592,0.0
14818,-20610,18686,0.0
14773,-20214,18773,0.0
14706,-19794,18830,0.0
14683,-19437,18940,0.0
14616,-19024,18990,0.0
14603,-18687,19109,0.0
14549,-18298,19170,0.0
14516,-17940,19257,0.0
14505,-17611,19369,0.0
14434,-17214,19400,0.0
14424,-16890,19510,0.0
14368,-16517,19555,0.0
14280,-16110,19552,0.0
14632,-16196,20154,0.0
14965,-16248,20733,0.0
15269,-16255,21275,0.0
15717,-16401,22020,0.0
16168,-16533,22777,0.0
18115,-18144,25656,1.0
0,0,0,0.0
18256,-17526,26126,1.0
0,0,0,0.0
18317,-16826,26474,1.0
0,0,0,0.0
0,0,0,0.0
0,0,0,0.0
0,0,0,0.0
0,0,0,0.0
0,0,0,0.0
0,0,0,0.0
0,0,0,0.0
18466,-13564,27786,1.0
18512,-13222,27967,1.0
18422,-12784,27941,1.0
18485,-12455,28146,1.0
0,0,0,0.0
0,0,0,0.0
0,0,0,0.0
0,0,0,0.0
0,0,0,0.0
0,0,0,0.0
0,0,0,0.0
0,0,0,0.0
0,0,0,0.0
0,0,0,0.0
0,0,0,0.0
0,0,0,0.0
0,0,0,0.0
0,0,0,0.0
18542,-6885,29678,1.0
0,0,0,0.0
18622,-6163,29974,1.0
0,0,0,0.0
0,0,0,0.0
18818,-5084,30532,1.0
0,0,0,0.0
0,0,0,0.0
0,0,0,0.0
18298,-3451,29979,1.0
0,0,0,0.0
0,0,0,0.0
0,0,0,0.0
15256,-1625,25223,0.0
14501,-1245,24027,0.0
13888,-905,23058,0.0
13868,-617,23072,0.0
13930,-329,23222,0.0
13899,-39,23215,0.0
13932,252,23313,0.0
13910,544,23320,0.0
13950,838,23428,0.0
13966,1135,23495,0.0
13981,1432,23561,0.0
13989,1731,23614,0.0
14036,2036,23731,0.0
14058,2341,23805,0.0
14042,2641,23813,0.0
14102,2957,23950,0.0
14073,3256,23934,0.0
14130,3578,24063,0.0
14158,3894,24143,0.0
14164,4208,24183,0.0
14179,4525,24238,0.0
14226,4856,24348,0.0
14233,5176,24388,0.0
14293,5519,24518,0.0
14297,5843,24549,0.0
14347,6189,24658,0.0
14333,6510,24659,0.0
40,19,70,0.0
18144,9076,31269,0.0
34,17,60,0.0
32,18,57,0.0
41,23,71,0.0
36,21,64,0.0
39,24,69,0.0
41,26,72,0.0
49,33,86,0.0
35,25,62,0.0
48,34,85,0.0
41,31,72,0.0
53,40,92,0.0
49,38,85,0.0
56,46,99,0.0
58,48,102,0.0
63,55,111,0.0
61,55,107,0.0
68,63,120,0.0
64,61,112,0.0
60,58,104,0.0
69,68,120,0.0
68,70,119,0.0
68,72,118,0.0
68,74,120,0.0
63,70,110,0.0
65,74,114,0.0
63,73,110,0.0
62,75,109,0.0
65,79,112,0.0
65,81,112,0.0
68,87,118,0.0
68,89,118,0.0
69,93,120,0.0
67,93,117,0.0
67,94,115,0.0
67,97,117,0.0
70,103,121,0.0
68,103,119,0.0
71,109,123,0.0
69,110,120,0.0
69,111,120,0.0
70,114,120,0.0
71,119,122,0.0
73,125,126,0.0
71,123,121,0.0
71,126,121,0.0
72,131,123,0.0
74,137,126,0.0
74,139,124,0.0
76,146,129,0.0
74,145,125,0.0
75,150,125,0.0
75,153,126,0.0
77,160,129,0.0
75,159,125,0.0
122,-339,71,0.0
117,-320,71,0.0
115,-310,72,0.0
115,-306,74,0.0
114,-299,76,0.0
110,-286,75,0.0
112,-286,79,0.0
108,-274,79,0.0
113,-282,85,0.0
108,-267,83,0.0
107,-260,84,0.0
110,-263,89,0.0
108,-256,89,0.0
111,-260,94,0.0
112,-257,96,0.0
115,-262,101,0.0
118,-264,106,0.0
118,-260,108,0.0
117,-256,110,0.0
119,-256,112,0.0
120,-253,115,0.0
122,-255,119,0.0
122,-252,121,0.0
123,-249,123,0.0
121,-243,124,0.0
125,-246,129,0.0
139,-270,145,0.0
145,-280,155,0.0
154,-290,165,0.0
144,-271,158,0.0
137,-253,151,0.0
128,-233,144,0.0
112,-201,126,0.0
116,-206,134,0.0
1096,-1902,1263,0.0
0,0,0,0.0
0,0,0,0.0
0,0,0,0.0
0,0,0,0.0
0,0,0,0.0
14791,-23462,18081,0.0
14737,-23023,18178,0.0
14705,-22623,18300,0.0
14650,-22190,18388,0.0
14586,-21750,18462,0.0
14536,-21334,18549,0.0
14481,-20918,18628,0.0
14445,-20532,18727,0.0
14379,-20107,18785,0.0
14371,-19767,18914,0.0
14300,-19342,18957,0.0
14269,-18978,19051,0.0
14215,-18586,19114,0.0
14161,-18198,19170,0.0
14161,-17883,19298,0.0
14103,-17497,19345,0.0
14067,-17140,19419,0.0
14046,-16805,19511,0.0
14024,-16473,19600,0.0
13972,-16107,19644,0.0
14257,-16125,20163,0.0
14596,-16191,20760,0.0
14968,-16282,21409,0.0
15436,-16458,22200,0.0
0,0,0,0.0
0,0,0,0.0
0,0,0,0.0
0,0,0,0.0
0,0,0,0.0
0,0,0,0.0
0,0,0,0.0
18048,-16183,27021,1.0
18133,-15879,27273,1.0
0,0,0,0.0
18166,-15149,27567,1.0
0,0,0,0.0
0,0,0,0.0
0,0,0,0.0
18291,-13734,28227,1.0
0,0,0,0.0
18233,-12937,28360,1.0
0,0,0,0.0
0,0,0,0.0
18340,-11879,28852,1.0
0,0,0,0.0
0,0,0,0.0
0,0,0,0.0
0,0,0,0.0
0,0,0,0.0
0,0,0,0.0
0,0,0,0.0
0,0,0,0.0
0,0,0,0.0
0,0,0,0.0
0,0,0,0.0
0,0,0,0.0
0,0,0,0.0
0,0,0,0.0
0,0,0,0.0
18324,-5841,30313,1.0
0,0,0,0.0
18435,-5113,30656,1.0
18506,-4750,30852,1.0
0,0,0,0.0
18041,-3882,30226,1.0
17819,-3463,29925,1.0
17886,-3102,30106,1.0
17850,-2723,30115,1.0
0,0,0,0.0
14993,-1659,25407,0.0
14147,-1267,24024,0.0
13547,-928,23052,0.0
13550,-642,23107,0.0
13571,-355,23187,0.0
13560,-66,23215,0.0
13580,222,23291,0.0
13594,513,23357,0.0
13620,807,23446,0.0
13608,1099,23465,0.0
13619,1394,23525,0.0
13656,1694,23627,0.0
13673,1994,23697,0.0
13730,2303,23832,0.0
13713,2601,23838,0.0
13720,2904,23885,0.0
13767,3219,24002,0.0
13788,3531,24071,0.0
13821,3847,24162,0.0
13812,4155,24179,0.0
13843,4477,24262,0.0
