//X,Y,Z,Classification
1829,1353,20027,0.0
1821,1576,20073,0.0
1813,1801,20120,0.0
1805,2027,20172,0.0
1798,2256,20235,0.0
1789,2485,20289,0.0
1781,2719,20351,0.0
1773,2952,20410,0.0
1761,3185,20447,0.0
1751,3422,20500,0.0
1741,3662,20559,0.0
1730,3904,20612,0.0
4,8,45,0.0
3,7,35,0.0
3,8,39,0.0
3,8,39,0.0
4,14,56,0.0
4,15,61,0.0
5,16,60,0.0
5,16,59,0.0
5,21,73,0.0
6,25,81,0.0
6,23,76,0.0
6,28,86,0.0
8,34,101,0.0
7,33,94,0.0
7,36,101,0.0
7,40,108,0.0
7,44,114,0.0
7,44,109,0.0
7,48,115,0.0
9,55,129,0.0
7,52,118,0.0
8,56,123,0.0
8,61,133,0.0
8,61,128,0.0
7,64,130,0.0
8,69,137,0.0
7,63,123,0.0
7,72,135,0.0
7,68,125,0.0
7,78,140,0.0
7,76,131,0.0
7,79,135,0.0
7,83,137,0.0
6,85,137,0.0
5,80,126,0.0
6,89,137,0.0
5,83,125,0.0
5,86,126,0.0
5,90,129,0.0
4,92,128,0.0
4,88,120,0.0
4,92,123,0.0
3,92,121,0.0
3,94,120,0.0
3,94,118,0.0
3,96,116,0.0
3,97,117,0.0
2,92,107,0.0
2,93,106,0.0
2,100,112,0.0
1,102,112,0.0
1,105,112,0.0
1,105,111,0.0
0,101,104,0.0
0,109,110,0.0
0,115,113,0.0
0,122,118,0.0
-15,-297,95,0.0
-13,-279,92,0.0
-13,-283,96,0.0
-12,-273,96,0.0
-11,-276,101,0.0
-11,-271,102,0.0
-10,-264,103,0.0
-10,-267,108,0.0
-10,-265,110,0.0
-8,-256,110,0.0
-9,-259,114,0.0
-8,-263,119,0.0
-7,-252,118,0.0
-7,-250,120,0.0
-7,-257,127,0.0
-6,-257,130,0.0
-6,-248,129,0.0
-5,-253,135,0.0
-5,-268,146,0.0
-5,-286,161,0.0
-4,-295,170,0.0
-4,-288,170,0.0
-4,-288,174,0.0
-4,-270,167,0.0
-2,-258,164,0.0
-2,-253,165,0.0
-2,-246,163,0.0
-1,-235,160,0.0
-1,-220,154,0.0
0,-203,145,0.0
0,-197,144,0.0
0,-170,126,0.0
0,-161,123,0.0
0,-182,142,0.0
0,-147,117,0.0
113,-21835,17811,0.0
137,-19968,16650,0.0
171,-19926,16983,0.0
207,-20117,17524,0.0
244,-20303,18074,0.0
274,-19961,18159,0.0
303,-19607,18227,0.0
307,-17829,16937,0.0
331,-17434,16923,0.0
355,-17078,16939,0.0
380,-16811,17039,0.0
403,-16515,17104,0.0
425,-16211,17156,0.0
447,-15927,17224,0.0
466,-15564,17202,0.0
478,-15012,16955,0.0
504,-14940,17246,0.0
528,-14806,17470,0.0
548,-14543,17540,0.0
567,-14300,17632,0.0
585,-14043,17703,0.0
601,-13766,17743,0.0
617,-13495,17788,0.0
633,-13246,17856,0.0
650,-13012,17945,0.0
664,-12741,17976,0.0
678,-12481,18020,0.0
692,-12236,18081,0.0
705,-11992,18141,0.0
717,-11730,18166,0.0
731,-11505,18250,0.0
744,-11271,18314,0.0
754,-11014,18339,0.0
764,-10770,18378,0.0
774,-10533,18430,0.0
786,-10316,18511,0.0
794,-10070,18540,0.0
806,-9857,18624,0.0
815,-9624,18670,0.0
823,-9403,18737,0.0
831,-9163,18764,0.0
839,-8942,18824,0.0
848,-8731,18905,0.0
852,-8487,18913,0.0
860,-8280,18998,0.0
866,-8051,19032,0.0
872,-7834,19094,0.0
878,-7612,19140,0.0
881,-7383,19165,0.0
886,-7167,19225,0.0
890,-6944,19261,0.0
895,-6729,19316,0.0
897,-6508,19356,0.0
901,-6296,19417,0.0
904,-6080,19469,0.0
906,-5859,19501,0.0
907,-5643,19544,0.0
909,-5427,19592,0.0
910,-5211,19638,0.0
912,-4998,19694,0.0
912,-4777,19716,0.0
913,-4566,19779,0.0
912,-4350,19817,0.0
913,-4140,19886,0.0
911,-3922,19921,0.0
909,-3706,19955,0.0
910,-3496,20036,0.0
906,-3275,20045,0.0
903,-3057,20078,0.0
903,-2846,20158,0.0
900,-2632,20216,0.0
896,-2412,20248,0.0
893,-2198,20316,0.0
889,-1981,20367,0.0
884,-1760,20387,0.0
879,-1542,20444,0.0
875,-1323,20505,0.0
868,-1102,20534,0.0
863,-881,20579,0.0
856,-660,20621,0.0
850,-436,20659,0.0
842,-214,20703,0.0
836,9,20774,0.0
827,235,20804,0.0
793,446,20184,0.0
771,655,19884,0.0
770,881,20130,0.0
856,1240,22699,0.0
840,1481,22611,0.0
836,1745,22847,0.0
806,1955,22400,0.0
757,2100,21395,0.0
705,2211,20263,0.0
744,2620,21820,0.0
725,2838,21662,0.0
691,2998,21102,0.0
679,3241,21169,0.0
673,3525,21465,0.0
659,3781,21564,0.0
644,4029,21607,0.0
628,4284,21667,0.0
2,13,63,0.0
1,8,37,0.0
1,13,59,0.0
1,12,53,0.0
2,19,74,0.0
1,12,48,0.0
2,17,67,0.0
1,20,70,0.0
2,19,67,0.0
1,19,61,0.0
1,26,81,0.0
2,33,99,0.0
1,29,84,0.0
1,31,88,0.0
1,35,96,0.0
2,41,108,0.0
2,42,107,0.0
1,44,109,0.0
1,53,127,0.0
1,52,120,0.0
1,55,123,0.0
0,58,126,0.0
0,59,125,0.0
0,68,139,0.0
0,67,134,0.0
0,65,126,0.0
0,73,139,0.0
0,74,138,0.0
0,73,133,0.0
0,75,132,0.0
0,84,142,0.0
-1,81,136,0.0
0,85,137,0.0
-1,79,126,0.0
-1,79,122,0.0
-2,88,133,0.0
-2,91,134,0.0
-2,93,134,0.0
-2,93,132,0.0
-2,90,123,0.0
-3,99,134,0.0
-3,93,123,0.0
-3,105,135,0.0
-4,95,119,0.0
-3,98,121,0.0
-3,97,116,0.0
-3,94,112,0.0
-4,100,115,0.0
-4,99,113,0.0
-5,105,117,0.0
-5,103,112,0.0
-5,101,108,0.0
-6,106,110,0.0
-6,112,114,0.0
-6,116,115,0.0
-6,122,119,0.0
-28,-329,106,0.0
-26,-306,101,0.0
-25,-304,105,0.0
-25,-302,107,0.0
-23,-291,107,0.0
-23,-281,107,0.0
-22,-277,109,0.0
-23,-289,117,0.0
-21,-276,116,0.0
-20,-275,118,0.0
-20,-276,122,0.0
-19,-269,123,0.0
-19,-269,126,0.0
-18,-263,128,0.0
-19,-271,134,0.0
-17,-260,132,0.0
-18,-264,138,0.0
-18,-282,151,0.0
-20,-297,163,0.0
-19,-299,169,0.0
-18,-299,173,0.0
-18,-292,173,0.0
-17,-282,172,0.0
-16,-266,166,0.0
-15,-268,171,0.0
-13,-249,163,0.0
-12,-232,155,0.0
-12,-233,159,0.0
-11,-208,146,0.0
-10,-196,140,0.0
-9,-183,134,0.0
-7,-170,127,0.0
-1156,-22967,17616,0.0
-1108,-22524,17664,0.0
-1066,-22140,17751,0.0
-1023,-21759,17833,0.0
-981,-21365,17897,0.0
-941,-20980,17963,0.0
-902,-20614,18038,0.0
-864,-20239,18097,0.0
-827,-19879,18164,0.0
-792,-19534,18238,0.0
-758,-19190,18308,0.0
-724,-18839,18365,0.0
-692,-18516,18442,0.0
-661,-18182,18505,0.0
-630,-17843,18555,0.0
-600,-17523,18619,0.0
-571,-17181,18655,0.0
-542,-16842,18686,0.0
-514,-16484,18691,0.0
-486,-16100,18657,0.0
-463,-15878,18805,0.0
-440,-15616,18904,0.0
-417,-15321,18961,0.0
-374,-14312,18106,0.0
-361,-14314,18517,0.0
-335,-13826,18289,0.0
-317,-13616,18421,0.0
-310,-13886,19217,0.0
-291,-13620,19282,0.0
-273,-13362,19356,0.0
-255,-13091,19407,0.0
-237,-12829,19469,0.0
-220,-12556,19509,0.0
-205,-12282,19542,0.0
-189,-12030,19607,0.0
-175,-11771,19657,0.0
-160,-11514,19707,0.0
-147,-11256,19752,0.0
-134,-10997,19789,0.0
-121,-10733,19816,0.0
-109,-10496,19885,0.0
-97,-10248,19934,0.0
-86,-9993,19963,0.0
-77,-9741,19997,0.0
-66,-9496,20040,0.0
-57,-9273,20128,0.0
-48,-9023,20153,0.0
-40,-8795,20227,0.0
-32,-8554,20267,0.0
-25,-8321,20322,0.0
-18,-8086,20371,0.0
-12,-7857,20434,0.0
-6,-7621,20477,0.0
-1,-7396,20551,0.0
3,-7131,20503,0.0
7,-6624,19728,0.0
11,-6611,20419,0.0
14,-6223,19953,0.0
18,-6170,20560,0.0
21,-5985,20749,0.0
23,-5772,20856,0.0
25,-5550,20927,0.0
27,-5329,21008,0.0
28,-5105,21076,0.0
28,-4877,21126,0.0
27,-4652,21188,0.0
27,-4429,21264,0.0
26,-4199,21305,0.0
25,-3972,21368,0.0
23,-3740,21402,0.0
21,-3517,21491,0.0
18,-3288,21545,0.0
15,-3058,21599,0.0
11,-2828,21661,0.0
8,-2597,21710,0.0
2,-2369,21800,0.0
-2,-2136,21838,0.0
-6,-1903,21896,0.0
-13,-1672,21971,0.0
-18,-1364,20914,0.0
-25,-1165,21411,0.0
-32,-938,21481,0.0
-41,-721,21975,0.0
-50,-489,22206,0.0
-58,-250,22224,0.0
-69,-11,22406,0.0
-78,230,22456,0.0
-89,474,22529,0.0
-100,719,22579,0.0
-111,966,22657,0.0
-124,1215,22732,0.0
-135,1459,22712,0.0
-149,1715,22845,0.0
-160,1933,22497,0.0
-171,2147,22182,0.0
-186,2399,22278,0.0
-204,2694,22720,0.0
-215,2877,22206,0.0
-241,3264,23227,0.0
-258,3537,23341,0.0
-277,3804,23400,0.0
-295,4075,23466,0.0
-314,4349,23536,0.0
-335,4629,23623,0.0
-355,4904,23672,0.0
-377,5189,23760,0.0
-399,5470,23811,0.0
-422,5764,23908,0.0
-446,6044,23934,0.0
0,14,57,0.0
-1,20,74,0.0
0,20,71,0.0
-1,25,86,0.0
-1,25,82,0.0
-1,27,87,0.0
-1,24,71,0.0
-1,29,85,0.0
-2,36,100,0.0
-2,34,94,0.0
-2,38,101,0.0
-2,43,109,0.0
-3,45,112,0.0
-4,50,121,0.0
-4,52,120,0.0
-4,55,124,0.0
-4,60,132,0.0
-5,67,143,0.0
-6,71,145,0.0
-5,69,138,0.0
-6,78,152,0.0
-7,79,152,0.0
-7,82,152,0.0
-7,82,147,0.0
-8,89,157,0.0
-8,91,158,0.0
-7,89,148,0.0
-8,89,146,0.0
-8,99,158,0.0
-8,96,148,0.0
-9,99,151,0.0
-10,110,164,0.0
-10,106,153,0.0
-10,106,151,0.0
-10,108,149,0.0
-11,111,151,0.0
-10,109,144,0.0
-11,113,148,0.0
-11,114,145,0.0
-11,112,140,0.0
-11,109,133,0.0
-11,109,130,0.0
-11,115,134,0.0
-12,115,131,0.0
-12,114,128,0.0
-12,117,127,0.0
-12,115,123,0.0
-12,118,124,0.0
-14,133,136,0.0
-14,131,131,0.0
-14,127,125,0.0
56,-264,70,0.0
57,-263,73,0.0
60,-271,79,0.0
58,-261,78,0.0
61,-265,82,0.0
60,-257,83,0.0
63,-267,89,0.0
62,-258,89,0.0
63,-259,93,0.0
66,-265,98,0.0
67,-263,101,0.0
69,-268,107,0.0
69,-265,108,0.0
71,-268,113,0.0
72,-265,115,0.0
73,-270,121,0.0
72,-259,119,0.0
74,-263,124,0.0
74,-260,127,0.0
76,-261,130,0.0
77,-261,134,0.0
76,-254,134,0.0
75,-245,133,0.0
79,-255,143,0.0
83,-266,152,0.0
87,-270,159,0.0
86,-265,160,0.0
87,-263,162,0.0
84,-250,158,0.0
79,-234,152,0.0
76,-219,146,0.0
73,-207,141,0.0
68,-191,133,0.0
67,-186,133,0.0
61,-165,121,0.0
7694,-20333,15232,0.0
7678,-19970,15312,0.0
7668,-19628,15402,0.0
7648,-19264,15469,0.0
7630,-18909,15538,0.0
7626,-18594,15633,0.0
7606,-18247,15695,0.0
7589,-17910,15761,0.0
7578,-17592,15836,0.0
7558,-17257,15892,0.0
7553,-16960,15976,0.0
7536,-16639,16033,0.0
7523,-16328,16096,0.0
7517,-16041,16176,0.0
7502,-15734,16232,0.0
7489,-15437,16291,0.0
7475,-15140,16346,0.0
7473,-14870,16426,0.0
7584,-14825,16756,0.0
7721,-14821,17143,0.0
7846,-14790,17506,0.0
8051,-14899,18050,0.0
8265,-15013,18618,0.0
8465,-15088,19156,0.0
10569,-18480,24023,1.0
10560,-18112,24112,1.0
10605,-17837,24321,1.0
10722,-17678,24696,1.0
10806,-17460,24993,1.0
10879,-17221,25265,1.0
10962,-16999,25565,1.0
10971,-16657,25687,1.0
11002,-16351,25862,1.0
11012,-16013,25987,1.0
0,0,0,0.0
0,0,0,0.0
10712,-14556,25564,1.0
0,0,0,0.0
10691,-13857,25699,1.0
0,0,0,0.0
10694,-13194,25888,1.0
0,0,0,0.0
10706,-12546,26093,1.0
0,0,0,0.0
10732,-11917,26332,1.0
10812,-11674,26613,1.0
10793,-11325,26653,1.0
10843,-11047,26861,1.0
10852,-10725,26965,1.0
10805,-10351,26931,1.0
0,0,0,0.0
10617,-9528,26622,1.0
0,0,0,0.0
0,0,0,0.0
0,0,0,0.0
0,0,0,0.0
10886,-8129,27692,1.0
10914,-7822,27842,1.0
10909,-7491,27906,1.0
10919,-7169,28005,1.0
0,0,0,0.0
0,0,0,0.0
11278,-6389,29156,1.0
0,0,0,0.0
11388,-5765,29591,1.0
0,0,0,0.0
11453,-5108,29912,1.0
11491,-4777,30085,1.0
11441,-4412,30029,1.0
0,0,0,0.0
0,0,0,0.0
11423,-3364,30194,1.0
11372,-3002,30130,1.0
0,0,0,0.0
11367,-2306,30257,1.0
11383,-1960,30370,1.0
11327,-1602,30289,1.0
11295,-1249,30270,1.0
11239,-894,30185,1.0
8444,-410,22730,0.0
8002,-138,21586,0.0
7689,107,20787,0.0
7496,339,20305,0.0
7321,562,19873,0.0
6875,746,18705,0.0
7309,1025,19926,0.0
7316,1260,19984,0.0
7316,1495,20024,0.0
7310,1731,20048,0.0
7325,1972,20129,0.0
7323,2211,20166,0.0
7338,2455,20244,0.0
7344,2700,20300,0.0
7351,2947,20360,0.0
7365,3199,20435,0.0
7371,3449,20490,0.0
7370,3699,20527,0.0
7378,3954,20590,0.0
7386,4211,20650,0.0
7394,4472,20712,0.0
4,3,13,0.0
12,8,36,0.0
8,7,27,0.0
11,8,34,0.0
15,13,47,0.0
18,15,52,0.0
20,17,58,0.0
18,16,52,0.0
24,22,69,0.0
19,19,57,0.0
23,23,67,0.0
27,28,79,0.0
27,29,79,0.0
27,30,78,0.0
28,33,83,0.0
31,39,94,0.0
28,35,83,0.0
33,42,95,0.0
34,46,101,0.0
35,48,103,0.0
34,49,102,0.0
35,51,104,0.0
37,56,111,0.0
36,56,108,0.0
33,54,101,0.0
36,60,110,0.0
36,63,110,0.0
40,70,119,0.0
38,68,114,0.0
37,68,111,0.0
35,68,108,0.0
37,71,109,0.0
32,65,98,0.0
34,68,101,0.0
34,73,105,0.0
34,73,103,0.0
33,73,100,0.0
32,73,98,0.0
31,73,95,0.0
30,72,93,0.0
31,76,96,0.0
29,71,88,0.0
31,79,95,0.0
32,83,98,0.0
31,84,96,0.0
31,85,96,0.0
31,88,97,0.0
32,92,99,0.0
32,95,100,0.0
33,101,103,0.0
33,104,105,0.0
33,103,101,0.0
33,107,103,0.0
33,109,103,0.0
33,114,105,0.0
35,122,110,0.0
34,119,106,0.0
56,-275,74,0.0
56,-265,74,0.0
57,-268,78,0.0
57,-266,80,0.0
60,-275,86,0.0
61,-276,90,0.0
62,-274,92,0.0
64,-276,97,0.0
62,-265,96,0.0
64,-270,101,0.0
67,-275,107,0.0
68,-275,110,0.0
68,-271,111,0.0
68,-266,114,0.0
71,-273,120,0.0
70,-268,121,0.0
70,-264,123,0.0
73,-268,128,0.0
73,-264,130,0.0
75,-267,135,0.0
76,-266,138,0.0
76,-262,140,0.0
79,-269,147,0.0
80,-271,152,0.0
86,-280,162,0.0
85,-274,162,0.0
85,-271,164,0.0
78,-247,153,0.0
78,-239,153,0.0
76,-232,151,0.0
73,-217,145,0.0
68,-200,137,0.0
66,-191,134,0.0
7437,-21003,15084,0.0
7425,-20637,15173,0.0
7411,-20271,15256,0.0
7395,-19906,15333,0.0
7376,-19535,15399,0.0
7370,-19205,15491,0.0
7358,-18867,15570,0.0
7344,-18526,15641,0.0
7332,-18194,15716,0.0
7320,-17868,15789,0.0
7302,-17529,15844,0.0
7293,-17216,15918,0.0
7277,-16894,15978,0.0
7262,-16574,16034,0.0
7258,-16286,16116,0.0
7238,-15965,16160,0.0
7236,-15688,16243,0.0
7224,-15388,16299,0.0
7223,-15117,16381,0.0
7207,-14819,16429,0.0
7350,-14844,16837,0.0
7523,-14922,17318,0.0
7592,-14783,17559,0.0
7799,-14908,18121,0.0
8007,-15021,18688,0.0
8229,-15149,19294,0.0
0,0,0,0.0
10374,-18374,24536,1.0
0,0,0,0.0
10496,-17871,25040,1.0
10595,-17679,25380,1.0
10613,-17348,25523,1.0
10676,-17092,25777,1.0
0,0,0,0.0
10777,-16536,26228,1.0
10800,-16213,26384,1.0
10815,-15880,26519,1.0
10755,-15438,26467,1.0
0,0,0,0.0
10550,-14458,26152,1.0
10490,-14037,26097,1.0
10446,-13642,26078,1.0
10478,-13346,26244,1.0
10570,-13126,26566,1.0
0,0,0,0.0
0,0,0,0.0
10640,-12198,27005,1.0
10690,-11917,27220,1.0
10715,-11607,27369,1.0
0,0,0,0.0
0,0,0,0.0
0,0,0,0.0
0,0,0,0.0
10708,-9924,27770,1.0
0,0,0,0.0
10672,-9227,27836,1.0
10723,-8937,28048,1.0
10763,-8637,28234,1.0
0,0,0,0.0
10745,-7957,28344,1.0
10801,-7663,28568,1.0
10761,-7303,28541,1.0
10916,-7069,29026,1.0
11084,-6835,29552,1.0
11136,-6524,29769,1.0
11181,-6203,29963,1.0
11226,-5879,30163,1.0
11214,-5525,30203,1.0
11256,-5196,30393,1.0
11249,-4843,30452,1.0
0,0,0,0.0
0,0,0,0.0
11203,-3775,30548,1.0
0,0,0,0.0
11137,-3054,30510,1.0
11093,-2693,30462,1.0
0,0,0,0.0
11081,-1990,30567,1.0
10985,-1625,30370,1.0
10960,-1273,30372,1.0
10936,-921,30373,1.0
8182,-427,22775,0.0
7746,-156,21609,0.0
7416,90,20735,0.0
7277,323,20389,0.0
7064,543,19833,0.0
6675,731,18783,0.0
7032,1001,19827,0.0
7047,1235,19913,0.0
7059,1472,19987,0.0
7059,1707,20030,0.0
7075,1947,20115,0.0
7079,2187,20166,0.0
7090,2430,20239,0.0
7080,2667,20248,0.0
7095,2917,20335,0.0
7103,3165,20397,0.0
7105,3412,20442,0.0
7115,3666,20513,0.0
7110,3913,20537,0.0
7121,4172,20610,0.0
7133,4433,20682,0.0
7139,4693,20739,0.0
9,6,29,0.0
13,10,41,0.0
20,15,62,0.0
19,15,56,0.0
16,14,51,0.0
20,18,63,0.0
22,20,66,0.0
19,18,57,0.0
25,25,75,0.0
27,28,83,0.0
27,30,84,0.0
29,33,89,0.0
27,32,85,0.0
29,35,88,0.0
34,42,103,0.0
33,43,102,0.0
34,45,104,0.0
33,45,102,0.0
34,49,106,0.0
36,54,113,0.0
41,62,126,0.0
36,56,110,0.0
38,61,117,0.0
39,64,120,0.0
36,62,114,0.0
38,66,117,0.0
37,66,114,0.0
38,71,120,0.0
38,72,118,0.0
38,75,120,0.0
37,73,114,0.0
38,80,122,0.0
34,73,109,0.0
36,77,112,0.0
34,77,110,0.0
33,76,106,0.0
36,83,113,0.0
32,76,100,0.0
32,79,102,0.0
29,74,94,0.0
32,82,101,0.0
32,83,100,0.0
31,84,99,0.0
31,84,98,0.0
29,85,96,0.0
30,88,98,0.0
31,92,99,0.0
31,96,101,0.0
32,100,104,0.0
31,101,102,0.0
33,107,106,0.0
33,111,107,0.0
32,110,105,0.0
32,113,106,0.0
32,117,107,0.0
34,125,111,0.0
38,-266,76,0.0
38,-266,78,0.0
39,-268,83,0.0
39,-262,84,0.0
41,-266,88,0.0
41,-262,90,0.0
43,-266,95,0.0
43,-263,97,0.0
44,-267,102,0.0
44,-261,102,0.0
46,-266,108,0.0
46,-263,110,0.0
46,-258,111,0.0
48,-262,116,0.0
49,-262,120,0.0
50,-261,123,0.0
50,-258,125,0.0
52,-262,131,0.0
52,-259,132,0.0
52,-254,133,0.0
49,-237,127,0.0
53,-250,138,0.0
58,-269,153,0.0
58,-264,153,0.0
59,-263,157,0.0
58,-253,155,0.0
59,-254,159,0.0
57,-241,154,0.0
55,-228,150,0.0
51,-208,140,0.0
51,-205,141,0.0
47,-186,132,0.0
46,-176,128,0.0
41,-159,117,0.0
39,-148,112,0.0
5460,-19793,15329,0.0
5460,-19452,15411,0.0
5454,-19098,15477,0.0
5452,-18756,15547,0.0
5457,-18448,15639,0.0
5450,-18107,15698,0.0
5444,-17772,15755,0.0
5454,-17495,15860,0.0
5452,-17179,15924,0.0
5445,-16857,15978,0.0
5437,-16535,16024,0.0
5428,-16216,16070,0.0
5434,-15942,16153,0.0
5435,-15659,16224,0.0
5434,-15376,16290,0.0
5435,-15099,16359,0.0
5428,-14803,16402,0.0
5542,-14840,16816,0.0
5666,-14889,17255,0.0
5726,-14767,17506,0.0
5884,-14887,18055,0.0
6043,-15001,18613,0.0
6207,-15111,19185,0.0
8185,-19542,25391,1.0
0,0,0,0.0
0,0,0,0.0
8326,-18722,26097,1.0
8407,-18523,26441,1.0
8491,-18327,26796,1.0
0,0,0,0.0
0,0,0,0.0
8650,-17518,27563,1.0
0,0,0,0.0
0,0,0,0.0
0,0,0,0.0
8945,-16570,28865,1.0
0,0,0,0.0
8995,-15899,29201,1.0
0,0,0,0.0
9118,-15354,29779,1.0
0,0,0,0.0
0,0,0,0.0
9172,-14305,30215,1.0
0,0,0,0.0
9212,-13615,30522,1.0
9267,-13319,30790,1.0
0,0,0,0.0
0,0,0,0.0
0,0,0,0.0
0,0,0,0.0
0,0,0,0.0
9333,-11166,31522,1.0
0,0,0,0.0
0,0,0,0.0
9455,-10184,32187,1.0
0,0,0,0.0
0,0,0,0.0
9398,-9011,32248,1.0
9349,-8594,32162,1.0
9337,-8216,32203,1.0
9324,-7837,32241,1.0
0,0,0,0.0
0,0,0,0.0
9216,-6659,32111,1.0
9178,-6271,32060,1.0
9155,-5895,32061,1.0
9144,-5527,32101,1.0
9143,-5165,32176,1.0
9180,-4824,32392,1.0
9120,-4432,32259,1.0
9118,-4069,32331,1.0
9087,-3693,32301,1.0
9085,-3331,32372,1.0
0,0,0,0.0
8924,-2559,31959,1.0
8904,-2196,31965,1.0
8860,-1829,31885,1.0
0,0,0,0.0
8762,-1099,31687,1.0
8734,-740,31668,1.0
6090,-267,22132,0.0
5729,-16,20878,0.0
5697,218,20812,0.0
5502,439,20149,0.0
5401,655,19828,0.0
5239,855,19279,0.0
5405,1110,19939,0.0
5401,1338,19977,0.0
5405,1569,20039,0.0
5411,1803,20112,0.0
5405,2034,20139,0.0
5403,2268,20182,0.0
5407,2507,20250,0.0
5411,2748,20319,0.0
5409,2987,20359,0.0
5416,3233,20438,0.0
5419,3480,20505,0.0
5413,3722,20534,0.0
5414,3971,20590,0.0
5420,4228,20669,0.0
5418,4479,20712,0.0
5,5,22,0.0
9,8,38,0.0
5,5,24,0.0
8,8,34,0.0
12,13,51,0.0
14,16,56,0.0
9,11,39,0.0
15,19,64,0.0
16,21,69,0.0
19,25,77,0.0
19,27,80,0.0
19,28,79,0.0
20,32,86,0.0
18,29,76,0.0
23,37,94,0.0
24,40,96,0.0
21,37,88,0.0
23,40,93,0.0
25,45,102,0.0
23,44,94,0.0
26,52,109,0.0
26,52,108,0.0
27,57,114,0.0
24,52,101,0.0
26,58,109,0.0
25,57,105,0.0
25,59,105,0.0
26,62,109,0.0
26,67,113,0.0
24,61,101,0.0
26,70,114,0.0
25,68,106,0.0
24,69,106,0.0
23,68,101,0.0
22,64,94,0.0
23,70,101,0.0
23,72,101,0.0
21,68,93,0.0
23,75,100,0.0
20,69,91,0.0
20,71,90,0.0
23,81,101,0.0
20,74,90,0.0
19,73,87,0.0
19,75,88,0.0
19,78,89,0.0
19,78,87,0.0
20,85,93,0.0
19,84,90,0.0
20,89,93,0.0
19,88,90,0.0
20,95,96,0.0
20,98,96,0.0
21,106,102,0.0
20,105,99,0.0
20,108,99,0.0
35,-273,79,0.0
35,-273,82,0.0
37,-278,87,0.0
37,-274,89,0.0
37,-270,91,0.0
39,-278,97,0.0
40,-276,99,0.0
41,-273,102,0.0
41,-278,108,0.0
42,-279,111,0.0
42,-268,110,0.0
43,-275,116,0.0
43,-269,118,0.0
45,-275,123,0.0
46,-271,125,0.0
46,-265,126,0.0
48,-272,133,0.0
48,-269,134,0.0
48,-264,136,0.0
48,-259,138,0.0
48,-246,134,0.0
54,-277,155,0.0
55,-276,159,0.0
54,-270,159,0.0
56,-272,163,0.0
53,-254,156,0.0
54,-255,161,0.0
54,-250,161,0.0
49,-220,146,0.0
47,-207,140,0.0
49,-212,147,0.0
50,-215,152,0.0
50,-211,153,0.0
39,-164,122,0.0
37,-150,114,0.0
40,-161,126,0.0
4924,-19326,15418,0.0
4925,-18985,15491,0.0
4928,-18658,15570,0.0
4929,-18330,15641,0.0
4931,-18009,15715,0.0
4929,-17679,15774,0.0
4932,-17374,15851,0.0
4928,-17046,15900,0.0
4932,-16753,15977,0.0
4935,-16461,16050,0.0
4938,-16174,16123,0.0
4934,-15862,16168,0.0
4878,-15397,16045,0.0
4849,-15027,16012,0.0
4939,-15021,16365,0.0
4946,-14761,16446,0.0
5058,-14814,16878,0.0
5201,-14945,17414,0.0
5257,-14822,17664,0.0
5398,-14926,18196,0.0
5556,-15070,18794,0.0
5699,-15155,19338,0.0
0,0,0,0.0
7553,-19304,25796,1.0
7582,-18991,25978,1.0
7641,-18754,26263,1.0
7723,-18569,26628,1.0
7792,-18347,26947,1.0
0,0,0,0.0
0,0,0,0.0
0,0,0,0.0
0,0,0,0.0
0,0,0,0.0
8134,-16798,28629,1.0
0,0,0,0.0
0,0,0,0.0
0,0,0,0.0
0,0,0,0.0
8400,-15404,29985,1.0
0,0,0,0.0
0,0,0,0.0
0,0,0,0.0
0,0,0,0.0
8590,-13821,31080,1.0
0,0,0,0.0
0,0,0,0.0
0,0,0,0.0
0,0,0,0.0
0,0,0,0.0
0,0,0,0.0
8846,-11523,32605,1.0
8828,-11117,32621,1.0
8830,-10739,32714,1.0
8875,-10412,32967,1.0
0,0,0,0.0
0,0,0,0.0
0,0,0,0.0
8689,-8705,32605,1.0
8669,-8314,32613,1.0
8652,-7928,32630,1.0
8614,-7526,32568,1.0
8600,-7149,32602,1.0
0,0,0,0.0
0,0,0,0.0
0,0,0,0.0
8519,-5626,32618,1.0
8492,-5245,32597,1.0
8516,-4896,32775,1.0
8484,-4512,32731,1.0
0,0,0,0.0
0,0,0,0.0
8356,-3365,32486,1.0
8318,-2990,32421,1.0
8280,-2617,32351,1.0
0,0,0,0.0
8206,-1878,32228,1.0
8142,-1507,32057,1.0
0,0,0,0.0
8089,-785,32014,1.0
5601,-295,22226,0.0
5295,-43,21063,0.0
5216,190,20805,0.0
5068,413,20264,0.0
4889,620,19599,0.0
4774,822,19192,0.0
4939,1076,19909,0.0
4943,1305,19975,0.0
4944,1534,20035,0.0
4944,1766,20090,0.0
4939,1996,20124,0.0
4948,2233,20213,0.0
4947,2469,20264,0.0
4944,2705,20310,0.0
4947,2947,20380,0.0
4940,3184,20405,0.0
4948,3433,20497,0.0
4941,3674,20527,0.0
4941,3922,20586,0.0
4939,4170,20633,0.0
4939,4424,20695,0.0
9,7,38,0.0
9,8,37,0.0
9,9,39,0.0
10,10,43,0.0
16,17,65,0.0
14,16,59,0.0
15,18,62,0.0
16,21,66,0.0
19,26,84,0.0
20,28,86,0.0
22,33,95,0.0
21,33,93,0.0
24,38,103,0.0
24,41,106,0.0
24,41,105,0.0
26,46,116,0.0
24,45,108,0.0
22,41,97,0.0
27,54,121,0.0
25,51,113,0.0
25,53,113,0.0
25,55,112,0.0
26,59,117,0.0
27,63,123,0.0
25,59,113,0.0
25,61,113,0.0
25,63,113,0.0
27,70,123,0.0
24,64,110,0.0
24,67,112,0.0
25,70,114,0.0
24,72,114,0.0
26,79,122,0.0
24,75,113,0.0
22,71,104,0.0
23,77,111,0.0
23,77,110,0.0
22,77,106,0.0
22,79,106,0.0
21,77,102,0.0
21,83,105,0.0
21,84,104,0.0
21,87,106,0.0
21,86,103,0.0
20,86,101,0.0
20,89,103,0.0
20,90,101,0.0
20,93,103,0.0
20,95,102,0.0
19,94,100,0.0
20,102,106,0.0
18,94,95,0.0
20,105,104,0.0
20,109,104,0.0
19,109,102,0.0
19,107,100,0.0
26,-268,79,0.0
28,-277,85,0.0
28,-274,87,0.0
29,-274,91,0.0
30,-271,93,0.0
31,-274,98,0.0
31,-276,101,0.0
32,-275,105,0.0
33,-277,108,0.0
33,-271,110,0.0
35,-276,114,0.0
35,-271,116,0.0
37,-278,123,0.0
37,-273,125,0.0
37,-268,126,0.0
39,-274,132,0.0
40,-272,135,0.0
40,-268,137,0.0
40,-264,138,0.0
40,-256,137,0.0
43,-273,150,0.0
44,-275,155,0.0
46,-284,164,0.0
46,-278,165,0.0
47,-271,165,0.0
45,-258,161,0.0
41,-233,149,0.0
43,-238,155,0.0
41,-226,151,0.0
41,-217,149,0.0
39,-204,144,0.0
35,-175,125,0.0
33,-165,121,0.0
29,-142,106,0.0
31,-146,112,0.0
32,-150,117,0.0
4145,-19203,15467,0.0
4149,-18859,15533,0.0
4155,-18530,15607,0.0
4165,-18223,15694,0.0
4165,-17882,15745,0.0
4175,-17587,15832,0.0
4178,-17271,15893,0.0
4183,-16967,15962,0.0
4186,-16655,16018,0.0
4190,-16358,16082,0.0
4200,-16085,16167,0.0
4200,-15780,16214,0.0
4195,-15462,16242,0.0
4208,-15210,16334,0.0
4214,-14940,16403,0.0
4258,-14808,16624,0.0
4324,-14746,16927,0.0
4449,-14876,17462,0.0
4524,-14831,17804,0.0
4655,-14962,18370,0.0
4789,-15088,18949,0.0
4919,-15188,19514,0.0
6441,-19486,25618,1.0
6455,-19134,25741,1.0
0,0,0,0.0
6578,-18706,26367,1.0
0,0,0,0.0
6665,-18165,26848,1.0
6724,-17938,27156,1.0
6789,-17720,27485,1.0
0,0,0,0.0
6902,-17233,28081,1.0
6979,-17036,28464,1.0
7022,-16753,28711,1.0
7094,-16538,29082,1.0
0,0,0,0.0
7154,-15902,29470,1.0
0,0,0,0.0
0,0,0,0.0
7286,-15033,30234,1.0
7341,-14763,30539,1.0
7373,-14441,30744,1.0
0,0,0,0.0
7460,-13841,31259,1.0
7520,-13568,31586,1.0
0,0,0,0.0
0,0,0,0.0
0,0,0,0.0
0,0,0,0.0
0,0,0,0.0
7801,-11713,33245,1.0
0,0,0,0.0
0,0,0,0.0
7823,-10583,33585,1.0
0,0,0,0.0
0,0,0,0.0
0,0,0,0.0
0,0,0,0.0
0,0,0,0.0
7545,-7983,32876,1.0
7529,-7597,32884,1.0
7495,-7197,32818,1.0
7405,-6749,32506,1.0
7361,-6350,32399,1.0
7379,-6005,32559,1.0
7421,-5676,32829,1.0
0,0,0,0.0
0,0,0,0.0
0,0,0,0.0
7379,-4195,32983,1.0
0,0,0,0.0
0,0,0,0.0
7242,-3043,32624,1.0
0,0,0,0.0
0,0,0,0.0
7112,-1925,32300,1.0
7037,-1552,32051,1.0
7030,-1196,32107,1.0
0,0,0,0.0
4865,-334,22342,0.0
4615,-81,21254,0.0
4501,152,20786,0.0
4386,374,20312,0.0
4262,586,19797,0.0
4102,779,19110,0.0
4244,1030,19827,0.0
4257,1259,19949,0.0
4254,1485,19996,0.0
4261,1716,20090,0.0
4256,1945,20126,0.0
4254,2177,20181,0.0
4253,2412,20245,0.0
4252,2648,20300,0.0
4250,2885,20357,0.0
4246,3123,20405,0.0
4245,3365,20464,0.0
4238,3605,20502,0.0
4235,3851,20556,0.0
4235,4101,20625,0.0
4233,4352,20689,0.0
6,6,30,0.0
6,6,28,0.0
5,6,27,0.0
10,12,50,0.0
13,17,64,0.0
11,15,56,0.0
14,20,69,0.0
15,23,76,0.0
15,23,77,0.0
17,29,89,0.0
17,30,88,0.0
17,29,84,0.0
19,35,97,0.0
19,36,98,0.0
21,43,112,0.0
19,39,97,0.0
18,40,95,0.0
18,41,96,0.0
22,51,116,0.0
21,50,112,0.0
24,60,129,0.0
21,54,114,0.0
21,57,114,0.0
23,61,120,0.0
21,60,115,0.0
23,65,121,0.0
20,63,113,0.0
23,72,129,0.0
23,74,128,0.0
21,70,117,0.0
21,72,119,0.0
20,71,115,0.0
21,74,116,0.0
19,72,109,0.0
21,80,118,0.0
19,75,108,0.0
19,78,111,0.0
18,76,107,0.0
19,81,111,0.0
18,79,106,0.0
17,78,101,0.0
17,83,105,0.0
18,87,108,0.0
18,92,110,0.0
17,89,106,0.0
17,91,105,0.0
16,84,95,0.0
16,93,104,0.0
15,90,98,0.0
15,87,93,0.0
16,99,103,0.0
14,94,96,0.0
16,104,104,0.0
15,106,103,0.0
16,112,107,0.0
14,104,97,0.0
18,-257,77,0.0
18,-257,81,0.0
20,-268,86,0.0
20,-264,89,0.0
21,-267,93,0.0
22,-267,96,0.0
23,-274,102,0.0
23,-269,104,0.0
24,-265,105,0.0
25,-269,110,0.0
25,-266,113,0.0
27,-270,118,0.0
27,-267,119,0.0
28,-264,122,0.0
28,-261,124,0.0
29,-264,128,0.0
30,-262,131,0.0
30,-257,132,0.0
29,-248,131,0.0
31,-252,137,0.0
33,-266,148,0.0
36,-282,160,0.0
36,-279,163,0.0
36,-270,162,0.0
34,-250,154,0.0
34,-239,150,0.0
33,-232,150,0.0
35,-234,154,0.0
33,-222,150,0.0
32,-206,142,0.0
30,-189,134,0.0
29,-180,130,0.0
29,-178,132,0.0
26,-157,120,0.0
25,-148,114,0.0
22,-130,103,0.0
3377,-19094,15510,0.0
3386,-18754,15578,0.0
3393,-18409,15633,0.0
3404,-18093,15708,0.0
3417,-17798,15797,0.0
3419,-17447,15830,0.0
3434,-17171,15926,0.0
3439,-16850,15975,0.0
3450,-16566,16053,0.0
3460,-16278,16123,0.0
3465,-15976,16175,0.0
3473,-15692,16240,0.0
3478,-15400,16292,0.0
3484,-15114,16346,0.0
3492,-14844,16411,0.0
3559,-14822,16753,0.0
3631,-14817,17122,0.0
3703,-14805,17494,0.0
3790,-14842,17934,0.0
3905,-14981,18512,0.0
4013,-15072,19051,0.0
4121,-15159,19599,0.0
5378,-19375,25627,1.0
5435,-19168,25943,1.0
5492,-18961,26265,1.0
5504,-18598,26369,1.0
5575,-18434,26757,1.0
5610,-18147,26972,1.0
5637,-17836,27152,1.0
5692,-17614,27470,1.0
0,0,0,0.0
5763,-17045,27920,1.0
5835,-16861,28318,1.0
0,0,0,0.0
0,0,0,0.0
6010,-16178,29340,1.0
0,0,0,0.0
0,0,0,0.0
6150,-15370,30202,1.0
0,0,0,0.0
6216,-14753,30648,1.0
6234,-14408,30798,1.0
6224,-14001,30813,1.0
6202,-13574,30772,1.0
6303,-13410,31336,1.0
0,0,0,0.0
6344,-12733,31676,1.0
0,0,0,0.0
0,0,0,0.0
6577,-12027,33054,1.0
0,0,0,0.0
0,0,0,0.0
6656,-11001,33680,1.0
0,0,0,0.0
0,0,0,0.0
6571,-9716,33478,1.0
0,0,0,0.0
6519,-8888,33374,1.0
0,0,0,0.0
6289,-7851,32347,1.0
6273,-7473,32351,1.0
6221,-7054,32159,1.0
6182,-6656,32038,1.0
6208,-6329,32257,1.0
6209,-5975,32345,1.0
6282,-5685,32807,1.0
0,0,0,0.0
0,0,0,0.0
6282,-4603,33075,1.0
6257,-4225,33033,1.0
6239,-3852,33028,1.0
6190,-3465,32857,1.0
6164,-3092,32814,1.0
6135,-2721,32760,1.0
6093,-2346,32622,1.0
6063,-1980,32557,1.0
6031,-1614,32481,1.0
0,0,0,0.0
5944,-886,32211,1.0
4151,-371,22563,0.0
3949,-115,21535,0.0
3805,118,20813,0.0
3716,341,20394,0.0
3600,551,19822,0.0
3595,771,19863,0.0
3597,996,19941,0.0
3587,1217,19950,0.0
3587,1444,20018,0.0
3580,1669,20056,0.0
3586,1903,20157,0.0
3579,2131,20193,0.0
3576,2363,20248,0.0
3561,2588,20238,0.0
3568,2831,20355,0.0
3558,3065,20382,0.0
3561,3311,20480,0.0
3553,3548,20510,0.0
3543,3787,20540,0.0
3545,4039,20632,0.0
5,6,31,0.0
6,7,32,0.0
7,9,43,0.0
4,6,27,0.0
10,14,58,0.0
8,11,44,0.0
9,15,55,0.0
10,18,63,0.0
11,19,67,0.0
12,22,72,0.0
12,25,76,0.0
14,28,84,0.0
15,33,95,0.0
15,32,92,0.0
14,33,89,0.0
16,37,97,0.0
16,39,98,0.0
17,43,106,0.0
16,43,102,0.0
17,46,107,0.0
15,45,102,0.0
17,50,107,0.0
17,54,114,0.0
18,57,116,0.0
15,50,97,0.0
17,55,108,0.0
18,65,124,0.0
16,60,110,0.0
17,65,116,0.0
17,69,121,0.0
16,67,114,0.0
17,71,119,0.0
16,69,111,0.0
15,67,106,0.0
16,74,114,0.0
15,70,105,0.0
15,76,112,0.0
14,73,104,0.0
15,80,112,0.0
14,75,103,0.0
14,80,108,0.0
14,84,110,0.0
13,83,106,0.0
14,86,108,0.0
13,85,105,0.0
12,82,98,0.0
12,81,95,0.0
12,84,95,0.0
11,84,94,0.0
12,88,96,0.0
11,92,99,0.0
11,91,96,0.0
11,92,94,0.0
11,94,95,0.0
11,100,99,0.0
11,104,100,0.0
11,109,103,0.0
17,-272,82,0.0
17,-276,87,0.0
18,-278,91,0.0
19,-285,96,0.0
19,-273,96,0.0
20,-275,99,0.0
21,-278,104,0.0
22,-278,108,0.0
23,-279,112,0.0
23,-284,117,0.0
24,-280,120,0.0
24,-277,121,0.0
25,-274,123,0.0
26,-269,125,0.0
26,-271,129,0.0
27,-271,132,0.0
29,-275,138,0.0
29,-271,140,0.0
28,-259,137,0.0
30,-266,144,0.0
31,-273,153,0.0
33,-282,161,0.0
34,-283,167,0.0
34,-277,167,0.0
34,-277,171,0.0
31,-246,156,0.0
32,-247,160,0.0
33,-244,161,0.0
31,-227,155,0.0
29,-205,142,0.0
28,-197,140,0.0
27,-178,129,0.0
28,-185,137,0.0
25,-165,126,0.0
24,-157,121,0.0
22,-135,108,0.0
21,-129,105,0.0
3131,-18709,15581,0.0
3146,-18400,15666,0.0
3153,-18052,15712,0.0
3165,-17747,15791,0.0
3176,-17436,15858,0.0
3185,-17125,15921,0.0
3197,-16835,15997,0.0
3204,-16524,16049,0.0
3215,-16239,16122,0.0
3220,-15932,16167,0.0
3232,-15663,16247,0.0
3242,-15386,16313,0.0
3247,-15094,16359,0.0
3256,-14826,16426,0.0
3334,-14866,16837,0.0
3401,-14847,17193,0.0
3457,-14784,17505,0.0
3552,-14875,18010,0.0
3661,-15010,18585,0.0
3757,-15083,19101,0.0
3853,-15141,19613,0.0
5034,-19364,25662,1.0
0,0,0,0.0
0,0,0,0.0
5131,-18496,26271,1.0
0,0,0,0.0
5246,-18097,26945,1.0
5319,-17945,27366,1.0
0,0,0,0.0
0,0,0,0.0
0,0,0,0.0
5465,-16821,28295,1.0
5498,-16532,28519,1.0
5554,-16308,28860,1.0
0,0,0,0.0
0,0,0,0.0
0,0,0,0.0
5783,-15379,30262,1.0
5799,-15028,30396,1.0
5843,-14753,30689,1.0
5837,-14351,30715,1.0
0,0,0,0.0
0,0,0,0.0
0,0,0,0.0
5948,-13073,31545,1.0
5933,-12661,31530,1.0
0,0,0,0.0
6127,-12296,32693,1.0
6149,-11954,32883,1.0
6155,-11580,32984,1.0
0,0,0,0.0
0,0,0,0.0
6213,-10530,33513,1.0
0,0,0,0.0
6175,-9705,33460,1.0
0,0,0,0.0
6091,-8829,33163,1.0
0,0,0,0.0
0,0,0,0.0
5884,-7453,32271,1.0
0,0,0,0.0
0,0,0,0.0
5795,-6285,32021,1.0
0,0,0,0.0
0,0,0,0.0
5945,-5364,33109,1.0
5924,-4986,33084,1.0
5899,-4604,33032,1.0
0,0,0,0.0
0,0,0,0.0
5831,-3480,32928,1.0
5794,-3102,32817,1.0
5784,-2740,32857,1.0
5738,-2363,32691,1.0
5706,-1995,32610,1.0
5689,-1633,32611,1.0
0,0,0,0.0
5608,-904,32355,1.0
3909,-382,22627,0.0
3707,-126,21524,0.0
3567,107,20776,0.0
3500,331,20460,0.0
3380,540,19829,0.0
3377,761,19878,0.0
3371,982,19914,0.0
3369,1206,19972,0.0
3365,1431,20022,0.0
3366,1659,20099,0.0
3355,1883,20112,0.0
3355,2116,20191,0.0
3353,2349,20258,0.0
3336,2573,20240,0.0
3333,2809,20304,0.0
3336,3051,20407,0.0
3332,3291,20466,0.0
3328,3532,20524,0.0
3318,3772,20558,0.0
7,7,40,0.0
6,7,39,0.0
5,7,36,0.0
7,9,41,0.0
7,10,41,0.0
12,19,76,0.0
8,12,49,0.0
10,17,64,0.0
10,19,69,0.0
11,22,73,0.0
14,27,89,0.0
13,27,85,0.0
15,34,102,0.0
15,35,102,0.0
17,41,114,0.0
16,39,105,0.0
15,38,98,0.0
16,42,105,0.0
16,44,109,0.0
17,49,117,0.0
15,45,104,0.0
18,57,127,0.0
17,56,122,0.0
18,62,130,0.0
17,60,124,0.0
18,65,129,0.0
17,63,123,0.0
16,62,118,0.0
17,66,123,0.0
17,72,130,0.0
17,72,126,0.0
17,76,129,0.0
18,84,140,0.0
18,82,134,0.0
17,83,132,0.0
16,83,129,0.0
16,83,124,0.0
15,85,126,0.0
14,81,116,0.0
14,84,118,0.0
15,91,125,0.0
15,94,125,0.0
13,87,115,0.0
13,90,115,0.0
14,94,118,0.0
13,89,109,0.0
12,93,112,0.0
12,91,108,0.0
11,91,104,0.0
10,88,99,0.0
11,96,106,0.0
12,107,115,0.0
11,100,105,0.0
10,103,106,0.0
11,111,112,0.0
11,111,110,0.0
10,118,114,0.0
10,121,115,0.0
9,-273,84,0.0
9,-271,86,0.0
10,-263,87,0.0
10,-264,91,0.0
10,-262,92,0.0
12,-271,99,0.0
13,-270,103,0.0
13,-266,104,0.0
13,-265,107,0.0
14,-270,113,0.0
15,-270,116,0.0
16,-267,118,0.0
17,-268,122,0.0
17,-266,124,0.0
17,-266,128,0.0
19,-270,133,0.0
19,-264,134,0.0
20,-273,142,0.0
19,-252,135,0.0
20,-259,142,0.0
22,-273,154,0.0
23,-278,161,0.0
25,-284,168,0.0
23,-261,159,0.0
23,-264,165,0.0
24,-253,161,0.0
24,-250,163,0.0
23,-233,156,0.0
23,-228,156,0.0
22,-213,149,0.0
20,-187,134,0.0
21,-190,139,0.0
19,-168,126,0.0
18,-155,119,0.0
17,-148,116,0.0
17,-141,113,0.0
16,-131,108,0.0
15,-113,94,0.0
15,-117,100,0.0
2406,-17935,15720,0.0
2425,-17653,15815,0.0
2437,-17330,15869,0.0
2454,-17046,15953,0.0
2467,-16740,16012,0.0
2480,-16449,16080,0.0
2492,-16147,16133,0.0
2504,-15866,16201,0.0
2515,-15575,16256,0.0
2527,-15296,16316,0.0
2539,-15027,16385,0.0
2551,-14759,16449,0.0
2625,-14846,16914,0.0
2704,-14956,17418,0.0
2731,-14773,17591,0.0
2817,-14892,18132,0.0
2906,-15020,18701,0.0
2986,-15091,19215,0.0
3877,-19157,24948,1.0
0,0,0,0.0
3987,-18827,25663,1.0
4026,-18581,25915,1.0
4078,-18394,26257,1.0
4103,-18088,26430,1.0
4144,-17844,26697,1.0
4208,-17707,27130,1.0
4251,-17468,27415,1.0
4296,-17244,27729,1.0
0,0,0,0.0
4363,-16691,28199,1.0
0,0,0,0.0
0,0,0,0.0
0,0,0,0.0
4557,-15791,29563,1.0
4647,-15695,30175,1.0
4647,-15292,30207,1.0
4681,-15005,30465,1.0
4721,-14735,30762,1.0
4715,-14321,30761,1.0
4675,-13816,30547,1.0
4722,-13568,30898,1.0
0,0,0,0.0
4770,-12933,31300,1.0
4739,-12474,31155,1.0
0,0,0,0.0
4856,-12013,32028,1.0
0,0,0,0.0
0,0,0,0.0
0,0,0,0.0
0,0,0,0.0
4985,-10410,33191,1.0
4989,-10037,33281,1.0
0,0,0,0.0
0,0,0,0.0
4943,-8827,33189,1.0
4923,-8421,33128,1.0
4818,-7882,32498,1.0
0,0,0,0.0
4724,-7027,32023,1.0
4723,-6673,32099,1.0
4703,-6295,32040,1.0
4730,-5981,32317,1.0
0,0,0,0.0
0,0,0,0.0
4813,-5011,33153,1.0
4817,-4657,33285,1.0
4788,-4272,33182,1.0
4768,-3897,33139,1.0
0,0,0,0.0
4720,-3148,33019,1.0
4701,-2780,32996,1.0
4662,-2404,32825,1.0
4636,-2037,32754,1.0
4605,-1670,32650,1.0
4588,-1311,32645,1.0
4528,-943,32339,1.0
3184,-415,22825,0.0
3011,-156,21667,0.0
2879,78,20800,0.0
2854,304,20699,0.0
2724,509,19841,0.0
2712,727,19830,0.0
2711,948,19907,0.0
2704,1169,19938,0.0
2701,1393,20004,0.0
2698,1620,20076,0.0
2691,1845,20125,0.0
2689,2076,20199,0.0
2682,2304,20244,0.0
2675,2536,20298,0.0
2664,2764,20309,0.0
2658,3000,20376,0.0
2651,3237,20424,0.0
2645,3478,20491,0.0
2637,3719,20548,0.0
2633,3967,20629,0.0
3,4,22,0.0
8,12,62,0.0
5,8,38,0.0
5,9,44,0.0
7,13,55,0.0
7,15,59,0.0
8,17,67,0.0
8,18,67,0.0
8,20,68,0.0
11,27,88,0.0
11,31,99,0.0
10,30,90,0.0
11,34,99,0.0
12,36,102,0.0
13,41,112,0.0
13,42,111,0.0
11,39,98,0.0
9,35,88,0.0
13,48,115,0.0
12,47,109,0.0
12,50,113,0.0
11,51,112,0.0
12,53,114,0.0
13,59,123,0.0
12,60,120,0.0
13,63,123,0.0
13,66,126,0.0
12,63,118,0.0
12,64,115,0.0
11,65,115,0.0
12,69,120,0.0
13,77,130,0.0
11,76,123,0.0
11,75,120,0.0
11,73,113,0.0
10,75,115,0.0
10,79,117,0.0
10,80,116,0.0
10,85,122,0.0
10,80,111,0.0
9,81,110,0.0
9,84,110,0.0
9,85,109,0.0
9,87,110,0.0
8,90,112,0.0
8,88,107,0.0
7,92,109,0.0
7,89,103,0.0
7,88,100,0.0
7,92,102,0.0
7,101,110,0.0
7,98,104,0.0
6,97,101,0.0
6,101,103,0.0
6,112,112,0.0
6,110,107,0.0
5,114,109,0.0
2,-278,87,0.0
1,-270,88,0.0
2,-271,91,0.0
3,-269,93,0.0
3,-266,96,0.0
4,-266,98,0.0
5,-264,101,0.0
5,-268,105,0.0
5,-263,107,0.0
7,-273,114,0.0
6,-265,115,0.0
7,-271,121,0.0
8,-266,122,0.0
9,-264,124,0.0
9,-259,126,0.0
10,-260,130,0.0
10,-261,134,0.0
10,-256,135,0.0
11,-256,138,0.0
12,-266,147,0.0
13,-282,160,0.0
14,-276,160,0.0
14,-284,169,0.0
15,-274,168,0.0
15,-266,167,0.0
14,-250,161,0.0
15,-249,164,0.0
15,-231,155,0.0
14,-225,154,0.0
14,-211,148,0.0
13,-197,142,0.0
14,-188,138,0.0
12,-170,128,0.0
13,-165,127,0.0
13,-162,127,0.0
11,-142,114,0.0
12,-139,115,0.0
11,-130,109,0.0
1652,-18180,15684,0.0
1672,-17873,15760,0.0
1691,-17566,15832,0.0
1710,-17267,15905,0.0
1725,-16933,15940,0.0
1741,-16634,16001,0.0
1760,-16360,16084,0.0
1776,-16068,16144,0.0
1792,-15792,16215,0.0
1808,-15520,16286,0.0
1804,-15079,16172,0.0
1837,-14968,16407,0.0
1862,-14787,16565,0.0
1909,-14779,16924,0.0
1976,-14914,17457,0.0
2014,-14818,17732,0.0
2082,-14930,18265,0.0
2148,-15029,18800,0.0
2217,-15130,19355,0.0
2879,-19155,25063,1.0
2908,-18880,25268,1.0
2952,-18694,25595,1.0
2988,-18455,25855,1.0
3054,-18400,26381,1.0
3082,-18110,26578,1.0
3108,-17814,26765,1.0
3159,-17662,27173,1.0
3185,-17362,27362,1.0
3219,-17110,27625,1.0
3261,-16899,27960,1.0
3292,-16629,28203,1.0
0,0,0,0.0
3335,-16000,28541,1.0
3370,-15749,28826,1.0
0,0,0,0.0
3477,-15413,29736,1.0
0,0,0,0.0
3517,-14769,30084,1.0
0,0,0,0.0
3527,-14009,30183,1.0
0,0,0,0.0
0,0,0,0.0
3599,-13109,30851,1.0
3625,-12814,31099,1.0
0,0,0,0.0
3673,-12211,31573,1.0
3713,-11956,31949,1.0
0,0,0,0.0
3769,-11364,32513,1.0
3797,-11067,32809,1.0
0,0,0,0.0
3832,-10401,33215,1.0
3846,-10055,33389,1.0
0,0,0,0.0
0,0,0,0.0
3813,-8848,33299,1.0
3803,-8456,33285,1.0
0,0,0,0.0
3708,-7527,32598,1.0
3668,-7094,32330,1.0
0,0,0,0.0
3620,-6307,32077,1.0
3608,-5938,32049,1.0
0,0,0,0.0
0,0,0,0.0
0,0,0,0.0
3696,-4667,33244,1.0
0,0,0,0.0
3670,-3926,33223,1.0
3645,-3548,33124,1.0
3632,-3182,33122,1.0
3605,-2807,33000,1.0
0,0,0,0.0
3544,-2063,32702,1.0
3526,-1702,32670,1.0
3480,-1333,32380,1.0
3451,-975,32259,1.0
2433,-441,22845,0.0
2313,-183,21813,0.0
2190,51,20761,0.0
2185,279,20811,0.0
2082,485,19932,0.0
2061,699,19838,0.0
2059,920,19919,0.0
2049,1139,19941,0.0
2044,1360,19996,0.0
2038,1586,20064,0.0
2030,1810,20110,0.0
2021,2034,20140,0.0
2018,2267,20235,0.0
2009,2496,20276,0.0
2000,2727,20328,0.0
1992,2960,20383,0.0
1982,3195,20425,0.0
1974,3434,20490,0.0
1963,3671,20534,0.0
1954,3916,20608,0.0
4,8,41,0.0
5,10,50,0.0
6,12,57,0.0
5,13,56,0.0
6,16,67,0.0
5,13,53,0.0
6,19,72,0.0
6,20,72,0.0
6,22,77,0.0
8,27,88,0.0
7,26,84,0.0
8,29,90,0.0
8,32,94,0.0
8,35,100,0.0
8,38,104,0.0
9,43,114,0.0
9,46,118,0.0
9,46,114,0.0
9,47,113,0.0
9,52,123,0.0
9,52,119,0.0
10,57,125,0.0
8,55,116,0.0
9,59,123,0.0
9,63,128,0.0
8,64,126,0.0
8,62,117,0.0
9,66,124,0.0
9,70,128,0.0
9,76,135,0.0
8,76,133,0.0
8,79,132,0.0
7,73,121,0.0
7,83,135,0.0
7,82,128,0.0
7,81,125,0.0
7,85,128,0.0
6,84,122,0.0
6,85,122,0.0
6,87,122,0.0
5,91,125,0.0
5,88,118,0.0
5,95,123,0.0
5,90,115,0.0
4,87,109,0.0
5,99,121,0.0
4,94,111,0.0
4,97,113,0.0
4,99,114,0.0
4,100,112,0.0
3,97,106,0.0
2,100,108,0.0
2,108,113,0.0
2,107,110,0.0
2,111,112,0.0
1,117,115,0.0
1,118,113,0.0
-3,-292,92,0.0
-2,-274,89,0.0
-2,-280,94,0.0
-2,-278,98,0.0
0,-276,99,0.0
0,-279,104,0.0
0,-277,107,0.0
0,-282,112,0.0
1,-272,112,0.0
1,-272,115,0.0
1,-278,121,0.0
2,-275,124,0.0
2,-271,125,0.0
2,-267,127,0.0
4,-269,132,0.0
4,-269,135,0.0
5,-267,137,0.0
5,-262,138,0.0
6,-265,144,0.0
6,-282,158,0.0
7,-283,162,0.0
7,-288,168,0.0
9,-295,177,0.0
8,-283,174,0.0
9,-271,170,0.0
9,-255,164,0.0
9,-250,165,0.0
10,-243,165,0.0
10,-231,160,0.0
10,-226,160,0.0
9,-201,145,0.0
10,-199,147,0.0
9,-189,144,0.0
9,-165,128,0.0
9,-157,124,0.0
8,-149,121,0.0
7,-128,106,0.0
7,-122,103,0.0
1160,-18122,15690,0.0
1184,-17827,15775,0.0
1204,-17495,15822,0.0
1228,-17230,15925,0.0
1246,-16912,15974,0.0
1266,-16609,16032,0.0
1284,-16322,16099,0.0
1303,-16033,16161,0.0
1321,-15754,16228,0.0
1337,-15462,16277,0.0
1354,-15189,16341,0.0
1371,-14925,16410,0.0
1403,-14818,16650,0.0
1439,-14767,16961,0.0
1494,-14895,17488,0.0
1530,-14818,17784,0.0
1585,-14931,18320,0.0
1646,-15070,18906,0.0
1703,-15157,19445,0.0
2139,-18531,24312,1.0
2211,-18621,24990,1.0
2253,-18471,25358,1.0
2294,-18303,25709,1.0
2328,-18070,25974,1.0
2377,-17961,26424,1.0
2408,-17712,26678,1.0
0,0,0,0.0
0,0,0,0.0
2509,-17017,27539,1.0
2524,-16660,27630,1.0
2548,-16365,27819,1.0
0,0,0,0.0
2604,-15838,28315,1.0
2637,-15602,28620,1.0
2684,-15452,29093,1.0
2717,-15211,29406,1.0
2731,-14869,29528,1.0
2749,-14547,29687,1.0
2770,-14244,29888,1.0
2771,-13843,29881,1.0
2783,-13498,29986,1.0
0,0,0,0.0
0,0,0,0.0
2842,-12593,30611,1.0
2850,-12241,30701,1.0
0,0,0,0.0
2947,-11873,31770,1.0
0,0,0,0.0
0,0,0,0.0
0,0,0,0.0
3026,-10633,32735,1.0
3026,-10253,32777,1.0
0,0,0,0.0
3030,-9516,32922,1.0
0,0,0,0.0
3019,-8744,32924,1.0
3008,-8345,32861,1.0
2974,-7894,32567,1.0
2946,-7465,32333,1.0
2929,-7071,32220,1.0
0,0,0,0.0
2900,-6309,32071,1.0
2887,-5937,32019,1.0
0,0,0,0.0
0,0,0,0.0
0,0,0,0.0
0,0,0,0.0
2929,-4283,33049,1.0
2940,-3946,33290,1.0
2917,-3565,33168,1.0
2893,-3187,33033,1.0
0,0,0,0.0
0,0,0,0.0
2822,-2078,32663,1.0
2799,-1715,32545,1.0
2766,-1351,32324,1.0
2738,-994,32168,1.0
1933,-457,22837,0.0
1841,-199,21874,0.0
1740,36,20794,0.0
1733,263,20834,0.0
1669,475,20187,0.0
1633,684,19880,0.0
1624,901,19913,0.0
1617,1122,19957,0.0
1610,1343,20014,0.0
1602,1566,20061,0.0
1594,1790,20116,0.0
1587,2017,20174,0.0
1578,2245,20232,0.0
1570,2475,20291,0.0
1559,2704,20328,0.0
1550,2939,20395,0.0
1539,3173,20445,0.0
1528,3407,20483,0.0
1517,3647,20542,0.0
1506,3889,20606,0.0
1489,4119,20594,0.0
3,9,42,0.0
3,9,43,0.0
4,14,61,0.0
5,18,73,0.0
5,17,68,0.0
3,14,57,0.0
4,18,68,0.0
5,19,66,0.0
5,24,81,0.0
5,28,91,0.0
7,36,112,0.0
7,40,120,0.0
6,40,114,0.0
7,42,115,0.0
6,41,110,0.0
7,43,111,0.0
6,42,107,0.0
7,51,126,0.0
7,54,127,0.0
7,57,131,0.0
6,56,124,0.0
7,63,136,0.0
6,61,129,0.0
6,61,124,0.0
5,61,121,0.0
6,69,134,0.0
6,75,141,0.0
6,80,146,0.0
6,72,129,0.0
5,79,136,0.0
5,79,135,0.0
5,81,135,0.0
5,88,142,0.0
5,90,141,0.0
4,84,130,0.0
3,88,133,0.0
4,96,142,0.0
4,91,131,0.0
3,95,133,0.0
3,98,134,0.0
3,98,132,0.0
3,101,133,0.0
2,102,131,0.0
2,100,125,0.0
1,101,123,0.0
1,106,127,0.0
1,100,118,0.0
1,94,108,0.0
0,102,114,0.0
0,106,116,0.0
0,108,116,0.0
0,108,113,0.0
0,111,114,0.0
0,117,119,0.0
-1,117,116,0.0
-1,124,120,0.0
-23,-308,99,0.0
-23,-306,102,0.0
-22,-288,99,0.0
-21,-285,101,0.0
-20,-275,101,0.0
-20,-281,107,0.0
-19,-269,105,0.0
-19,-276,112,0.0
-18,-268,112,0.0
-18,-267,114,0.0
-16,-268,119,0.0
-17,-271,123,0.0
-16,-266,124,0.0
-16,-263,127,0.0
-15,-261,130,0.0
-15,-258,131,0.0
-15,-265,138,0.0
-14,-267,143,0.0
-16,-298,164,0.0
-15,-302,170,0.0
-14,-283,164,0.0
-14,-284,169,0.0
-14,-292,178,0.0
-12,-261,162,0.0
-12,-265,169,0.0
-10,-244,159,0.0
-9,-235,157,0.0
-9,-211,144,0.0
-9,-218,152,0.0
-8,-214,153,0.0
-7,-192,140,0.0
-6,-184,138,0.0
-6,-170,130,0.0
-821,-22537,17656,0.0
-779,-22136,17729,0.0
-738,-21761,17817,0.0
-700,-21391,17901,0.0
-660,-20984,17948,0.0
-622,-20607,18013,0.0
-587,-20253,18092,0.0
-551,-19889,18155,0.0
-518,-19551,18236,0.0
-486,-19207,18307,0.0
-454,-18870,18378,0.0
-422,-18510,18419,0.0
-392,-18175,18480,0.0
-363,-17854,18550,0.0
-334,-17513,18593,0.0
-307,-17186,18644,0.0
-281,-16906,18741,0.0
-255,-16586,18791,0.0
-231,-16264,18830,0.0
-206,-15979,18909,0.0
-183,-15668,18952,0.0
-160,-15384,19022,0.0
-136,-14776,18679,0.0
-115,-14423,18642,0.0
-91,-13522,17873,0.0
-74,-13718,18545,0.0
-59,-13917,19242,0.0
-40,-13654,19315,0.0
-22,-13373,19358,0.0
-6,-13087,19387,0.0
10,-12819,19440,0.0
27,-12551,19488,0.0
41,-12264,19499,0.0
56,-12038,19607,0.0
71,-11777,19655,0.0
84,-11516,19698,0.0
97,-11259,19744,0.0
109,-11002,19785,0.0
121,-10755,19843,0.0
133,-10503,19886,0.0
143,-10246,19919,0.0
151,-9889,19745,0.0
163,-9734,19969,0.0
170,-9416,19860,0.0
178,-9106,19754,0.0
189,-9029,20156,0.0
198,-8800,20226,0.0
205,-8560,20271,0.0
211,-8265,20178,0.0
218,-8084,20360,0.0
224,-7831,20358,0.0
230,-7624,20477,0.0
233,-7311,20304,0.0
238,-7072,20327,0.0
234,-6626,19726,0.0
245,-6593,20359,0.0
242,-6197,19862,0.0
247,-6038,20114,0.0
254,-5934,20573,0.0
257,-5731,20706,0.0
262,-5554,20942,0.0
262,-5322,20977,0.0
263,-5100,21051,0.0
264,-4875,21119,0.0
264,-4650,21179,0.0
264,-4420,21225,0.0
263,-4200,21315,0.0
262,-3972,21375,0.0
260,-3744,21433,0.0
258,-3517,21501,0.0
256,-3284,21534,0.0
249,-3005,21238,0.0
249,-2824,21641,0.0
245,-2595,21709,0.0
237,-2332,21475,0.0
237,-2134,21843,0.0
231,-1902,21909,0.0
226,-1667,21961,0.0
209,-1364,20950,0.0
208,-1166,21490,0.0
202,-941,21643,0.0
198,-724,22181,0.0
191,-486,22278,0.0
181,-245,22182,0.0
173,-6,22381,0.0
164,235,22447,0.0
154,480,22554,0.0
143,723,22534,0.0
132,967,22545,0.0
120,1212,22558,0.0
109,1463,22663,0.0
96,1708,22666,0.0
81,1935,22433,0.0
67,2154,22186,0.0
54,2407,22281,0.0
40,2681,22545,0.0
24,2883,22196,0.0
9,3273,23232,0.0
-7,3545,23341,0.0
-24,3809,23383,0.0
-41,4090,23500,0.0
-61,4363,23564,0.0
-80,4641,23636,0.0
-100,4921,23710,0.0
-120,5203,23777,0.0
-142,5487,23842,0.0
-163,5777,23916,0.0
0,14,59,0.0
0,17,65,0.0
0,16,63,0.0
0,18,67,0.0
0,23,81,0.0
0,23,74,0.0
0,30,93,0.0
-1,38,113,0.0
-1,36,103,0.0
-1,38,105,0.0
-1,33,91,0.0
-2,39,102,0.0
-1,41,105,0.0
-2,50,124,0.0
-2,47,112,0.0
-3,53,126,0.0
-2,58,131,0.0
-3,60,133,0.0
-3,63,133,0.0
-4,69,143,0.0
-4,70,142,0.0
-4,72,142,0.0
-4,74,141,0.0
-5,79,147,0.0
-4,75,136,0.0
-5,79,139,0.0
-6,89,154,0.0
-5,82,138,0.0
-6,91,149,0.0
-6,94,148,0.0
-6,89,139,0.0
-7,94,143,0.0
-7,99,147,0.0
-8,102,148,0.0
-7,100,143,0.0
-8,100,139,0.0
-8,107,144,0.0
-8,109,144,0.0
-9,111,143,0.0
-9,112,143,0.0
-9,110,137,0.0
-9,112,136,0.0
-10,111,131,0.0
-9,108,125,0.0
-9,110,125,0.0
-10,110,122,0.0
-10,109,118,0.0
-10,111,118,0.0
-11,118,123,0.0
-11,121,124,0.0
-12,121,121,0.0
-13,131,128,0.0
-36,-314,101,0.0
-34,-304,101,0.0
-34,-300,104,0.0
-33,-289,104,0.0
-31,-280,103,0.0
-31,-282,108,0.0
-31,-282,111,0.0
-29,-272,110,0.0
-28,-262,110,0.0
-27,-258,111,0.0
-28,-262,117,0.0
-27,-261,119,0.0
-26,-251,118,0.0
-27,-262,127,0.0
-26,-259,129,0.0
-26,-262,134,0.0
-26,-264,138,0.0
-27,-276,148,0.0
-28,-295,163,0.0
-27,-289,163,0.0
-28,-286,167,0.0
-27,-284,169,0.0
-25,-277,169,0.0
-24,-261,163,0.0
-23,-251,160,0.0
-20,-221,144,0.0
-20,-216,145,0.0
-19,-213,146,0.0
-17,-198,139,0.0
-17,-192,138,0.0
-16,-192,141,0.0
-2071,-23232,17472,0.0
-2025,-22890,17603,0.0
-1972,-22472,17668,0.0
-1919,-22036,17711,0.0
-1872,-21662,17797,0.0
-1828,-21302,17890,0.0
-1783,-20939,17971,0.0
-1738,-20561,18034,0.0
-1694,-20182,18089,0.0
-1655,-19847,18177,0.0
-1613,-19476,18227,0.0
-1574,-19140,18302,0.0
-1536,-18789,18357,0.0
-1498,-18438,18406,0.0
-1464,-18123,18486,0.0
-1429,-17785,18536,0.0
-1396,-17468,18602,0.0
-1363,-17137,18646,0.0
-1330,-16810,18691,0.0
-1300,-16508,18756,0.0
-1272,-16223,18838,0.0
-1243,-15917,18890,0.0
-1213,-15593,18915,0.0
-1186,-15298,18970,0.0
-1161,-15015,19034,0.0
-1137,-14731,19093,0.0
-1112,-14436,19132,0.0
-1089,-14168,19204,0.0
-1066,-13882,19246,0.0
-1045,-13609,19301,0.0
-1023,-13331,19346,0.0
-1001,-13048,19378,0.0
-984,-12798,19455,0.0
-963,-12528,19498,0.0
-946,-12266,19551,0.0
-929,-12008,19605,0.0
-911,-11745,19648,0.0
-896,-11497,19710,0.0
-879,-11235,19745,0.0
-864,-10974,19780,0.0
-849,-10709,19802,0.0
-837,-10483,19891,0.0
-822,-10223,19914,0.0
-811,-9979,19965,0.0
-798,-9726,19993,0.0
-787,-9490,20055,0.0
-777,-9253,20110,0.0
-767,-9012,20153,0.0
-757,-8777,20208,0.0
-748,-8534,20245,0.0
-740,-8306,20308,0.0
-733,-8077,20372,0.0
-726,-7848,20433,0.0
-719,-7615,20480,0.0
-713,-7386,20538,0.0
-703,-7105,20445,0.0
-682,-6720,20031,0.0
-676,-6489,20055,0.0
-673,-6263,20092,0.0
-679,-6126,20422,0.0
-676,-5910,20504,0.0
-679,-5730,20710,0.0
-673,-5469,20629,0.0
-677,-5290,20857,0.0
-677,-5065,20912,0.0
-676,-4840,20968,0.0
-677,-4622,21051,0.0
-677,-4395,21098,0.0
-676,-4158,21092,0.0
-680,-3943,21200,0.0
-684,-3723,21291,0.0
-686,-3498,21355,0.0
-690,-3275,21433,0.0
-693,-3044,21474,0.0
-697,-2813,21497,0.0
-703,-2591,21608,0.0
-711,-2368,21729,0.0
-717,-2138,21790,0.0
-723,-1909,21862,0.0
-731,-1678,21944,0.0
-718,-1404,21389,0.0
-725,-1176,21425,0.0
-732,-946,21456,0.0
-762,-737,22128,0.0
-774,-501,22247,0.0
-782,-262,22257,0.0
-795,-23,22371,0.0
-807,217,22452,0.0
-818,460,22501,0.0
-832,705,22591,0.0
-845,951,22641,0.0
-858,1197,22682,0.0
-873,1447,22771,0.0
-889,1698,22842,0.0
-896,1934,22702,0.0
-886,2122,22101,0.0
-907,2382,22279,0.0
-921,2624,22279,0.0
-930,2849,22132,0.0
-989,3233,23152,0.0
-1013,3513,23319,0.0
-1034,3782,23397,0.0
-1055,4051,23455,0.0
-1076,4322,23512,0.0
-1101,4603,23609,0.0
-1123,4881,23675,0.0
-1148,5162,23743,0.0
-1173,5445,23810,0.0
-1199,5732,23882,0.0
-1222,6004,23879,0.0
-1253,6311,24005,0.0
-3,21,77,0.0
-3,16,58,0.0
-3,23,81,0.0
-4,24,76,0.0
-3,21,66,0.0
-4,26,79,0.0
-4,24,72,0.0
-4,28,79,0.0
-5,35,96,0.0
-5,36,96,0.0
-6,39,101,0.0
-5,39,97,0.0
-5,41,96,0.0
-7,50,116,0.0
-8,54,121,0.0
-8,55,119,0.0
-8,54,115,0.0
-8,58,122,0.0
-9,61,123,0.0
-10,69,135,0.0
-10,69,132,0.0
-10,71,132,0.0
-11,72,131,0.0
-11,81,142,0.0
-12,84,146,0.0
-12,85,143,0.0
-13,87,142,0.0
-13,93,149,0.0
-13,90,141,0.0
-14,96,147,0.0
-15,103,153,0.0
-13,93,137,0.0
-14,101,144,0.0
-14,101,139,0.0
-15,107,145,0.0
-15,107,142,0.0
-15,104,135,0.0
-15,106,134,0.0
-16,115,143,0.0
-16,108,132,0.0
-15,106,126,0.0
-15,104,121,0.0
-15,107,122,0.0
-17,116,130,0.0
-17,113,124,0.0
-17,113,121,0.0
-18,120,126,0.0
-17,114,117,0.0
-18,124,125,0.0
-19,127,124,0.0
52,-264,72,0.0
52,-263,74,0.0
53,-259,76,0.0
56,-270,82,0.0
57,-268,85,0.0
57,-265,87,0.0
58,-268,92,0.0
57,-257,91,0.0
59,-259,94,0.0
60,-260,98,0.0
60,-257,100,0.0
62,-264,106,0.0
62,-258,108,0.0
64,-262,112,0.0
65,-261,115,0.0
67,-263,120,0.0
67,-260,122,0.0
68,-263,126,0.0
69,-260,129,0.0
69,-257,130,0.0
69,-254,133,0.0
66,-240,128,0.0
72,-254,140,0.0
73,-256,144,0.0
77,-260,151,0.0
77,-257,153,0.0
75,-246,150,0.0
75,-245,153,0.0
73,-235,151,0.0
72,-226,148,0.0
68,-211,142,0.0
64,-195,135,0.0
61,-184,129,0.0
54,-161,116,0.0
7126,-20527,15162,0.0
7111,-20160,15240,0.0
7104,-19815,15330,0.0
7089,-19454,15402,0.0
7082,-19120,15488,0.0
7059,-18746,15537,0.0
7054,-18429,15625,0.0
7040,-18089,15689,0.0
7027,-17757,15753,0.0
7018,-17442,15828,0.0
7011,-17136,15905,0.0
6997,-16814,15962,0.0
6990,-16512,16033,0.0
6985,-16220,16110,0.0
6972,-15911,16164,0.0
6959,-15608,16218,0.0
6879,-15159,16114,0.0
6946,-15038,16350,0.0
6940,-14761,16420,0.0
7085,-14798,16841,0.0
7297,-14967,17427,0.0
7353,-14808,17644,0.0
7557,-14938,18217,0.0
7759,-15052,18787,0.0
7965,-15161,19370,0.0
