//X,Y,Z,Classification
12770,-12791,18087,0.0
12775,-12529,18189,0.0
12781,-12269,18290,0.0
12783,-12008,18387,0.0
12785,-11745,18480,0.0
12799,-11494,18590,0.0
12806,-11236,18688,0.0
12803,-10970,18771,0.0
12801,-10707,18853,0.0
12789,-10435,18920,0.0
12812,-10192,19036,0.0
12799,-9922,19100,0.0
12811,-9670,19197,0.0
12817,-9415,19286,0.0
12815,-9153,19361,0.0
12816,-8894,19439,0.0
12827,-8643,19533,0.0
12825,-8382,19603,0.0
12843,-8134,19704,0.0
12837,-7871,19766,0.0
12838,-7613,19839,0.0
12847,-7359,19924,0.0
12845,-7099,19988,0.0
12863,-6850,20086,0.0
12853,-6586,20136,0.0
12857,-6329,20207,0.0
12843,-6063,20249,0.0
12843,-5805,20314,0.0
12846,-5547,20382,0.0
12853,-5291,20453,0.0
12847,-5030,20505,0.0
12854,-4773,20574,0.0
12870,-4520,20658,0.0
12856,-4255,20692,0.0
12863,-3996,20760,0.0
12850,-3732,20796,0.0
12859,-3473,20862,0.0
12864,-3213,20925,0.0
12857,-2950,20965,0.0
12865,-2690,21030,0.0
12882,-2430,21107,0.0
12872,-2165,21139,0.0
12866,-1900,21179,0.0
12865,-1635,21226,0.0
12880,-1372,21296,0.0
12880,-1106,21340,0.0
12867,-839,21363,0.0
12880,-573,21428,0.0
12857,-304,21433,0.0
12711,-35,21230,0.0
12183,220,20387,0.0
11884,464,19924,0.0
11573,696,19436,0.0
11156,906,18768,0.0
11602,1189,19551,0.0
11616,1437,19607,0.0
11639,1689,19679,0.0
11668,1943,19758,0.0
11683,2197,19814,0.0
11690,2451,19853,0.0
11706,2708,19910,0.0
11726,2968,19969,0.0
11760,3235,20053,0.0
11779,3499,20112,0.0
11793,3764,20160,0.0
11824,4037,20237,0.0
11847,4309,20298,0.0
11868,4583,20357,0.0
11895,4862,20424,0.0
11922,5143,20491,0.0
11933,5420,20531,0.0
32,15,55,0.0
23,11,40,0.0
25,13,45,0.0
37,20,65,0.0
34,19,59,0.0
37,22,65,0.0
42,26,73,0.0
44,28,76,0.0
44,29,78,0.0
44,30,76,0.0
46,33,81,0.0
49,36,87,0.0
51,39,89,0.0
56,44,99,0.0
56,46,99,0.0
55,47,96,0.0
66,57,115,0.0
59,52,102,0.0
66,61,117,0.0
64,60,111,0.0
62,60,108,0.0
63,63,110,0.0
64,66,112,0.0
65,68,114,0.0
59,64,103,0.0
61,68,108,0.0
64,73,112,0.0
62,73,109,0.0
64,76,110,0.0
64,78,112,0.0
63,80,110,0.0
65,84,114,0.0
66,87,116,0.0
68,91,118,0.0
62,86,108,0.0
66,93,114,0.0
65,94,114,0.0
67,99,116,0.0
72,108,125,0.0
68,104,116,0.0
69,109,120,0.0
69,110,118,0.0
70,114,120,0.0
69,115,118,0.0
72,123,123,0.0
71,124,122,0.0
69,124,119,0.0
69,125,117,0.0
73,137,125,0.0
73,136,123,0.0
72,139,123,0.0
73,143,123,0.0
74,148,124,0.0
76,155,127,0.0
74,154,124,0.0
74,157,124,0.0
115,-318,67,0.0
108,-294,65,0.0
105,-287,66,0.0
107,-285,69,0.0
105,-274,70,0.0
102,-264,70,0.0
105,-269,75,0.0
104,-262,76,0.0
106,-264,79,0.0
105,-258,81,0.0
105,-257,83,0.0
106,-253,86,0.0
106,-251,87,0.0
110,-257,93,0.0
110,-254,95,0.0
110,-249,97,0.0
114,-257,103,0.0
114,-252,104,0.0
116,-252,108,0.0
117,-252,110,0.0
116,-244,111,0.0
120,-252,118,0.0
120,-248,119,0.0
121,-244,121,0.0
120,-240,122,0.0
120,-238,124,0.0
125,-245,131,0.0
133,-254,141,0.0
140,-265,150,0.0
142,-265,155,0.0
146,-269,160,0.0
140,-256,157,0.0
147,-264,166,0.0
135,-238,154,0.0
138,-240,160,0.0
131,-224,152,0.0
124,-209,146,0.0
117,-194,139,0.0
108,-178,131,0.0
12280,-19778,14875,0.0
12242,-19420,14966,0.0
12197,-19056,15046,0.0
12163,-18712,15137,0.0
12104,-18333,15192,0.0
12068,-17995,15275,0.0
12031,-17658,15353,0.0
11995,-17326,15430,0.0
11950,-16985,15493,0.0
11922,-16670,15574,0.0
11889,-16354,15649,0.0
11854,-16033,15715,0.0
11819,-15719,15781,0.0
11780,-15402,15839,0.0
11742,-15090,15895,0.0
11733,-14816,15989,0.0
11813,-14654,16203,0.0
11979,-14595,16535,0.0
12274,-14686,17051,0.0
12588,-14786,17593,0.0
12758,-14707,17938,0.0
12762,-14434,18049,0.0
12763,-14159,18154,0.0
12765,-13886,18260,0.0
12761,-13606,18352,0.0
12777,-13350,18476,0.0
12754,-13054,18540,0.0
12782,-12811,18677,0.0
12770,-12528,18754,0.0
12782,-12268,18864,0.0
12797,-12013,18979,0.0
12798,-11745,19072,0.0
12795,-11473,19157,0.0
12781,-11192,19224,0.0
12798,-10940,19336,0.0
12802,-10676,19427,0.0
12807,-10414,19520,0.0
12819,-10157,19620,0.0
12804,-9880,19678,0.0
12815,-9623,19776,0.0
12805,-9350,19839,0.0
12818,-9095,19939,0.0
12815,-8829,20010,0.0
12834,-8576,20115,0.0
12841,-8317,20200,0.0
12847,-8056,20284,0.0
12835,-7784,20337,0.0
12845,-7527,20423,0.0
12822,-7250,20456,0.0
12874,-7015,20609,0.0
12848,-6738,20637,0.0
12848,-6473,20702,0.0
12856,-6213,20780,0.0
12861,-5952,20853,0.0
12868,-5691,20927,0.0
12860,-5422,20977,0.0
12852,-5155,21027,0.0
12875,-4899,21123,0.0
12862,-4630,21162,0.0
12875,-4370,21243,0.0
12883,-4106,21311,0.0
12859,-3832,21328,0.0
12859,-3567,21384,0.0
12867,-3302,21451,0.0
12864,-3035,21501,0.0
12866,-2768,21556,0.0
12889,-2505,21646,0.0
12875,-2233,21673,0.0
12878,-1965,21726,0.0
12877,-1695,21773,0.0
12865,-1423,21800,0.0
12846,-1151,21814,0.0
12860,-881,21885,0.0
12842,-608,21897,0.0
12753,-333,21790,0.0
12529,-61,21448,0.0
11898,195,20409,0.0
11617,438,19960,0.0
11315,670,19476,0.0
11038,891,19032,0.0
11316,1159,19546,0.0
11349,1408,19637,0.0
11351,1655,19672,0.0
11378,1908,19750,0.0
11389,2160,19798,0.0
11409,2415,19862,0.0
11421,2671,19911,0.0
11441,2929,19974,0.0
11467,3193,20047,0.0
11503,3461,20136,0.0
11502,3720,20160,0.0
11523,3987,20219,0.0
11552,4260,20295,0.0
11591,4540,20387,0.0
11596,4809,20417,0.0
11631,5093,20499,0.0
11654,5374,20561,0.0
29,14,53,0.0
33,17,60,0.0
38,20,69,0.0
42,23,77,0.0
39,23,70,0.0
32,19,57,0.0
34,21,60,0.0
41,26,73,0.0
42,29,76,0.0
48,34,87,0.0
48,35,86,0.0
52,38,92,0.0
50,39,90,0.0
47,38,85,0.0
52,43,93,0.0
59,51,107,0.0
57,50,103,0.0
58,54,106,0.0
65,61,117,0.0
64,62,115,0.0
63,63,113,0.0
63,64,112,0.0
66,69,117,0.0
59,64,107,0.0
59,65,107,0.0
59,66,105,0.0
62,73,112,0.0
62,72,110,0.0
61,75,109,0.0
60,76,109,0.0
63,79,111,0.0
61,81,111,0.0
66,87,116,0.0
64,88,115,0.0
64,90,114,0.0
63,91,113,0.0
66,97,118,0.0
63,95,113,0.0
66,102,118,0.0
68,107,121,0.0
66,106,117,0.0
67,110,120,0.0
68,114,120,0.0
66,113,116,0.0
69,119,120,0.0
70,125,123,0.0
70,128,124,0.0
71,133,125,0.0
71,133,123,0.0
71,136,123,0.0
72,142,125,0.0
72,145,125,0.0
70,144,121,0.0
74,154,129,0.0
72,154,125,0.0
73,159,126,0.0
107,-306,65,0.0
103,-289,65,0.0
101,-281,66,0.0
101,-276,68,0.0
100,-271,70,0.0
101,-270,73,0.0
102,-267,75,0.0
101,-261,77,0.0
101,-260,79,0.0
106,-268,85,0.0
102,-252,83,0.0
106,-259,89,0.0
107,-259,91,0.0
105,-253,93,0.0
112,-263,99,0.0
110,-255,100,0.0
108,-247,100,0.0
110,-249,104,0.0
113,-253,108,0.0
115,-254,113,0.0
113,-246,112,0.0
119,-252,120,0.0
118,-250,121,0.0
118,-245,123,0.0
119,-244,126,0.0
122,-248,130,0.0
124,-249,135,0.0
134,-265,148,0.0
135,-262,150,0.0
138,-265,156,0.0
144,-271,164,0.0
141,-262,163,0.0
140,-256,163,0.0
133,-241,157,0.0
126,-224,149,0.0
121,-213,147,0.0
118,-205,144,0.0
117,-199,144,0.0
12007,-20074,14834,0.0
11958,-19693,14911,0.0
11925,-19343,15006,0.0
11869,-18960,15068,0.0
11839,-18623,15160,0.0
11781,-18246,15215,0.0
11746,-17908,15294,0.0
11717,-17584,15381,0.0
11644,-17196,15406,0.0
11632,-16901,15508,0.0
11605,-16590,15589,0.0
11577,-16278,15665,0.0
11542,-15960,15730,0.0
11509,-15648,15796,0.0
11475,-15337,15857,0.0
11440,-15029,15916,0.0
11413,-14733,15983,0.0
11570,-14671,16306,0.0
11769,-14658,16691,0.0
11990,-14663,17109,0.0
12341,-14817,17716,0.0
12644,-14899,18258,0.0
12749,-14739,18517,0.0
12748,-14455,18620,0.0
12753,-14180,18731,0.0
12763,-13911,18848,0.0
12749,-13617,18927,0.0
12772,-13362,19060,0.0
12757,-13070,19135,0.0
12765,-12802,19244,0.0
12783,-12543,19366,0.0
12777,-12262,19450,0.0
12796,-12005,19571,0.0
12790,-11725,19653,0.0
12804,-11463,19761,0.0
12802,-11188,19847,0.0
12800,-10914,19931,0.0
12805,-10646,20023,0.0
12801,-10372,20102,0.0
12808,-10106,20195,0.0
12816,-9841,20288,0.0
12818,-9573,20373,0.0
12812,-9297,20443,0.0
12838,-9046,20562,0.0
12855,-8787,20666,0.0
12835,-8504,20709,0.0
12843,-8240,20797,0.0
12843,-7970,20871,0.0
12863,-7713,20975,0.0
12860,-7442,21041,0.0
12853,-7168,21099,0.0
12871,-6909,21197,0.0
12857,-6632,21243,0.0
12874,-6372,21339,0.0
12892,-6110,21433,0.0
12863,-5827,21450,0.0
12857,-5554,21506,0.0
12870,-5290,21588,0.0
12865,-5018,21642,0.0
12862,-4748,21697,0.0
12881,-4484,21790,0.0
12874,-4211,21834,0.0
12876,-3940,21897,0.0
12857,-3663,21921,0.0
12874,-3396,22005,0.0
12870,-3122,22053,0.0
12859,-2847,22089,0.0
12876,-2578,22168,0.0
12863,-2301,22199,0.0
12887,-2032,22291,0.0
12877,-1755,22323,0.0
12880,-1479,22377,0.0
12870,-1202,22408,0.0
12864,-925,22444,0.0
12881,-649,22519,0.0
12563,-361,22007,0.0
12209,-86,21428,0.0
11612,170,20419,0.0
11336,413,19971,0.0
10967,639,19355,0.0
11016,885,19477,0.0
11041,1130,19554,0.0
11048,1375,19599,0.0
11068,1623,19668,0.0
11084,1873,19727,0.0
11099,2124,19785,0.0
11112,2376,19838,0.0
11136,2633,19909,0.0
11145,2888,19952,0.0
11170,3149,20025,0.0
11193,3412,20093,0.0
11209,3674,20148,0.0
11224,3939,20200,0.0
11263,4214,20293,0.0
11266,4478,20323,0.0
11305,4760,20416,0.0
11325,5036,20473,0.0
11357,5320,20553,0.0
30,14,54,0.0
28,14,51,0.0
32,17,60,0.0
41,23,74,0.0
35,21,65,0.0
34,20,63,0.0
45,28,83,0.0
35,22,63,0.0
42,29,78,0.0
41,29,75,0.0
52,39,96,0.0
52,40,96,0.0
51,40,94,0.0
44,37,82,0.0
53,44,98,0.0
58,51,108,0.0
54,50,101,0.0
62,57,115,0.0
64,61,118,0.0
61,60,114,0.0
65,66,120,0.0
64,67,120,0.0
66,71,122,0.0
59,65,110,0.0
58,65,106,0.0
60,70,112,0.0
63,74,115,0.0
59,72,108,0.0
56,70,103,0.0
61,78,113,0.0
61,79,112,0.0
60,81,111,0.0
60,82,110,0.0
65,91,119,0.0
63,90,114,0.0
63,93,117,0.0
63,94,114,0.0
62,95,114,0.0
62,98,114,0.0
64,103,117,0.0
63,103,115,0.0
66,110,120,0.0
66,112,120,0.0
66,114,119,0.0
67,120,122,0.0
68,124,124,0.0
67,124,121,0.0
66,125,119,0.0
68,132,123,0.0
67,134,122,0.0
70,140,125,0.0
70,143,125,0.0
68,143,123,0.0
71,151,127,0.0
69,149,123,0.0
70,154,124,0.0
102,-298,64,0.0
94,-273,62,0.0
98,-279,66,0.0
99,-278,70,0.0
96,-267,71,0.0
96,-264,72,0.0
95,-255,72,0.0
96,-253,75,0.0
98,-258,80,0.0
99,-255,82,0.0
99,-253,85,0.0
103,-260,90,0.0
100,-246,88,0.0
102,-249,92,0.0
104,-250,96,0.0
107,-255,101,0.0
105,-248,102,0.0
109,-253,107,0.0
109,-250,109,0.0
110,-249,112,0.0
109,-241,112,0.0
112,-246,117,0.0
113,-245,121,0.0
112,-238,119,0.0
116,-245,127,0.0
116,-242,129,0.0
118,-242,132,0.0
133,-266,150,0.0
130,-257,148,0.0
132,-260,154,0.0
138,-265,161,0.0
133,-252,157,0.0
124,-233,149,0.0
123,-226,149,0.0
119,-217,146,0.0
120,-216,149,0.0
111,-196,138,0.0
99,-172,125,0.0
101,-174,129,0.0
11619,-19578,14922,0.0
11598,-19247,15027,0.0
11543,-18865,15088,0.0
11514,-18527,15178,0.0
11464,-18163,15238,0.0
11434,-17831,15321,0.0
11377,-17462,15365,0.0
11329,-17111,15420,0.0
11300,-16794,15497,0.0
11280,-16491,15584,0.0
11265,-16199,15676,0.0
11235,-15889,15746,0.0
11211,-15589,15820,0.0
11141,-15228,15828,0.0
10913,-14661,15607,0.0
11112,-14669,15995,0.0
11334,-14699,16418,0.0
11548,-14708,16831,0.0
11737,-14680,17211,0.0
12085,-14837,17825,0.0
12433,-14983,18447,0.0
12539,-14824,18710,0.0
12748,-14783,19128,0.0
12735,-14481,19214,0.0
12733,-14192,19313,0.0
12757,-13933,19450,0.0
12742,-13633,19529,0.0
12735,-13342,19616,0.0
12743,-13068,19726,0.0
12764,-12808,19853,0.0
12774,-12537,19963,0.0
12729,-12212,19985,0.0
12736,-11941,20089,0.0
12752,-11677,20204,0.0
12704,-11356,20215,0.0
12734,-11106,20351,0.0
14152,-12036,22713,1.0
14138,-11718,22786,1.0
14259,-11509,23073,1.0
14394,-11307,23384,1.0
14374,-10982,23443,1.0
14438,-10720,23639,1.0
14566,-10502,23937,1.0
14603,-10215,24086,1.0
14666,-9944,24279,1.0
14653,-9623,24345,1.0
14714,-9346,24531,1.0
14741,-9048,24659,1.0
14810,-8774,24860,1.0
14774,-8436,24880,1.0
14803,-8137,25010,1.0
14790,-7814,25068,1.0
14706,-7455,25002,1.0
0,0,0,0.0
14662,-6806,25078,1.0
14612,-6471,25068,1.0
14607,-6156,25132,1.0
14522,-5809,25056,1.0
14469,-5478,25033,1.0
14438,-5158,25048,1.0
14417,-4839,25078,1.0
14335,-4504,25002,1.0
14254,-4173,24925,1.0
14396,-3904,25237,1.0
14455,-3607,25402,1.0
14709,-3353,25911,1.0
14828,-3059,26183,1.0
15062,-2781,26658,1.0
15231,-2481,27019,1.0
12808,-1807,22771,0.0
12819,-1529,22841,0.0
12854,-1251,22952,0.0
12864,-970,23019,0.0
12862,-688,23062,0.0
12775,-401,22951,0.0
11959,-111,21526,0.0
11326,146,20428,0.0
11122,391,20096,0.0
10748,618,19457,0.0
10749,859,19492,0.0
10770,1103,19565,0.0
10786,1347,19627,0.0
10781,1591,19649,0.0
10799,1840,19715,0.0
10824,2091,19792,0.0
10832,2342,19836,0.0
10853,2596,19905,0.0
10866,2851,19957,0.0
10889,3110,20026,0.0
10913,3372,20098,0.0
10934,3636,20163,0.0
10945,3898,20210,0.0
10971,4166,20282,0.0
10989,4436,20338,0.0
11009,4708,20399,0.0
11034,4985,20469,0.0
11051,5261,20521,0.0
11086,5548,20608,0.0
19,9,35,0.0
23,12,42,0.0
31,17,58,0.0
30,17,58,0.0
38,23,73,0.0
34,22,65,0.0
40,26,75,0.0
38,26,71,0.0
43,31,80,0.0
45,34,87,0.0
45,34,84,0.0
48,39,91,0.0
43,35,82,0.0
46,39,88,0.0
50,43,93,0.0
55,50,104,0.0
51,48,97,0.0
55,54,105,0.0
54,55,103,0.0
57,58,108,0.0
58,62,111,0.0
56,62,108,0.0
55,61,105,0.0
56,65,108,0.0
57,68,109,0.0
52,64,101,0.0
57,72,109,0.0
57,73,110,0.0
55,72,105,0.0
60,80,114,0.0
56,77,107,0.0
58,82,110,0.0
56,81,108,0.0
58,86,111,0.0
57,86,108,0.0
59,90,110,0.0
60,94,114,0.0
57,92,108,0.0
61,100,115,0.0
61,102,114,0.0
61,104,115,0.0
62,108,116,0.0
65,115,121,0.0
63,115,119,0.0
61,114,114,0.0
61,117,116,0.0
63,122,117,0.0
64,126,119,0.0
64,130,120,0.0
65,133,119,0.0
65,136,120,0.0
66,141,121,0.0
67,147,124,0.0
65,146,121,0.0
66,151,122,0.0
97,-291,64,0.0
98,-289,67,0.0
95,-277,68,0.0
96,-275,70,0.0
91,-261,69,0.0
93,-262,72,0.0
93,-258,75,0.0
96,-261,78,0.0
95,-254,79,0.0
95,-253,82,0.0
99,-260,87,0.0
100,-257,90,0.0
100,-253,92,0.0
100,-251,94,0.0
100,-248,96,0.0
104,-253,101,0.0
104,-250,103,0.0
103,-245,104,0.0
107,-251,110,0.0
107,-247,112,0.0
111,-251,117,0.0
110,-247,119,0.0
115,-256,126,0.0
113,-247,126,0.0
115,-247,129,0.0
115,-244,131,0.0
119,-249,137,0.0
128,-264,149,0.0
133,-270,157,0.0
130,-260,155,0.0
132,-261,161,0.0
127,-247,156,0.0
129,-247,159,0.0
120,-229,151,0.0
117,-218,148,0.0
108,-198,138,0.0
104,-188,135,0.0
101,-182,133,0.0
11350,-19873,14879,0.0
11298,-19485,14946,0.0
11265,-19136,15034,0.0
11222,-18771,15106,0.0
11191,-18431,15190,0.0
11153,-18082,15261,0.0
11113,-17736,15329,0.0
11060,-17373,15376,0.0
11024,-17038,15441,0.0
11029,-16774,15565,0.0
10987,-16437,15618,0.0
10966,-16137,15701,0.0
10936,-15825,15766,0.0
10893,-15498,15811,0.0
10879,-15215,15895,0.0
10845,-14906,15948,0.0
10814,-14606,16005,0.0
11067,-14684,16482,0.0
11350,-14791,17007,0.0
11505,-14721,17341,0.0
11826,-14855,17930,0.0
12147,-14974,18521,0.0
12482,-15097,19141,0.0
12735,-15108,19636,0.0
12752,-14834,19768,0.0
12756,-14546,19878,0.0
12735,-14230,19948,0.0
12679,-13879,19962,0.0
13543,-14517,21428,1.0
13478,-14141,21430,1.0
13452,-13811,21491,1.0
13543,-13599,21737,1.0
13670,-13420,22042,1.0
13713,-13155,22212,1.0
13788,-12919,22431,1.0
0,0,0,0.0
13900,-12405,22807,1.0
13913,-12108,22925,1.0
14036,-11905,23222,1.0
14165,-11701,23531,1.0
14216,-11429,23707,1.0
14183,-11091,23744,1.0
14287,-10858,24010,1.0
14359,-10597,24221,1.0
14405,-10316,24388,1.0
14426,-10015,24510,1.0
14460,-9722,24655,1.0
14575,-9480,24936,1.0
14554,-9149,24986,1.0
14577,-8845,25109,1.0
14566,-8520,25170,1.0
14560,-8199,25242,1.0
0,0,0,0.0
0,0,0,0.0
0,0,0,0.0
0,0,0,0.0
0,0,0,0.0
0,0,0,0.0
0,0,0,0.0
14366,-5581,25500,1.0
14355,-5263,25552,1.0
14271,-4919,25468,1.0
14137,-4563,25297,1.0
14130,-4250,25348,1.0
14056,-3920,25280,1.0
13979,-3590,25203,1.0
14089,-3308,25463,1.0
14268,-3034,25846,1.0
14442,-2751,26223,1.0
14634,-2463,26632,1.0
14788,-2160,26972,1.0
14979,-1854,27382,1.0
15200,-1542,27844,1.0
15447,-1222,28356,1.0
15648,-886,28783,1.0
15901,-542,29309,1.0
11708,-135,21623,0.0
11058,122,20462,0.0
10903,369,20212,0.0
10468,592,19441,0.0
10475,832,19490,0.0
10481,1074,19534,0.0
10500,1317,19604,0.0
10502,1560,19641,0.0
10524,1808,19715,0.0
10550,2059,19794,0.0
10553,2308,19832,0.0
10568,2559,19887,0.0
10580,2811,19939,0.0
10602,3069,20009,0.0
10635,3333,20100,0.0
10656,3595,20168,0.0
10665,3856,20209,0.0
10687,4123,20279,0.0
10699,4387,20324,0.0
10719,4658,20386,0.0
10743,4934,20457,0.0
10761,5209,20513,0.0
33,17,65,0.0
26,14,51,0.0
26,14,51,0.0
23,13,45,0.0
29,17,55,0.0
29,19,57,0.0
39,26,75,0.0
31,21,60,0.0
39,28,76,0.0
40,29,78,0.0
44,33,84,0.0
42,33,81,0.0
40,33,79,0.0
44,38,86,0.0
46,41,90,0.0
51,45,98,0.0
51,48,100,0.0
49,48,97,0.0
55,55,108,0.0
57,58,111,0.0
51,53,99,0.0
54,59,106,0.0
52,57,101,0.0
56,64,110,0.0
59,69,115,0.0
55,67,108,0.0
55,69,109,0.0
56,71,110,0.0
51,67,101,0.0
53,70,103,0.0
54,74,105,0.0
54,76,107,0.0
56,81,110,0.0
56,83,110,0.0
57,86,112,0.0
60,92,118,0.0
55,86,106,0.0
56,91,110,0.0
56,92,109,0.0
57,96,111,0.0
61,104,118,0.0
59,103,114,0.0
61,108,118,0.0
60,108,114,0.0
60,112,116,0.0
61,117,118,0.0
60,117,116,0.0
59,118,114,0.0
62,125,118,0.0
63,130,120,0.0
61,129,117,0.0
64,136,121,0.0
64,141,122,0.0
65,144,123,0.0
63,142,119,0.0
64,150,122,0.0
91,-282,63,0.0
93,-282,66,0.0
92,-275,68,0.0
88,-261,68,0.0
91,-266,72,0.0
89,-255,72,0.0
91,-259,76,0.0
91,-257,78,0.0
88,-244,77,0.0
95,-259,85,0.0
93,-250,86,0.0
94,-248,88,0.0
96,-249,92,0.0
94,-241,92,0.0
98,-247,97,0.0
101,-254,103,0.0
99,-246,103,0.0
101,-247,106,0.0
105,-253,112,0.0
106,-251,115,0.0
106,-249,116,0.0
106,-244,118,0.0
111,-252,125,0.0
108,-242,124,0.0
110,-243,127,0.0
112,-245,133,0.0
120,-256,143,0.0
124,-263,151,0.0
127,-264,155,0.0
123,-255,153,0.0
124,-251,156,0.0
126,-252,160,0.0
119,-233,152,0.0
115,-224,149,0.0
112,-214,146,0.0
103,-195,137,0.0
101,-188,134,0.0
98,-178,131,0.0
11021,-19765,14892,0.0
10977,-19388,14964,0.0
10953,-19053,15061,0.0
10924,-18712,15148,0.0
10872,-18336,15201,0.0
10846,-18007,15286,0.0
10807,-17660,15351,0.0
10789,-17351,15443,0.0
10745,-17005,15496,0.0
10719,-16690,15572,0.0
10689,-16372,15639,0.0
10661,-16060,15708,0.0
10622,-15734,15757,0.0
10592,-15426,15818,0.0
10571,-15134,15890,0.0
10553,-14847,15965,0.0
10560,-14599,16076,0.0
10782,-14643,16514,0.0
11060,-14753,17043,0.0
11252,-14737,17441,0.0
11568,-14873,18034,0.0
11871,-14978,18609,0.0
12171,-15068,19187,0.0
13505,-16400,21405,1.0
13494,-16066,21501,1.0
13383,-15620,21435,1.0
13328,-15243,21455,1.0
13356,-14964,21608,1.0
13260,-14548,21560,1.0
13201,-14177,21566,1.0
13284,-13961,21805,1.0
13356,-13727,22023,1.0
13382,-13448,22167,1.0
13493,-13250,22452,1.0
13566,-13012,22671,1.0
13650,-12781,22908,1.0
13722,-12537,23125,1.0
13798,-12294,23350,1.0
13952,-12114,23705,1.0
13984,-11827,23855,1.0
14024,-11545,24017,1.0
14063,-11260,24175,1.0
0,0,0,0.0
14114,-10667,24444,1.0
14164,-10388,24620,1.0
14225,-10114,24815,1.0
0,0,0,0.0
14320,-9542,25151,1.0
14335,-9232,25265,1.0
0,0,0,0.0
14368,-8613,25490,1.0
14368,-8292,25569,1.0
14363,-7969,25640,1.0
14361,-7648,25716,1.0
14342,-7318,25759,1.0
14228,-6943,25632,1.0
14105,-6568,25483,1.0
14133,-6265,25605,1.0
14117,-5944,25649,1.0
14140,-5639,25761,1.0
14087,-5303,25736,1.0
14040,-4971,25716,1.0
13969,-4633,25654,1.0
0,0,0,0.0
13947,-4000,25743,1.0
13824,-3653,25580,1.0
13707,-3313,25423,1.0
13677,-2998,25428,1.0
13840,-2721,25790,1.0
14032,-2441,26207,1.0
14228,-2152,26634,1.0
14397,-1850,27010,1.0
14544,-1537,27343,1.0
14727,-1219,27747,1.0
14996,-897,28310,1.0
15203,-560,28759,1.0
11470,-158,21739,0.0
10799,99,20509,0.0
10697,347,20353,0.0
10216,569,19476,0.0
10208,807,19494,0.0
10161,1042,19440,0.0
10223,1289,19592,0.0
10240,1533,19657,0.0
10264,1780,19735,0.0
10265,2025,19771,0.0
10297,2278,19862,0.0
10293,2524,19885,0.0
10317,2780,19961,0.0
10318,3030,19992,0.0
10344,3289,20070,0.0
10358,3548,20125,0.0
10388,3814,20211,0.0
10396,4075,20253,0.0
10425,4346,20335,0.0
10442,4614,20392,0.0
10455,4883,20442,0.0
10480,5160,20514,0.0
10503,5441,20583,0.0
22,11,43,0.0
28,15,55,0.0
24,14,50,0.0
16,10,32,0.0
29,18,58,0.0
34,22,68,0.0
24,16,48,0.0
34,25,70,0.0
33,25,66,0.0
39,30,78,0.0
41,33,81,0.0
45,37,89,0.0
39,34,79,0.0
45,41,91,0.0
46,42,93,0.0
52,49,104,0.0
49,48,99,0.0
48,49,98,0.0
52,53,103,0.0
56,60,112,0.0
52,57,104,0.0
54,61,110,0.0
51,60,103,0.0
50,60,101,0.0
49,61,100,0.0
50,63,100,0.0
51,66,102,0.0
49,65,98,0.0
50,68,99,0.0
50,70,100,0.0
52,74,103,0.0
53,78,107,0.0
53,79,106,0.0
52,80,104,0.0
54,86,109,0.0
54,86,108,0.0
51,83,103,0.0
54,91,109,0.0
54,93,109,0.0
55,95,108,0.0
56,101,112,0.0
56,102,111,0.0
54,102,109,0.0
59,112,117,0.0
56,110,112,0.0
57,114,114,0.0
58,118,116,0.0
58,121,115,0.0
60,126,118,0.0
58,126,115,0.0
59,129,116,0.0
60,134,117,0.0
61,140,120,0.0
61,144,120,0.0
59,143,118,0.0
90,-285,65,0.0
92,-286,69,0.0
92,-284,71,0.0
88,-267,70,0.0
87,-261,71,0.0
88,-261,74,0.0
88,-257,76,0.0
92,-265,82,0.0
92,-263,84,0.0
93,-258,86,0.0
91,-251,86,0.0
95,-259,93,0.0
96,-260,97,0.0
97,-257,98,0.0
98,-256,101,0.0
100,-257,106,0.0
102,-258,109,0.0
104,-259,113,0.0
105,-260,116,0.0
105,-255,118,0.0
105,-251,119,0.0
110,-260,127,0.0
110,-255,129,0.0
112,-257,133,0.0
112,-254,135,0.0
113,-252,137,0.0
116,-256,144,0.0
128,-278,160,0.0
126,-271,160,0.0
129,-272,166,0.0
124,-257,161,0.0
124,-255,162,0.0
116,-234,154,0.0
116,-230,155,0.0
108,-211,146,0.0
105,-203,143,0.0
102,-194,140,0.0
99,-187,138,0.0
10710,-19681,14920,0.0
10679,-19329,15008,0.0
10649,-18979,15092,0.0
10609,-18617,15160,0.0
10567,-18256,15222,0.0
10531,-17912,15292,0.0
10512,-17598,15382,0.0
10481,-17268,15453,0.0
10442,-16928,15509,0.0
10423,-16624,15592,0.0
10390,-16300,15652,0.0
10372,-16003,15732,0.0
10339,-15686,15788,0.0
10316,-15388,15858,0.0
10288,-15085,15917,0.0
10260,-14785,15974,0.0
10292,-14573,16123,0.0
10483,-14581,16520,0.0
10756,-14692,17050,0.0
10966,-14708,17484,0.0
11274,-14843,18077,0.0
11578,-14960,18668,0.0
11835,-15003,19187,0.0
13071,-16254,21305,1.0
13168,-16055,21575,1.0
13170,-15740,21688,1.0
13109,-15353,21696,1.0
12999,-14915,21621,1.0
12904,-14498,21566,1.0
0,0,0,0.0
13010,-14001,21949,1.0
13103,-13791,22206,1.0
13194,-13578,22462,1.0
13246,-13321,22649,1.0
13301,-13065,22840,1.0
13538,-12982,23345,1.0
13554,-12683,23470,1.0
0,0,0,0.0
0,0,0,0.0
13762,-11923,24119,1.0
13804,-11640,24284,1.0
13777,-11301,24329,1.0
13803,-11005,24466,1.0
13836,-10714,24614,1.0
13951,-10483,24907,1.0
0,0,0,0.0
14054,-9919,25268,1.0
14139,-9655,25505,1.0
14131,-9327,25576,1.0
14120,-8999,25641,1.0
0,0,0,0.0
0,0,0,0.0
14118,-8032,25882,1.0
0,0,0,0.0
0,0,0,0.0
14040,-7028,25970,1.0
0,0,0,0.0
13871,-6311,25803,1.0
13921,-6017,25969,1.0
13852,-5672,25911,1.0
13900,-5374,26071,1.0
13840,-5035,26028,1.0
13811,-4709,26040,1.0
13764,-4377,26017,1.0
13744,-4055,26045,1.0
13671,-3719,25969,1.0
13584,-3383,25867,1.0
13454,-3041,25680,1.0
13247,-2688,25344,1.0
13394,-2408,25686,1.0
13476,-2110,25899,1.0
13636,-1818,26264,1.0
13846,-1524,26727,1.0
14019,-1216,27116,1.0
14215,-899,27553,1.0
14450,-575,28065,1.0
11268,-183,21928,0.0
10699,78,20863,0.0
10439,324,20394,0.0
10097,554,19762,0.0
9925,781,19462,0.0
9760,1002,19173,0.0
9929,1258,19537,0.0
9938,1499,19589,0.0
9954,1743,19653,0.0
9967,1988,19712,0.0
9970,2233,19750,0.0
9996,2484,19833,0.0
10016,2737,19903,0.0
10029,2989,19957,0.0
10048,3245,20024,0.0
10046,3496,20048,0.0
10079,3762,20141,0.0
10100,4025,20210,0.0
10102,4283,20241,0.0
10120,4550,20303,0.0
10150,4826,20387,0.0
10170,5098,20451,0.0
10192,5376,20521,0.0
22,12,45,0.0
24,13,49,0.0
23,14,47,0.0
38,24,78,0.0
33,22,68,0.0
43,29,87,0.0
39,28,80,0.0
35,26,72,0.0
35,26,72,0.0
38,30,77,0.0
45,37,94,0.0
46,40,96,0.0
46,41,95,0.0
54,49,111,0.0
54,51,113,0.0
50,49,104,0.0
56,56,115,0.0
55,57,114,0.0
52,55,108,0.0
55,60,113,0.0
56,63,116,0.0
53,61,110,0.0
56,66,115,0.0
56,70,117,0.0
52,65,107,0.0
54,68,110,0.0
52,69,108,0.0
56,76,116,0.0
52,73,108,0.0
51,73,106,0.0
50,73,104,0.0
53,79,111,0.0
53,82,110,0.0
50,79,104,0.0
50,81,104,0.0
52,86,108,0.0
51,87,106,0.0
53,91,109,0.0
54,96,112,0.0
53,95,110,0.0
54,100,113,0.0
56,104,114,0.0
56,107,115,0.0
57,112,117,0.0
56,112,115,0.0
55,113,113,0.0
56,116,115,0.0
58,124,120,0.0
56,121,114,0.0
57,127,117,0.0
58,133,119,0.0
58,136,119,0.0
60,141,121,0.0
59,144,121,0.0
59,145,120,0.0
85,-277,64,0.0
82,-266,64,0.0
82,-260,66,0.0
83,-260,69,0.0
82,-253,70,0.0
84,-258,75,0.0
85,-255,76,0.0
85,-254,80,0.0
86,-250,81,0.0
90,-258,87,0.0
88,-248,87,0.0
91,-254,92,0.0
91,-251,94,0.0
92,-248,96,0.0
96,-258,102,0.0
96,-254,105,0.0
98,-255,109,0.0
99,-257,112,0.0
98,-248,112,0.0
102,-253,118,0.0
101,-249,120,0.0
103,-249,123,0.0
105,-252,128,0.0
105,-248,129,0.0
104,-242,129,0.0
108,-248,136,0.0
113,-255,144,0.0
115,-257,149,0.0
115,-252,150,0.0
120,-261,160,0.0
117,-251,158,0.0
121,-254,163,0.0
112,-231,153,0.0
102,-209,141,0.0
104,-208,144,0.0
93,-184,130,0.0
89,-175,128,0.0
10434,-19960,14863,0.0
10392,-19580,14933,0.0
10358,-19221,15013,0.0
10324,-18865,15090,0.0
10296,-18523,15170,0.0
10266,-18183,15246,0.0
10235,-17845,15319,0.0
10208,-17516,15395,0.0
10184,-17197,15472,0.0
10151,-16866,15533,0.0
10120,-16542,15596,0.0
10096,-16234,15668,0.0
10073,-15928,15737,0.0
10040,-15611,15789,0.0
10014,-15307,15850,0.0
9984,-15000,15902,0.0
9979,-14735,15994,0.0
10074,-14615,16244,0.0
10231,-14580,16596,0.0
10470,-14654,17082,0.0
10725,-14739,17598,0.0
11002,-14841,18153,0.0
11311,-14974,18764,0.0
12767,-16583,21295,1.0
12821,-16333,21498,1.0
0,0,0,0.0
12854,-15740,21775,1.0
12784,-15340,21763,1.0
12756,-14993,21820,1.0
0,0,0,0.0
12677,-14285,21891,1.0
12756,-14064,22128,1.0
12918,-13931,22509,1.0
12972,-13677,22704,1.0
13034,-13430,22912,1.0
13190,-13275,23285,1.0
0,0,0,0.0
13381,-12829,23816,1.0
13493,-12617,24112,1.0
0,0,0,0.0
13536,-12017,24380,1.0
13560,-11718,24515,1.0
13553,-11392,24594,1.0
13513,-11042,24614,1.0
13577,-10776,24819,1.0
13711,-10561,25153,1.0
13797,-10304,25398,1.0
13884,-10045,25647,1.0
13923,-9748,25806,1.0
0,0,0,0.0
0,0,0,0.0
13895,-8756,26004,1.0
0,0,0,0.0
13890,-8106,26157,1.0
13834,-7752,26130,1.0
13930,-7482,26392,1.0
13755,-7067,26134,1.0
0,0,0,0.0
0,0,0,0.0
13581,-6028,26023,1.0
13602,-5722,26136,1.0
13566,-5389,26134,1.0
13551,-5068,26175,1.0
13466,-4721,26078,1.0
13459,-4403,26132,1.0
13464,-4089,26206,1.0
13458,-3771,26259,1.0
13300,-3414,26013,1.0
13204,-3079,25888,1.0
13060,-2736,25663,1.0
13020,-2420,25643,1.0
12997,-2108,25655,1.0
13097,-1813,25910,1.0
13283,-1523,26335,1.0
13446,-1220,26713,1.0
13649,-911,27173,1.0
13827,-591,27584,1.0
11003,-205,21996,0.0
10450,57,20932,0.0
10180,302,20427,0.0
9901,534,19907,0.0
9661,758,19460,0.0
9213,947,18592,0.0
9656,1231,19519,0.0
9687,1474,19617,0.0
9697,1716,19670,0.0
9712,1960,19732,0.0
9715,2204,19770,0.0
9728,2452,19829,0.0
9749,2703,19901,0.0
9753,2952,19940,0.0
9775,3208,20014,0.0
9790,3464,20075,0.0
9793,3717,20110,0.0
9825,3984,20205,0.0
9838,4245,20256,0.0
9820,4495,20246,0.0
9862,4774,20359,0.0
17,8,38,0.0
21,11,46,0.0
19,10,40,0.0
17,10,36,0.0
29,17,62,0.0
26,17,55,0.0
30,20,64,0.0
27,18,58,0.0
39,28,82,0.0
35,26,73,0.0
37,29,78,0.0
39,32,84,0.0
39,33,83,0.0
43,38,92,0.0
45,41,96,0.0
45,42,95,0.0
47,46,101,0.0
51,50,108,0.0
51,52,109,0.0
51,55,110,0.0
43,48,93,0.0
49,55,104,0.0
51,59,110,0.0
47,56,101,0.0
56,68,118,0.0
52,64,110,0.0
46,60,100,0.0
46,61,99,0.0
47,63,99,0.0
43,61,93,0.0
47,67,101,0.0
49,72,105,0.0
47,70,101,0.0
46,70,98,0.0
48,74,101,0.0
48,75,101,0.0
48,79,102,0.0
47,79,99,0.0
48,83,102,0.0
48,84,103,0.0
49,88,104,0.0
50,93,107,0.0
52,97,110,0.0
52,101,111,0.0
51,102,110,0.0
53,105,111,0.0
53,110,113,0.0
50,106,107,0.0
54,115,113,0.0
52,113,109,0.0
52,117,111,0.0
53,121,112,0.0
55,129,117,0.0
56,131,116,0.0
54,131,113,0.0
59,143,122,0.0
55,140,116,0.0
83,-280,66,0.0
86,-285,71,0.0
83,-273,71,0.0
82,-266,72,0.0
84,-270,76,0.0
84,-263,77,0.0
83,-259,78,0.0
87,-266,84,0.0
90,-268,88,0.0
90,-266,90,0.0
89,-258,91,0.0
92,-266,97,0.0
92,-261,100,0.0
94,-264,103,0.0
96,-265,107,0.0
97,-265,110,0.0
101,-271,116,0.0
98,-261,115,0.0
99,-257,118,0.0
101,-261,122,0.0
102,-259,125,0.0
104,-257,128,0.0
105,-257,132,0.0
105,-254,134,0.0
105,-250,135,0.0
108,-253,141,0.0
116,-271,154,0.0
121,-277,161,0.0
123,-277,166,0.0
119,-264,163,0.0
122,-267,168,0.0
116,-250,161,0.0
107,-227,151,0.0
103,-215,146,0.0
99,-203,141,0.0
90,-183,131,0.0
10157,-20241,14803,0.0
10126,-19877,14889,0.0
10097,-19517,14972,0.0
10066,-19161,15052,0.0
10038,-18816,15134,0.0
10002,-18459,15201,0.0
9970,-18114,15271,0.0
9945,-17784,15349,0.0
9916,-17451,15418,0.0
9886,-17120,15483,0.0
9865,-16810,15561,0.0
9837,-16489,15624,0.0
9817,-16186,15699,0.0
9793,-15879,15764,0.0
9754,-15551,15804,0.0
9708,-15215,15830,0.0
9735,-14997,15973,0.0
9707,-14695,16024,0.0
9858,-14663,16370,0.0
10018,-14637,16733,0.0
10194,-14627,17124,0.0
10471,-14753,17690,0.0
10760,-14880,18276,0.0
11049,-14995,18870,0.0
12468,-16601,21406,1.0
12471,-16287,21521,1.0
12530,-16046,21733,1.0
0,0,0,0.0
12470,-15339,21842,1.0
0,0,0,0.0
12402,-14634,21931,1.0
12406,-14329,22037,1.0
12594,-14235,22474,1.0
12710,-14051,22780,1.0
12776,-13810,23000,1.0
12918,-13645,23354,1.0
13065,-13480,23718,1.0
13119,-13215,23914,1.0
13159,-12935,24085,1.0
0,0,0,0.0
13175,-12311,24305,1.0
13231,-12044,24502,1.0
13269,-11757,24665,1.0
13268,-11437,24755,1.0
13224,-11080,24761,1.0
0,0,0,0.0
0,0,0,0.0
13517,-10354,25578,1.0
13606,-10097,25834,1.0
13668,-9816,26037,1.0
13644,-9473,26077,1.0
13716,-9196,26300,1.0
13697,-8857,26346,1.0
13709,-8538,26451,1.0
13665,-8185,26445,1.0
0,0,0,0.0
13574,-7484,26426,1.0
13488,-7116,26335,1.0
0,0,0,0.0
13262,-6364,26041,1.0
0,0,0,0.0
13257,-5731,26176,1.0
13283,-5425,26296,1.0
13218,-5082,26235,1.0
0,0,0,0.0
13174,-4435,26283,1.0
13133,-4107,26266,1.0
13078,-3775,26220,1.0
13074,-3459,26275,1.0
12992,-3125,26173,1.0
12877,-2786,26001,1.0
12853,-2471,26012,1.0
12706,-2134,25771,1.0
12596,-1809,25607,1.0
0,0,0,0.0
12841,-1218,26216,1.0
13046,-918,26690,1.0
13298,-610,27260,1.0
10825,-229,22238,0.0
10240,35,21077,0.0
9888,279,20392,0.0
9634,511,19906,0.0
9392,733,19441,0.0
9307,960,19300,0.0
9396,1206,19521,0.0
9425,1447,19614,0.0
9423,1686,19644,0.0
9438,1929,19710,0.0
9453,2174,19774,0.0
9459,2419,19818,0.0
9476,2668,19884,0.0
9489,2918,19944,0.0
9502,3170,20001,0.0
9517,3425,20062,0.0
9521,3677,20099,0.0
9536,3936,20160,0.0
9557,4200,20233,0.0
21,10,46,0.0
9586,4729,20349,0.0
28,14,60,0.0
24,13,54,0.0
24,14,53,0.0
24,14,52,0.0
30,19,66,0.0
34,22,74,0.0
24,17,54,0.0
39,28,85,0.0
35,26,76,0.0
37,28,81,0.0
39,31,87,0.0
43,36,94,0.0
38,33,83,0.0
41,37,91,0.0
43,41,95,0.0
51,48,110,0.0
47,47,104,0.0
45,46,99,0.0
48,50,104,0.0
57,62,125,0.0
51,57,112,0.0
53,61,116,0.0
49,58,108,0.0
56,68,123,0.0
53,67,117,0.0
54,69,119,0.0
51,68,114,0.0
53,71,115,0.0
48,66,105,0.0
53,75,116,0.0
48,70,107,0.0
50,75,109,0.0
48,73,105,0.0
50,78,110,0.0
48,77,106,0.0
47,79,105,0.0
51,85,111,0.0
49,85,109,0.0
49,87,108,0.0
50,90,109,0.0
48,89,106,0.0
50,96,112,0.0
50,96,109,0.0
51,101,112,0.0
51,104,113,0.0
51,105,112,0.0
52,109,113,0.0
51,110,112,0.0
52,115,113,0.0
53,120,117,0.0
53,122,116,0.0
52,122,114,0.0
53,127,116,0.0
54,133,119,0.0
54,135,118,0.0
55,139,119,0.0
55,144,120,0.0
77,-269,64,0.0
79,-270,67,0.0
78,-262,68,0.0
78,-260,71,0.0
79,-259,74,0.0
80,-260,78,0.0
82,-264,81,0.0
82,-259,83,0.0
83,-257,86,0.0
85,-259,89,0.0
87,-262,93,0.0
87,-259,96,0.0
89,-258,99,0.0
88,-254,100,0.0
92,-261,106,0.0
94,-261,110,0.0
95,-263,114,0.0
95,-257,114,0.0
97,-259,119,0.0
98,-257,121,0.0
96,-250,121,0.0
97,-249,125,0.0
100,-254,131,0.0
100,-250,133,0.0
98,-242,132,0.0
105,-255,143,0.0
111,-266,152,0.0
115,-270,159,0.0
111,-256,155,0.0
111,-254,157,0.0
109,-246,156,0.0
103,-228,148,0.0
104,-226,151,0.0
100,-217,148,0.0
96,-203,143,0.0
94,-197,142,0.0
9840,-20134,14811,0.0
9821,-19792,14911,0.0
9787,-19423,14984,0.0
9749,-19052,15050,0.0
9727,-18715,15135,0.0
9700,-18373,15212,0.0
9683,-18054,15302,0.0
9645,-17701,15357,0.0
9616,-17367,15424,0.0
9581,-17028,15478,0.0
9570,-16734,15568,0.0
9545,-16417,15632,0.0
9522,-16108,15699,0.0
9491,-15789,15749,0.0
9465,-15481,15806,0.0
9425,-15156,15840,0.0
9432,-14907,15948,0.0
9415,-14621,16014,0.0
9606,-14657,16435,0.0
9768,-14640,16809,0.0
9933,-14621,17190,0.0
10223,-14774,17789,0.0
10506,-14902,18379,0.0
10784,-15011,18965,0.0
12140,-16579,21461,1.0
12153,-16279,21595,1.0
0,0,0,0.0
12154,-15647,21810,1.0
12154,-15334,21916,1.0
12112,-14969,21944,1.0
12208,-14775,22219,1.0
12277,-14545,22448,1.0
12301,-14260,22591,1.0
12497,-14172,23052,1.0
12567,-13932,23278,1.0
12646,-13702,23526,1.0
12743,-13485,23802,1.0
0,0,0,0.0
12920,-13027,24329,1.0
0,0,0,0.0
12988,-12449,24646,1.0
12983,-12124,24732,1.0
13018,-11834,24891,1.0
12966,-11467,24881,1.0
12981,-11160,25000,1.0
0,0,0,0.0
13242,-10733,25681,1.0
13259,-10423,25803,1.0
0,0,0,0.0
13366,-9852,26185,1.0
13354,-9517,26245,1.0
0,0,0,0.0
13388,-8887,26478,1.0
0,0,0,0.0
13421,-8255,26706,1.0
13438,-7938,26820,1.0
13380,-7577,26782,1.0
13267,-7190,26634,1.0
13184,-6824,26542,1.0
12973,-6398,26190,1.0
0,0,0,0.0
13008,-5781,26403,1.0
0,0,0,0.0
12921,-5111,26366,1.0
12906,-4790,26403,1.0
12853,-4455,26362,1.0
12832,-4133,26385,1.0
12771,-3800,26321,1.0
12736,-3475,26312,1.0
0,0,0,0.0
12646,-2827,26252,1.0
12595,-2504,26205,1.0
12442,-2165,25943,1.0
0,0,0,0.0
12244,-1521,25642,1.0
12414,-1231,26053,1.0
12541,-930,26377,1.0
12645,-620,26650,1.0
10559,-252,22300,0.0
10011,13,21185,0.0
9629,258,20414,0.0
9397,491,19962,0.0
9101,707,19371,0.0
9136,945,19481,0.0
9148,1181,19542,0.0
9171,1422,19626,0.0
9161,1658,19637,0.0
9182,1902,19717,0.0
9179,2142,19743,0.0
9183,2384,19787,0.0
9215,2636,19887,0.0
9234,2887,19960,0.0
9242,3137,20007,0.0
9251,3389,20058,0.0
9270,3647,20130,0.0
9280,3902,20179,0.0
9299,4164,20249,0.0
9317,4429,20317,0.0
9322,4689,20357,0.0
9339,4958,20419,0.0
23,12,52,0.0
16,9,36,0.0
25,15,55,0.0
25,16,56,0.0
23,15,53,0.0
27,19,63,0.0
34,25,76,0.0
33,25,73,0.0
36,28,82,0.0
38,31,85,0.0
43,36,97,0.0
37,33,83,0.0
40,36,89,0.0
40,38,91,0.0
42,41,95,0.0
46,46,103,0.0
43,45,96,0.0
44,47,99,0.0
48,53,109,0.0
52,59,116,0.0
45,53,102,0.0
46,55,104,0.0
49,61,111,0.0
49,63,111,0.0
51,67,116,0.0
49,66,111,0.0
53,73,120,0.0
48,68,108,0.0
48,70,109,0.0
45,67,102,0.0
48,74,109,0.0
45,71,102,0.0
43,71,100,0.0
45,74,102,0.0
43,73,98,0.0
45,79,103,0.0
42,75,97,0.0
44,80,100,0.0
46,87,107,0.0
47,88,107,0.0
48,93,110,0.0
49,98,111,0.0
49,98,110,0.0
45,94,102,0.0
48,100,108,0.0
48,105,110,0.0
48,107,108,0.0
50,114,115,0.0
50,115,113,0.0
51,119,114,0.0
52,126,118,0.0
50,122,112,0.0
52,129,117,0.0
51,133,117,0.0
52,136,117,0.0
51,136,114,0.0
76,-271,66,0.0
80,-281,71,0.0
77,-268,71,0.0
75,-259,72,0.0
78,-264,76,0.0
82,-273,82,0.0
82,-269,84,0.0
83,-269,88,0.0
82,-263,88,0.0
84,-264,92,0.0
84,-261,94,0.0
86,-263,98,0.0
90,-268,104,0.0
86,-256,102,0.0
93,-270,111,0.0
94,-272,115,0.0
93,-264,116,0.0
94,-263,119,0.0
97,-269,124,0.0
98,-266,128,0.0
96,-257,126,0.0
100,-265,134,0.0
101,-264,137,0.0
100,-256,137,0.0
104,-262,144,0.0
110,-274,154,0.0
112,-274,159,0.0
114,-275,163,0.0
113,-269,164,0.0
108,-255,159,0.0
110,-255,163,0.0
103,-235,154,0.0
101,-227,152,0.0
90,-200,137,0.0
91,-199,140,0.0
9567,-20422,14752,0.0
9539,-20054,14837,0.0
9515,-19701,14926,0.0
9491,-19350,15011,0.0
9459,-18989,15082,0.0
9445,-18667,15178,0.0
9411,-18310,15239,0.0
9379,-17963,15303,0.0
9357,-17635,15379,0.0
9334,-17313,15451,0.0
9305,-16980,15511,0.0
9284,-16670,15583,0.0
9254,-16342,15636,0.0
9241,-16051,15717,0.0
9213,-15736,15770,0.0
9204,-15456,15853,0.0
9181,-15156,15910,0.0
9094,-14754,15854,0.0
9147,-14582,16041,0.0
9330,-14614,16457,0.0
9595,-14762,17020,0.0
9696,-14648,17293,0.0
9958,-14770,17857,0.0
10252,-14926,18482,0.0
10527,-15040,19077,0.0
11823,-16573,21536,1.0
11855,-16297,21701,1.0
11890,-16027,21871,1.0
11858,-15668,21918,1.0
11962,-15488,22216,1.0
11998,-15218,22385,1.0
12094,-15021,22668,1.0
12136,-14756,22848,1.0
12230,-14550,23126,1.0
0,0,0,0.0
12394,-14101,23637,1.0
12469,-13865,23879,1.0
12508,-13586,24052,1.0
0,0,0,0.0
12578,-13017,24379,1.0
12675,-12794,24662,1.0
12645,-12441,24697,1.0
12658,-12131,24814,1.0
0,0,0,0.0
0,0,0,0.0
12654,-11168,25078,1.0
12794,-10968,25443,1.0
12948,-10775,25838,1.0
12992,-10485,26013,1.0
13024,-10185,26164,1.0
0,0,0,0.0
13088,-9579,26465,1.0
13147,-9293,26666,1.0
13150,-8966,26755,1.0
13134,-8627,26805,1.0
13138,-8302,26893,1.0
13231,-8031,27164,1.0
13128,-7640,27031,1.0
13060,-7275,26969,1.0
0,0,0,0.0
12728,-6454,26430,1.0
0,0,0,0.0
12660,-5788,26432,1.0
0,0,0,0.0
0,0,0,0.0
0,0,0,0.0
12559,-4483,26493,1.0
12516,-4154,26468,1.0
12496,-3833,26491,1.0
12443,-3503,26440,1.0
0,0,0,0.0
12403,-2865,26480,1.0
0,0,0,0.0
0,0,0,0.0
12064,-1868,25930,1.0
0,0,0,0.0
11882,-1232,25650,1.0
11992,-936,25944,1.0
12129,-634,26292,1.0
10303,-273,22379,0.0
9791,-6,21313,0.0
9358,236,20408,0.0
9133,469,19956,0.0
8880,688,19442,0.0
8874,921,19465,0.0
8885,1156,19524,0.0
8892,1393,19576,0.0
8905,1632,19639,0.0
8915,1872,19696,0.0
8912,2111,19723,0.0
8931,2356,19799,0.0
8941,2602,19853,0.0
8953,2849,19912,0.0
8967,3099,19975,0.0
8988,3353,20053,0.0
8991,3604,20088,0.0
9011,3862,20163,0.0
9015,4118,20204,0.0
9033,4381,20274,0.0
9062,4652,20367,0.0
9066,4913,20406,0.0
9081,5181,20465,0.0
21,11,47,0.0
25,15,58,0.0
28,18,64,0.0
33,23,78,0.0
23,16,53,0.0
28,22,66,0.0
28,22,65,0.0
32,26,74,0.0
35,29,82,0.0
33,28,77,0.0
40,36,93,0.0
41,37,93,0.0
44,42,102,0.0
42,42,98,0.0
43,44,100,0.0
41,44,96,0.0
51,56,119,0.0
45,50,103,0.0
50,58,117,0.0
55,66,128,0.0
49,61,114,0.0
47,60,110,0.0
49,64,114,0.0
47,63,110,0.0
52,71,121,0.0
50,70,116,0.0
50,72,116,0.0
48,72,112,0.0
47,71,109,0.0
54,83,125,0.0
51,82,119,0.0
46,77,109,0.0
45,76,106,0.0
46,80,108,0.0
44,78,103,0.0
45,82,106,0.0
44,84,105,0.0
46,87,108,0.0
45,88,106,0.0
46,92,109,0.0
47,97,112,0.0
48,100,113,0.0
46,98,108,0.0
46,101,110,0.0
48,106,112,0.0
46,106,110,0.0
47,109,110,0.0
49,118,117,0.0
51,123,119,0.0
49,122,116,0.0
52,131,120,0.0
50,128,116,0.0
50,131,117,0.0
50,135,117,0.0
50,138,117,0.0
70,-262,64,0.0
71,-262,68,0.0
72,-261,70,0.0
74,-263,73,0.0
74,-260,76,0.0
75,-261,79,0.0
74,-252,80,0.0
78,-262,86,0.0
78,-256,86,0.0
82,-267,94,0.0
81,-258,94,0.0
83,-261,99,0.0
84,-262,102,0.0
85,-258,103,0.0
88,-268,112,0.0
87,-259,111,0.0
87,-256,113,0.0
91,-261,118,0.0
88,-252,118,0.0
92,-256,123,0.0
91,-253,125,0.0
93,-254,130,0.0
96,-257,134,0.0
88,-234,126,0.0
99,-257,142,0.0
98,-251,143,0.0
104,-262,152,0.0
109,-270,161,0.0
100,-246,150,0.0
104,-253,159,0.0
97,-230,148,0.0
98,-229,151,0.0
96,-222,150,0.0
83,-190,132,0.0
80,-179,127,0.0
9266,-20338,14775,0.0
9253,-20003,14881,0.0
9207,-19599,14930,0.0
9187,-19256,15018,0.0
9164,-18911,15100,0.0
9136,-18559,15169,0.0
9112,-18222,15245,0.0
9092,-17896,15323,0.0
9070,-17569,15396,0.0
9037,-17223,15446,0.0
9019,-16915,15524,0.0
8999,-16600,15591,0.0
8979,-16293,15660,0.0
8960,-15989,15728,0.0
8939,-15687,15791,0.0
8914,-15378,15843,0.0
8890,-15076,15896,0.0
8898,-14828,16002,0.0
8892,-14562,16085,0.0
9066,-14585,16492,0.0
9319,-14725,17047,0.0
9465,-14687,17408,0.0
9712,-14796,17959,0.0
9982,-14926,18553,0.0
10247,-15035,19143,0.0
11553,-16631,21693,1.0
11516,-16259,21728,1.0
0,0,0,0.0
11666,-15829,22224,1.0
11694,-15548,22380,1.0
11809,-15382,22704,1.0
11912,-15193,23003,1.0
11958,-14930,23194,1.0
0,0,0,0.0
0,0,0,0.0
12088,-14123,23746,1.0
12128,-13849,23924,1.0
12231,-13642,24223,1.0
12258,-13350,24373,1.0
12283,-13054,24518,1.0
12302,-12751,24648,1.0
0,0,0,0.0
12343,-12151,24917,1.0
12386,-11870,25093,1.0
12389,-11551,25187,1.0
12361,-11205,25220,1.0
12523,-11028,25639,1.0
12672,-10833,26033,1.0
12720,-10546,26219,1.0
12756,-10247,26377,1.0
12805,-9958,26565,1.0
12856,-9667,26756,1.0
0,0,0,0.0
12849,-9003,26906,1.0
0,0,0,0.0
0,0,0,0.0
12883,-8039,27222,1.0
0,0,0,0.0
12731,-7293,27055,1.0
12604,-6898,26860,1.0
12392,-6465,26481,1.0
0,0,0,0.0
12280,-5779,26385,1.0
12353,-5496,26611,1.0
0,0,0,0.0
12273,-4831,26576,1.0
12284,-4520,26667,1.0
12232,-4186,26620,1.0
12177,-3853,26562,1.0
12156,-3532,26582,1.0
12111,-3206,26546,1.0
12081,-2886,26543,1.0
11984,-2551,26389,1.0
0,0,0,0.0
11875,-1909,26266,1.0
0,0,0,0.0
0,0,0,0.0
0,0,0,0.0
11694,-652,26090,1.0
10028,-294,22419,0.0
9544,-26,21380,0.0
9087,216,20398,0.0
8954,452,20137,0.0
8619,666,19421,0.0
8637,901,19499,0.0
8638,1134,19538,0.0
8638,1368,19573,0.0
8653,1607,19644,0.0
8657,1844,19688,0.0
8676,2087,19766,0.0
8676,2327,19801,0.0
8680,2570,19840,0.0
8711,2823,19946,0.0
8706,3065,19967,0.0
8715,3314,20019,0.0
8737,3571,20100,0.0
8754,3829,20174,0.0
8765,4085,20230,0.0
8776,4345,20283,0.0
8800,4613,20369,0.0
12,6,28,0.0
20,12,50,0.0
17,11,42,0.0
24,15,56,0.0
29,19,68,0.0
24,17,57,0.0
27,19,63,0.0
27,21,66,0.0
32,26,78,0.0
31,25,73,0.0
34,30,82,0.0
31,28,75,0.0
34,32,83,0.0
40,38,97,0.0
33,32,79,0.0
38,38,90,0.0
40,42,94,0.0
40,44,98,0.0
42,47,102,0.0
47,54,112,0.0
44,54,107,0.0
42,53,102,0.0
47,59,113,0.0
43,56,104,0.0
43,58,104,0.0
39,54,94,0.0
46,66,113,0.0
43,63,105,0.0
41,61,99,0.0
47,71,112,0.0
42,66,102,0.0
45,72,108,0.0
42,69,101,0.0
44,74,106,0.0
44,76,107,0.0
39,69,94,0.0
44,81,107,0.0
42,79,103,0.0
41,77,99,0.0
41,81,102,0.0
42,85,103,0.0
41,85,101,0.0
42,89,102,0.0
42,91,103,0.0
43,94,105,0.0
44,99,107,0.0
43,99,105,0.0
42,98,103,0.0
43,105,106,0.0
45,111,110,0.0
46,115,112,0.0
46,118,113,0.0
46,119,111,0.0
45,121,110,0.0
45,125,111,0.0
47,133,115,0.0
45,129,110,0.0
69,-267,66,0.0
71,-269,70,0.0
70,-259,70,0.0
73,-265,75,0.0
73,-265,78,0.0
76,-269,82,0.0
74,-260,83,0.0
73,-255,85,0.0
77,-262,90,0.0
80,-269,96,0.0
80,-266,97,0.0
81,-262,100,0.0
82,-262,103,0.0
84,-264,107,0.0
84,-261,109,0.0
85,-260,112,0.0
86,-262,117,0.0
89,-266,123,0.0
89,-262,123,0.0
89,-258,125,0.0
90,-255,127,0.0
90,-253,129,0.0
95,-263,138,0.0
92,-251,136,0.0
94,-254,141,0.0
100,-264,151,0.0
106,-275,161,0.0
102,-261,156,0.0
103,-260,160,0.0
101,-251,158,0.0
97,-239,154,0.0
94,-228,151,0.0
86,-203,139,0.0
86,-203,141,0.0
81,-188,135,0.0
8973,-20269,14806,0.0
8949,-19908,14890,0.0
8918,-19533,14959,0.0
8880,-19147,15012,0.0
8876,-18843,15122,0.0
8849,-18494,15192,0.0
8827,-18156,15265,0.0
8797,-17809,15322,0.0
8786,-17503,15411,0.0
8762,-17174,15475,0.0
8738,-16850,15537,0.0
8723,-16547,15614,0.0
8709,-16248,15688,0.0
8679,-15923,15732,0.0
8672,-15645,15818,0.0
8634,-15312,15842,0.0
8628,-15039,15925,0.0
8611,-14752,15986,0.0
8676,-14603,16198,0.0
8796,-14545,16514,0.0
9039,-14679,17062,0.0
9215,-14696,17487,0.0
9459,-14811,18046,0.0
9720,-14938,18638,0.0
9962,-15023,19198,0.0
11207,-16579,21704,1.0
11223,-16283,21840,1.0
11350,-16145,22190,1.0
11330,-15798,22256,1.0
11425,-15608,22543,1.0
11514,-15410,22822,1.0
11579,-15175,23052,1.0
11623,-14911,23241,1.0
11657,-14634,23407,1.0
11756,-14435,23705,1.0
0,0,0,0.0
11831,-13881,24050,1.0
0,0,0,0.0
0,0,0,0.0
12014,-13120,24709,1.0
0,0,0,0.0
12022,-12483,24911,1.0
12038,-12177,25034,1.0
0,0,0,0.0
0,0,0,0.0
0,0,0,0.0
12248,-11086,25831,1.0
0,0,0,0.0
12390,-10559,26304,1.0
12494,-10319,26611,1.0
12518,-10008,26747,1.0
12539,-9695,26877,1.0
12531,-9359,26942,1.0
12563,-9053,27094,1.0
12554,-8717,27156,1.0
12553,-8387,27235,1.0
0,0,0,0.0
12506,-7700,27290,1.0
0,0,0,0.0
12390,-6977,27187,1.0
12050,-6471,26517,1.0
12021,-6139,26523,1.0
11993,-5811,26532,1.0
12015,-5506,26649,1.0
11962,-5167,26601,1.0
11969,-4855,26685,1.0
11958,-4535,26726,1.0
11899,-4199,26660,1.0
0,0,0,0.0
11843,-3554,26664,1.0
11780,-3222,26586,1.0
11753,-2903,26588,1.0
11712,-2581,26555,1.0
11685,-2264,26554,1.0
11578,-1933,26370,1.0
11501,-1612,26252,1.0
11300,-1280,25849,1.0
11187,-966,25645,1.0
11236,-667,25811,1.0
9770,-315,22490,0.0
9293,-46,21438,0.0
8829,196,20408,0.0
8661,430,20058,0.0
8386,647,19460,0.0
8373,877,19467,0.0
8375,1109,19509,0.0
8383,1344,19563,0.0
8388,1580,19613,0.0
8403,1818,19682,0.0
8402,2055,19715,0.0
8431,2302,19819,0.0
8421,2539,19828,0.0
8451,2791,19932,0.0
8454,3036,19973,0.0
8460,3282,20021,0.0
8485,3540,20114,0.0
8488,3790,20151,0.0
8499,4046,20209,0.0
8509,4303,20266,0.0
8525,4566,20333,0.0
11,6,27,0.0
19,11,47,0.0
19,11,48,0.0
23,15,57,0.0
28,19,69,0.0
22,16,54,0.0
26,19,63,0.0
26,20,64,0.0
28,22,69,0.0
35,29,84,0.0
38,34,95,0.0
28,26,71,0.0
35,33,87,0.0
37,36,90,0.0
39,40,96,0.0
37,38,90,0.0
40,45,101,0.0
42,47,104,0.0
40,46,99,0.0
44,52,108,0.0
42,52,105,0.0
46,58,114,0.0
41,54,104,0.0
44,60,111,0.0
47,66,118,0.0
43,62,109,0.0
43,64,110,0.0
44,66,110,0.0
43,67,110,0.0
45,72,114,0.0
46,74,115,0.0
42,71,107,0.0
44,75,111,0.0
46,81,115,0.0
45,81,113,0.0
39,72,98,0.0
41,78,104,0.0
40,77,100,0.0
40,78,99,0.0
40,81,102,0.0
42,86,105,0.0
40,85,103,0.0
40,87,102,0.0
41,92,105,0.0
42,96,107,0.0
41,95,105,0.0
42,100,106,0.0
41,99,104,0.0
44,108,110,0.0
42,108,108,0.0
44,112,110,0.0
44,116,111,0.0
44,119,112,0.0
45,122,112,0.0
45,126,113,0.0
45,130,114,0.0
45,133,114,0.0
68,-270,68,0.0
68,-267,71,0.0
69,-270,74,0.0
70,-265,76,0.0
72,-270,81,0.0
71,-264,83,0.0
74,-270,88,0.0
74,-265,89,0.0
75,-263,91,0.0
80,-278,99,0.0
80,-275,102,0.0
81,-273,104,0.0
82,-271,107,0.0
81,-264,108,0.0
86,-274,115,0.0
85,-269,117,0.0
85,-267,119,0.0
86,-266,122,0.0
88,-267,127,0.0
89,-266,130,0.0
89,-260,130,0.0
90,-259,134,0.0
92,-263,139,0.0
90,-252,137,0.0
94,-261,147,0.0
99,-270,155,0.0
104,-277,163,0.0
103,-274,165,0.0
103,-268,166,0.0
96,-248,157,0.0
97,-245,160,0.0
94,-234,156,0.0
91,-224,153,0.0
75,-181,127,0.0
85,-203,146,0.0
8680,-20195,14830,0.0
8657,-19831,14911,0.0
8632,-19467,14986,0.0
8612,-19123,15069,0.0
8577,-18749,15121,0.0
8559,-18414,15201,0.0
8549,-18103,15294,0.0
8533,-17781,15372,0.0
8500,-17429,15418,0.0
8496,-17140,15516,0.0
8470,-16808,15569,0.0
8442,-16479,15618,0.0
8435,-16193,15704,0.0
8414,-15883,15761,0.0
8395,-15583,15822,0.0
8318,-15176,15767,0.0
8367,-15004,15954,0.0
8349,-14712,16008,0.0
8439,-14611,16271,0.0
8583,-14599,16639,0.0
8767,-14646,17088,0.0
8963,-14702,17560,0.0
9216,-14842,18151,0.0
9447,-14931,18698,0.0
9683,-15016,19259,0.0
10885,-16560,21755,1.0
10927,-16302,21941,1.0
10983,-16066,22158,1.0
11057,-15854,22410,1.0
11233,-15782,22868,1.0
11241,-15471,22986,1.0
11293,-15218,23191,1.0
11303,-14910,23310,1.0
0,0,0,0.0
11410,-14406,23728,1.0
11476,-14167,23961,1.0
0,0,0,0.0
11529,-13587,24262,1.0
0,0,0,0.0
11692,-13130,24794,1.0
11718,-12835,24941,1.0
0,0,0,0.0
11716,-12188,25118,1.0
11737,-11887,25251,1.0
0,0,0,0.0
11736,-11246,25424,1.0
0,0,0,0.0
0,0,0,0.0
12095,-10603,26463,1.0
0,0,0,0.0
12191,-10026,26844,1.0
12229,-9728,27012,1.0
12259,-9421,27162,1.0
0,0,0,0.0
12331,-8811,27485,1.0
12262,-8431,27411,1.0
12225,-8077,27409,1.0
12187,-7723,27401,1.0
0,0,0,0.0
12075,-7003,27301,1.0
11821,-6538,26801,1.0
0,0,0,0.0
11709,-5846,26688,1.0
11708,-5529,26754,1.0
11646,-5187,26684,1.0
0,0,0,0.0
11620,-4547,26757,1.0
11621,-4233,26825,1.0
11565,-3899,26762,1.0
11539,-3577,26766,1.0
11514,-3257,26773,1.0
0,0,0,0.0
11409,-2604,26651,1.0
11330,-2276,26527,1.0
11354,-1969,26642,1.0
11199,-1634,26338,1.0
11056,-1309,26058,1.0
0,0,0,0.0
10840,-683,25656,1.0
9489,-334,22507,0.0
9081,-66,21586,0.0
8580,177,20435,0.0
8536,416,20372,0.0
8144,627,19476,0.0
8125,856,19466,0.0
8116,1086,19484,0.0
8141,1321,19578,0.0
8150,1557,19638,0.0
8165,1795,19708,0.0
8162,2032,19741,0.0
8173,2273,19801,0.0
8188,2516,19872,0.0
8202,2763,19942,0.0
8198,3003,19965,0.0
8211,3253,20031,0.0
8219,3502,20084,0.0
8238,3758,20162,0.0
8246,4011,20214,0.0
20,10,50,0.0
8280,4536,20365,0.0
14,8,38,0.0
19,11,47,0.0
13,8,34,0.0
24,16,61,0.0
26,19,66,0.0
29,21,73,0.0
22,17,57,0.0
27,21,68,0.0
24,20,62,0.0
32,29,84,0.0
35,33,90,0.0
34,32,86,0.0
32,31,83,0.0
37,38,96,0.0
39,40,98,0.0
39,41,99,0.0
42,48,110,0.0
38,43,97,0.0
41,49,106,0.0
41,51,108,0.0
36,47,95,0.0
46,59,118,0.0
45,59,115,0.0
45,63,116,0.0
45,65,117,0.0
43,63,112,0.0
46,68,119,0.0
47,73,121,0.0
44,70,115,0.0
44,72,115,0.0
44,74,114,0.0
46,78,118,0.0
42,74,110,0.0
43,76,111,0.0
43,79,110,0.0
41,76,106,0.0
41,81,109,0.0
41,82,108,0.0
41,83,107,0.0
42,87,109,0.0
39,82,101,0.0
38,83,100,0.0
39,87,101,0.0
41,92,105,0.0
39,92,103,0.0
41,99,108,0.0
41,99,108,0.0
40,101,106,0.0
40,104,107,0.0
42,108,109,0.0
42,112,110,0.0
43,116,112,0.0
41,115,108,0.0
43,123,113,0.0
43,126,114,0.0
44,130,115,0.0
44,134,116,0.0
67,-280,72,0.0
66,-270,72,0.0
69,-277,77,0.0
71,-282,82,0.0
72,-281,85,0.0
70,-270,85,0.0
75,-281,92,0.0
73,-271,92,0.0
76,-277,97,0.0
76,-276,100,0.0
77,-274,103,0.0
78,-272,105,0.0
82,-280,112,0.0
81,-273,113,0.0
84,-278,118,0.0
84,-277,121,0.0
85,-275,124,0.0
87,-275,128,0.0
88,-274,131,0.0
88,-272,133,0.0
88,-267,134,0.0
89,-264,137,0.0
91,-268,143,0.0
88,-254,140,0.0
94,-267,151,0.0
96,-268,155,0.0
102,-283,167,0.0
103,-282,171,0.0
100,-267,166,0.0
98,-257,165,0.0
94,-244,160,0.0
93,-239,160,0.0
86,-217,149,0.0
79,-199,140,0.0
79,-194,140,0.0
8395,-20134,14863,0.0
8377,-19780,14949,0.0
8354,-19420,15024,0.0
8319,-19035,15074,0.0
8308,-18713,15167,0.0
8287,-18369,15236,0.0
8270,-18040,15312,0.0
8248,-17706,15379,0.0
8236,-17395,15459,0.0
8208,-17055,15508,0.0
8197,-16755,15588,0.0
