//X,Y,Z,Classification
-7525,5087,26827,0.0
-7524,4764,26772,0.0
-7513,4438,26679,0.0
-7510,4119,26614,0.0
-7505,3802,26540,0.0
-7503,3488,26482,0.0
-7492,3173,26386,0.0
-7485,2862,26305,0.0
-7488,2557,26265,0.0
-7478,2250,26178,0.0
-7468,1946,26086,0.0
-7473,1646,26049,0.0
-7461,1346,25957,0.0
-7462,1048,25902,0.0
-7453,752,25817,0.0
-7453,458,25764,0.0
-7449,166,25698,0.0
-7443,-124,25620,0.0
-7453,-414,25604,0.0
-8240,-778,28245,0.0
-8228,-1095,28142,0.0
-7744,-1328,26428,0.0
-7870,-1652,26800,2.0
-7840,-1946,26638,2.0
-7870,-2254,26682,2.0
-7887,-2560,26680,2.0
-7895,-2863,26649,2.0
-7886,-3159,26560,2.0
-7871,-3451,26446,2.0
-7852,-3740,26326,2.0
-7857,-4040,26282,2.0
-7882,-4349,26303,2.0
-7859,-4634,26166,2.0
-7874,-4939,26159,2.0
-7859,-5225,26046,2.0
-7821,-5495,25860,2.0
-7807,-5778,25750,2.0
0,0,0,0.0
-7807,-6365,25624,2.0
-7793,-6647,25520,2.0
-7775,-6924,25396,2.0
-7840,-7277,25544,2.0
-7822,-7557,25422,2.0
0,0,0,0.0
-7838,-8164,25344,2.0
-7819,-8442,25218,2.0
-7849,-8772,25248,2.0
-7823,-9041,25098,2.0
-7813,-9327,24998,2.0
-7846,-9667,25038,2.0
-7820,-9934,24886,2.0
-7857,-10283,24935,2.0
-7826,-10545,24767,2.0
-7821,-10840,24681,2.0
-7817,-11139,24601,2.0
-7864,-11512,24676,2.0
-7830,-11769,24498,2.0
-7852,-12111,24494,2.0
-7826,-12380,24341,2.0
-7811,-12666,24221,2.0
-7834,-13016,24218,2.0
-7825,-13314,24117,2.0
0,0,0,0.0
-7835,-13963,23994,2.0
-7874,-14352,24035,2.0
-7868,-14664,23939,2.0
-7887,-15025,23916,2.0
-7873,-15325,23794,2.0
-7881,-15668,23735,2.0
-7881,-15999,23652,2.0
-7892,-16356,23603,0.0
-7730,-16349,23034,0.0
-7725,-16669,22934,0.0
-8233,-18125,24356,0.0
-7576,-17008,22328,0.0
-7437,-17023,21833,0.0
-7422,-17319,21707,0.0
-7436,-17683,21659,0.0
-7447,-18045,21604,0.0
-7449,-18389,21521,0.0
-7441,-18714,21410,0.0
-7456,-19096,21360,0.0
-7459,-19457,21279,0.0
-7469,-19836,21213,0.0
-7471,-20199,21122,0.0
-7475,-20573,21038,0.0
-23,-67,67,0.0
-24,-71,69,0.0
-26,-77,74,0.0
-29,-89,83,0.0
-29,-90,83,0.0
-28,-88,79,0.0
-31,-102,89,0.0
-30,-97,83,0.0
-33,-106,89,0.0
-31,-104,85,0.0
-31,-106,85,0.0
-35,-121,95,0.0
-40,-142,108,0.0
-33,-115,86,0.0
-35,-129,94,0.0
-34,-125,90,0.0
-37,-136,95,0.0
-35,-134,91,0.0
-36,-138,91,0.0
-38,-150,98,0.0
-39,-157,100,0.0
-37,-149,92,0.0
-42,-174,105,0.0
-42,-177,104,0.0
-39,-167,96,0.0
-40,-171,96,0.0
-36,-159,86,0.0
-41,-185,98,0.0
-39,-180,93,0.0
-44,-203,102,0.0
-45,-212,103,0.0
-42,-203,97,0.0
-43,-213,98,0.0
-45,-225,101,0.0
-44,-228,99,0.0
-44,-228,96,0.0
-46,-242,99,0.0
-47,-252,100,0.0
-49,-268,103,0.0
-55,-306,114,0.0
-57,-323,117,0.0
-56,-321,112,0.0
-54,-316,106,0.0
-53,-321,104,0.0
-55,-333,104,0.0
-53,-328,98,0.0
-51,-322,93,0.0
-50,-327,91,0.0
-2897,16251,15199,0.0
-2965,16184,15462,0.0
-3035,16127,15741,0.0
-3108,16073,16029,0.0
-3179,16003,16303,0.0
-3256,15957,16610,0.0
-3327,15878,16886,0.0
-3403,15818,17190,0.0
-3363,15218,16899,0.0
-3538,15592,17694,0.0
-3562,15287,17730,0.0
-3550,14841,17595,0.0
-3782,15393,18654,0.0
-3878,15374,19047,0.0
-3969,15325,19412,0.0
-4051,15225,19722,0.0
-4138,15148,20068,0.0
-4087,14566,19741,0.0
-4241,14713,20401,0.0
-4255,14371,20389,0.0
-4493,14770,21447,0.0
-4611,14749,21925,0.0
-4715,14676,22340,0.0
-4815,14581,22732,0.0
-4926,14508,23170,0.0
-5029,14401,23569,0.0
-5140,14308,24003,0.0
-5254,14215,24453,0.0
-5361,14091,24865,0.0
-5379,13734,24867,0.0
-5427,13453,25005,0.0
-5464,13148,25095,0.0
-5862,13689,26840,0.0
-5987,13558,27325,0.0
-6132,13463,27899,0.0
-6243,13284,28323,0.0
-6393,13173,28912,0.0
-6453,12872,29099,0.0
-6632,12796,29813,0.0
-6809,12703,30524,0.0
-6979,12579,31196,0.0
-7220,12563,32180,0.0
-7263,12194,32284,0.0
-7249,11730,32128,0.0
0,0,0,0.0
0,0,0,0.0
0,0,0,0.0
0,0,0,0.0
-7185,9531,31417,0.0
-7260,9221,31660,0.0
-7408,8996,32219,0.0
-7614,8828,33029,0.0
-6324,6988,27365,0.0
-6312,6636,27245,0.0
-6314,6300,27184,0.0
-6325,5977,27162,0.0
-6325,5646,27092,0.0
-6318,5312,26997,0.0
-6331,4997,26985,0.0
-6338,4680,26948,0.0
-6346,4365,26916,0.0
-6349,4050,26869,0.0
-6350,3735,26806,0.0
-6346,3420,26726,0.0
-6364,3117,26737,0.0
-6369,2811,26696,0.0
-6360,2500,26593,0.0
-6382,2202,26624,0.0
-6369,1893,26507,0.0
-6368,1591,26441,0.0
-6375,1292,26407,0.0
-6391,997,26410,0.0
-6391,698,26352,0.0
-6393,402,26298,0.0
-6386,107,26209,0.0
-6383,-186,26134,0.0
-6395,-479,26122,0.0
-6918,-834,28198,0.0
-6514,-1081,26488,0.0
-6513,-1375,26427,0.0
-6510,-1669,26354,0.0
-6514,-1962,26309,0.0
-6511,-2254,26234,0.0
-6508,-2544,26164,0.0
-6506,-2834,26097,0.0
-6502,-3121,26021,0.0
-6500,-3410,25954,0.0
-6501,-3699,25896,0.0
-6501,-3987,25837,0.0
-6503,-4277,25788,0.0
-6495,-4559,25696,0.0
-6501,-4851,25658,0.0
-6494,-5132,25572,0.0
-6486,-5413,25481,0.0
-6488,-5702,25431,0.0
-6496,-5996,25402,0.0
-6494,-6282,25336,0.0
-6490,-6565,25261,0.0
-6483,-6845,25174,0.0
-6484,-7135,25121,0.0
-6478,-7417,25037,0.0
-6482,-7710,24993,0.0
-6489,-8008,24960,0.0
-6475,-8280,24845,0.0
-6468,-8561,24758,0.0
-6487,-8878,24772,0.0
-6472,-9149,24652,0.0
-6463,-9430,24559,0.0
-6468,-9731,24517,0.0
-6471,-10031,24470,0.0
-6472,-10329,24412,0.0
-6472,-10626,24350,0.0
-6464,-10912,24259,0.0
-6468,-11216,24207,0.0
-6468,-11519,24147,0.0
-6480,-11845,24130,0.0
-6461,-12113,23994,0.0
-6467,-12432,23954,0.0
-6470,-12745,23900,0.0
-6462,-13039,23806,0.0
-6459,-13346,23732,0.0
-6463,-13667,23680,0.0
-6459,-13977,23603,0.0
-6454,-14283,23517,0.0
-6456,-14610,23460,0.0
-6456,-14934,23393,0.0
-6458,-15264,23333,0.0
-6455,-15582,23249,0.0
-6447,-15895,23152,0.0
-6447,-16228,23082,0.0
-6444,-16557,23002,0.0
-6441,-16891,22922,0.0
-49,-133,177,0.0
-6317,-17243,22341,0.0
-6417,-17866,22623,0.0
-6427,-18246,22585,0.0
-6429,-18610,22517,0.0
-6373,-18808,22249,0.0
-6417,-19300,22323,0.0
-6425,-19696,22277,0.0
-6394,-19973,22091,0.0
-6418,-20427,22096,0.0
-6417,-20806,22011,0.0
-6408,-21167,21901,0.0
-21,-73,73,0.0
-21,-74,74,0.0
-26,-91,89,0.0
-25,-90,85,0.0
-26,-96,89,0.0
-29,-109,98,0.0
-29,-111,99,0.0
-27,-105,91,0.0
-28,-112,95,0.0
-27,-109,90,0.0
-26,-108,87,0.0
-29,-122,97,0.0
-26,-111,87,0.0
-29,-127,97,0.0
-36,-157,116,0.0
-36,-163,118,0.0
-35,-160,113,0.0
-37,-174,120,0.0
-31,-149,100,0.0
-34,-163,107,0.0
-26,-129,83,0.0
-31,-154,96,0.0
-32,-161,98,0.0
-30,-155,92,0.0
-32,-170,99,0.0
-31,-167,95,0.0
-32,-177,97,0.0
-31,-172,93,0.0
-32,-181,95,0.0
-32,-187,95,0.0
-34,-202,101,0.0
-33,-198,96,0.0
-35,-216,101,0.0
-35,-219,100,0.0
-33,-210,93,0.0
-35,-231,100,0.0
-35,-230,97,0.0
-36,-244,99,0.0
-37,-256,100,0.0
-38,-267,102,0.0
-43,-309,113,0.0
-43,-318,114,0.0
-43,-323,112,0.0
-41,-319,106,0.0
-41,-323,104,0.0
-40,-325,100,0.0
-39,-320,95,0.0
-38,-323,92,0.0
-2242,15763,14899,0.0
0,0,0,0.0
-5006,33123,32674,0.0
-5054,32453,32704,0.0
-5142,32049,32995,0.0
-2773,16784,17654,0.0
-2788,16383,17607,0.0
-2793,15943,17508,0.0
-2795,15500,17392,0.0
-3096,16683,19130,0.0
-2817,14742,17277,0.0
-2978,15146,18143,0.0
-2993,14797,18118,0.0
-3559,17096,21401,0.0
-3591,16764,21455,0.0
-3594,16309,21346,0.0
-3596,15856,21226,0.0
-3555,15237,20865,0.0
-3546,14769,20690,0.0
-3617,14643,20993,0.0
-3581,14087,20670,0.0
-3653,13960,20970,0.0
-3931,14593,22447,0.0
-5348,19287,30386,0.0
-5418,18976,30627,0.0
-4257,14481,23951,0.0
-4318,14256,24171,0.0
-4411,14136,24577,0.0
-4519,14054,25065,0.0
-4610,13910,25457,0.0
-4726,13831,25983,0.0
-4753,13487,26021,0.0
-4756,13079,25923,0.0
-5076,13521,27547,0.0
-5198,13410,28095,0.0
-5292,13216,28491,0.0
-5411,13073,29014,0.0
-5489,12825,29320,0.0
-5624,12697,29919,0.0
-5952,12980,31545,0.0
-6041,12714,31894,0.0
-6128,12441,32237,0.0
-6128,11992,32121,0.0
-6118,11529,31955,0.0
-6129,11114,31901,0.0
-6171,10757,32010,0.0
-6157,10306,31828,0.0
-6111,9812,31487,0.0
-6131,9431,31480,0.0
-6198,9122,31722,0.0
-6261,8804,31943,0.0
-6536,8766,33235,0.0
-6723,8588,34085,0.0
-5659,6870,28601,0.0
-5771,6644,29074,0.0
-5977,6512,30025,0.0
-5991,6161,30004,0.0
-5991,5798,29919,0.0
-5964,5413,29694,0.0
-5987,5078,29721,0.0
-5989,4728,29645,0.0
-5983,4375,29537,0.0
-5987,4032,29471,0.0
-5973,3680,29321,0.0
-5947,3325,29112,0.0
-5975,3004,29174,0.0
-5975,2670,29094,0.0
-5970,2336,28990,0.0
-5966,2005,28897,0.0
-5957,1675,28778,0.0
-5767,1308,27783,0.0
-5939,1025,28540,0.0
-5828,692,27937,0.0
-5877,384,28096,0.0
-5960,72,28426,0.0
-5955,-243,28332,0.0
-5942,-556,28199,0.0
-5948,-870,28160,0.0
-5947,-1180,28087,0.0
-5941,-1489,27990,0.0
-5886,-1781,27665,0.0
-5939,-2104,27846,0.0
-5803,-2356,27144,0.0
-5814,-2660,27130,0.0
-5622,-2861,26172,0.0
-5926,-3320,27525,0.0
-5921,-3619,27434,0.0
-5890,-3902,27229,0.0
-5903,-4212,27226,0.0
-5905,-4514,27171,0.0
-5910,-4819,27132,0.0
-5910,-5121,27068,0.0
-5910,-5422,27008,0.0
-5905,-5718,26928,0.0
-5895,-6009,26816,0.0
-5891,-6305,26741,0.0
-5887,-6602,26661,0.0
-5868,-6879,26512,0.0
-5878,-7191,26499,0.0
-5878,-7493,26442,0.0
-5870,-7785,26349,0.0
-5873,-8091,26300,0.0
-5865,-8382,26203,0.0
-5862,-8684,26136,0.0
-5848,-8965,26012,0.0
-5812,-9213,25796,0.0
-5761,-9435,25514,0.0
-5842,-9874,25815,0.0
-5829,-10159,25698,0.0
-5853,-10511,25745,0.0
-5851,-10818,25677,0.0
-5849,-11129,25616,0.0
-5845,-11436,25540,0.0
-5849,-11761,25500,0.0
-5855,-12091,25465,0.0
-5859,-12420,25427,0.0
-5850,-12726,25334,0.0
-5847,-13044,25263,0.0
-5851,-13379,25222,0.0
-5854,-13714,25173,0.0
-5848,-14033,25091,0.0
-5846,-14363,25024,0.0
-5849,-14710,24982,0.0
-5843,-15036,24900,0.0
-5835,-15357,24806,0.0
-5660,-15232,24004,0.0
-5704,-15691,24132,0.0
-5770,-16222,24353,0.0
-5804,-16674,24441,0.0
-5842,-17143,24541,0.0
-5840,-17502,24473,0.0
-5836,-17859,24397,0.0
-5826,-18202,24297,0.0
-5834,-18602,24266,0.0
-5836,-18990,24214,0.0
-5831,-19362,24133,0.0
-5835,-19766,24086,0.0
-5823,-20123,23977,0.0
-5828,-20543,23936,0.0
-5824,-20935,23855,0.0
-5819,-21331,23773,0.0
-5825,-21771,23731,0.0
-5818,-22173,23639,0.0
-12,-46,48,0.0
-20,-77,79,0.0
-18,-74,75,0.0
-18,-75,73,0.0
-20,-81,78,0.0
-22,-92,86,0.0
-23,-101,92,0.0
-25,-109,97,0.0
-24,-108,94,0.0
-22,-97,83,0.0
-23,-107,90,0.0
-25,-119,97,0.0
-25,-121,97,0.0
-24,-116,91,0.0
-23,-116,88,0.0
-26,-136,102,0.0
-25,-129,94,0.0
-25,-134,95,0.0
-26,-137,96,0.0
-22,-125,85,0.0
-24,-142,94,0.0
-23,-134,87,0.0
-25,-149,94,0.0
-24,-149,92,0.0
-24,-153,92,0.0
-27,-167,98,0.0
-25,-164,94,0.0
-28,-181,101,0.0
-27,-185,101,0.0
-27,-183,97,0.0
-25,-175,90,0.0
-26,-191,96,0.0
-27,-202,99,0.0
-27,-202,96,0.0
-28,-213,99,0.0
-27,-213,96,0.0
-27,-217,95,0.0
-27,-219,93,0.0
-28,-237,98,0.0
-28,-239,95,0.0
-29,-251,97,0.0
-33,-295,111,0.0
-34,-320,116,0.0
-34,-324,114,0.0
-33,-320,109,0.0
-33,-332,109,0.0
-32,-328,104,0.0
-31,-322,98,0.0
-31,-334,97,0.0
590,13644,13356,0.0
620,14924,14922,0.0
568,14267,14573,0.0
531,13951,14557,0.0
492,13553,14447,0.0
465,13467,14665,0.0
437,13372,14878,0.0
411,13284,15102,0.0
494,16992,19739,0.0
453,16680,19801,0.0
420,16644,20192,0.0
391,16765,20790,0.0
353,16511,20930,0.0
315,16296,21120,0.0
316,18307,24260,0.0
277,18209,24676,0.0
203,15508,21496,0.0
159,14624,20735,0.0
126,14397,20887,0.0
93,14346,21298,0.0
68,16404,24929,0.0
30,15980,24864,0.0
-8,15571,24810,0.0
-45,15316,24998,0.0
-83,15022,25120,0.0
-120,14734,25251,0.0
-155,14446,25384,0.0
-195,14457,26054,0.0
-233,14327,26489,0.0
-266,13860,26299,0.0
-306,13802,26888,0.0
-326,12920,25853,0.0
-364,12827,26377,0.0
-399,12582,26601,0.0
-438,12445,27062,0.0
-471,12150,27193,0.0
-500,11777,27141,0.0
-527,11383,27028,0.0
-638,12686,31058,0.0
-680,12477,31518,0.0
-725,12327,32149,0.0
-756,11906,32089,0.0
-787,11514,32090,0.0
-811,11052,31887,0.0
-838,10635,31793,0.0
-865,10238,31746,0.0
-885,9782,31494,0.0
-908,9370,31364,0.0
-944,9095,31688,0.0
-991,8912,32373,0.0
-1041,8750,33182,0.0
-1093,8572,33999,0.0
-68,498,2071,0.0
-955,6511,28409,0.0
-998,6338,29097,0.0
-1045,6165,29854,0.0
-1065,5830,29867,0.0
-1082,5481,29789,0.0
-1095,5120,29634,0.0
-1112,4785,29607,0.0
-1128,4449,29559,0.0
-1140,4102,29416,0.0
-1154,3768,29345,0.0
-1166,3437,29278,0.0
-1178,3105,29173,0.0
-1189,2776,29073,0.0
-1198,2448,28958,0.0
-1171,2059,27971,0.0
-1173,1740,27734,0.0
-1184,1435,27684,0.0
-1192,1131,27592,0.0
-1201,830,27542,0.0
-1209,529,27464,0.0
-1218,231,27442,0.0
-1225,-66,27381,0.0
-1247,-367,27654,0.0
-1272,-674,27986,0.0
-1286,-983,28109,0.0
-1291,-1286,28043,0.0
-1296,-1585,27953,0.0
-1300,-1884,27870,0.0
-1303,-2182,27789,0.0
-1306,-2480,27722,0.0
-1310,-2776,27649,0.0
-1310,-3067,27545,0.0
-1312,-3359,27448,0.0
-1314,-3656,27407,0.0
-1315,-3947,27328,0.0
-1314,-4232,27206,0.0
-1315,-4524,27145,0.0
-1315,-4818,27089,0.0
-1313,-5103,26989,0.0
-1311,-5389,26904,0.0
-1310,-5680,26837,0.0
-1309,-5972,26778,0.0
-1305,-6253,26670,0.0
-1287,-6464,26283,0.0
-1298,-6823,26506,0.0
-1295,-7115,26446,0.0
-1291,-7405,26383,0.0
-1287,-7693,26304,0.0
-1282,-7979,26227,0.0
-1279,-8281,26194,0.0
-1273,-8565,26104,0.0
-1267,-8862,26050,0.0
-1261,-9159,25995,0.0
-1255,-9454,25933,0.0
-1247,-9741,25844,0.0
-1239,-10043,25794,0.0
-1232,-10342,25734,0.0
-1223,-10637,25660,0.0
-1215,-10932,25586,0.0
-1201,-11200,25444,0.0
-1196,-11542,25466,0.0
-1186,-11847,25406,0.0
-1175,-12155,25344,0.0
-1163,-12454,25260,0.0
-1154,-12790,25252,0.0
-1142,-13107,25194,0.0
-1129,-13418,25124,0.0
-1118,-13750,25087,0.0
-1104,-14073,25030,0.0
-1090,-14392,24959,0.0
-1076,-14726,24911,0.0
-1061,-15058,24855,0.0
-1044,-15381,24778,0.0
-1029,-15727,24732,0.0
-1012,-16057,24658,0.0
-995,-16408,24610,0.0
-978,-16763,24562,0.0
-958,-17101,24483,0.0
-937,-17431,24390,0.0
-919,-17802,24347,0.0
-897,-18146,24261,0.0
-876,-18516,24206,0.0
-854,-18892,24151,0.0
-831,-19250,24066,0.0
-808,-19642,24020,0.0
-784,-20015,23943,0.0
-758,-20396,23869,0.0
-733,-20799,23813,0.0
-705,-21174,23720,0.0
-678,-21583,23656,0.0
-650,-21992,23588,0.0
-620,-22352,23460,0.0
-2,-73,75,0.0
-1,-68,69,0.0
-2,-83,81,0.0
-1,-82,79,0.0
-1,-78,74,0.0
-1,-93,86,0.0
-2,-95,86,0.0
-1,-92,82,0.0
-1,-105,90,0.0
-1,-104,87,0.0
-1,-114,93,0.0
0,-120,96,0.0
-1,-111,88,0.0
-1,-126,97,0.0
0,-118,88,0.0
0,-125,92,0.0
0,-118,84,0.0
0,-128,90,0.0
0,-128,88,0.0
0,-141,95,0.0
1,-136,90,0.0
1,-153,99,0.0
1,-145,91,0.0
1,-148,91,0.0
1,-161,95,0.0
2,-171,99,0.0
3,-190,109,0.0
3,-173,96,0.0
3,-190,102,0.0
4,-185,97,0.0
4,-199,102,0.0
5,-216,108,0.0
4,-205,100,0.0
5,-226,107,0.0
7,-230,106,0.0
6,-224,100,0.0
7,-245,106,0.0
7,-232,98,0.0
8,-238,98,0.0
8,-245,97,0.0
8,-247,94,0.0
11,-303,113,0.0
13,-317,114,0.0
13,-320,111,0.0
14,-323,108,0.0
14,-318,103,0.0
15,-321,101,0.0
1628,13640,13431,0.0
1625,13682,13762,0.0
1605,13577,13950,0.0
1583,13450,14116,0.0
1571,13407,14375,0.0
1550,13287,14555,0.0
1531,13187,14760,0.0
1523,13168,15059,0.0
1507,13097,15304,0.0
1489,12989,15511,0.0
1482,12983,15846,0.0
1469,12922,16120,0.0
1455,12844,16380,0.0
1445,12796,16683,0.0
1432,12730,16972,0.0
1419,12660,17261,0.0
1407,12590,17557,0.0
1394,12512,17851,0.0
1385,12464,18194,0.0
1376,12411,18540,0.0
1367,12372,18918,0.0
1707,15477,24232,0.0
1659,15063,24152,0.0
1610,14644,24053,0.0
1566,14264,24006,0.0
1691,15421,26600,0.0
1617,14764,26111,0.0
1581,14438,26188,0.0
1551,14160,26349,0.0
1510,13791,26338,0.0
1463,13349,26178,0.0
1418,12923,26030,0.0
1472,13397,27732,0.0
1446,13133,27950,0.0
1446,13095,28669,0.0
1443,13031,29363,0.0
1459,13138,30485,0.0
1398,12531,29962,0.0
1421,12673,31243,0.0
1408,12490,31773,0.0
1384,12199,32041,0.0
1350,11818,32081,0.0
1317,11428,32083,0.0
1280,11011,32001,0.0
1242,10583,31872,0.0
1205,10159,31736,0.0
1159,9646,31294,0.0
1136,9331,31473,0.0
1119,9046,31765,0.0
1114,8863,32448,0.0
1111,8682,33192,0.0
1108,8488,33940,0.0
0,0,0,0.0
914,6683,29412,0.0
911,6486,30037,0.0
886,6126,29936,0.0
862,5771,29835,0.0
840,5421,29745,0.0
818,5076,29667,0.0
796,4731,29557,0.0
776,4393,29482,0.0
756,4055,29391,0.0
738,3726,29343,0.0
721,3394,29258,0.0
703,3066,29169,0.0
686,2737,29056,0.0
670,2414,28967,0.0
655,2095,28899,0.0
642,1778,28835,0.0
620,1444,28420,0.0
596,1112,27791,0.0
586,812,27809,0.0
572,508,27604,0.0
565,211,27722,0.0
565,-89,28179,0.0
555,-391,28060,0.0
547,-693,28047,0.0
539,-993,27953,0.0
531,-1292,27877,0.0
523,-1586,27769,0.0
516,-1880,27656,0.0
510,-2175,27593,0.0
496,-2426,27053,0.0
491,-2711,26953,0.0
487,-3000,26909,0.0
491,-3332,27220,0.0
489,-3634,27250,0.0
487,-3927,27196,0.0
484,-4213,27107,0.0
482,-4493,26989,0.0
483,-4794,26993,0.0
482,-5076,26895,0.0
482,-5354,26775,0.0
483,-5640,26708,0.0
482,-5908,26557,0.0
485,-6196,26501,0.0
488,-6490,26465,0.0
489,-6744,26276,0.0
495,-7062,26332,0.0
499,-7346,26257,0.0
504,-7635,26196,0.0
496,-7708,25423,0.0
503,-8007,25419,0.0
505,-8219,25143,0.0
531,-8821,26028,0.0
539,-9113,25965,0.0
547,-9403,25895,0.0
556,-9691,25816,0.0
565,-9972,25720,0.0
574,-10242,25592,0.0
586,-10566,25598,0.0
597,-10859,25525,0.0
609,-11150,25445,0.0
622,-11446,25372,0.0
634,-11746,25304,0.0
618,-11488,24067,0.0
614,-11457,23350,0.0
647,-12064,23932,0.0
657,-12267,23695,0.0
710,-13272,24971,0.0
728,-13592,24921,0.0
748,-13937,24912,0.0
767,-14262,24861,0.0
787,-14583,24797,0.0
808,-14928,24769,0.0
830,-15265,24721,0.0
834,-15272,24147,0.0
838,-15267,23571,0.0
879,-15923,24013,0.0
923,-16618,24483,0.0
949,-16965,24424,0.0
976,-17334,24389,0.0
1003,-17682,24320,0.0
1030,-18031,24245,0.0
1059,-18382,24169,0.0
1089,-18738,24093,0.0
1121,-19128,24055,0.0
1153,-19508,23998,0.0
1186,-19884,23928,0.0
1219,-20250,23840,0.0
1253,-20631,23764,0.0
1289,-21030,23703,0.0
1327,-21429,23634,0.0
1364,-21811,23540,0.0
1381,-21873,23103,0.0
1440,-22578,23338,0.0
1390,-21552,21802,0.0
1427,-21904,21685,0.0
1464,-22250,21558,0.0
1619,-24340,23079,0.0
6,-96,88,0.0
7,-106,97,0.0
7,-108,96,0.0
7,-102,89,0.0
7,-115,98,0.0
8,-119,99,0.0
9,-129,105,0.0
9,-128,101,0.0
8,-116,90,0.0
9,-133,101,0.0
9,-125,92,0.0
10,-138,101,0.0
10,-134,96,0.0
9,-128,90,0.0
147,-1890,1285,0.0
152,-1931,1283,0.0
161,-2008,1304,0.0
12,-152,96,0.0
12,-162,100,0.0
12,-152,92,0.0
13,-166,97,0.0
14,-181,104,0.0
15,-183,103,0.0
16,-193,105,0.0
18,-212,112,0.0
17,-209,107,0.0
18,-214,108,0.0
21,-237,116,0.0
21,-237,113,0.0
21,-236,109,0.0
23,-248,112,0.0
24,-260,114,0.0
24,-259,110,0.0
24,-259,107,0.0
25,-267,106,0.0
26,-277,107,0.0
29,-301,113,0.0
33,-330,121,0.0
33,-330,116,0.0
34,-333,113,0.0
33,-325,107,0.0
33,-326,103,0.0
-3091,16251,15140,0.0
-3162,16189,15409,0.0
-3231,16116,15670,0.0
-3302,16038,15933,0.0
-3373,15965,16204,0.0
-3451,15911,16500,0.0
-3511,15776,16715,0.0
-3586,15702,17000,0.0
-3603,15372,17005,0.0
-3619,15044,17009,0.0
-3727,15098,17447,0.0
-3758,14833,17519,0.0
-4014,15438,18638,0.0
-4104,15379,18981,0.0
-4198,15327,19342,0.0
-4258,15146,19546,0.0
-4370,15144,19989,0.0
-4425,14934,20164,0.0
-4419,14527,20067,0.0
-4446,14234,20120,0.0
-4754,14819,21440,0.0
-4860,14753,21849,0.0
-4967,14673,22251,0.0
-5073,14584,22651,0.0
-5185,14504,23079,0.0
-5293,14404,23485,0.0
-5408,14313,23923,0.0
-5500,14153,24256,0.0
-5622,14060,24717,0.0
-5524,13424,24213,0.0
-5663,13366,24747,0.0
-5726,13123,24949,0.0
-6145,13669,26698,0.0
-6283,13559,27220,0.0
-6419,13434,27733,0.0
-6564,13317,28281,0.0
-6678,13123,28690,0.0
-6784,12908,29064,0.0
-7045,12971,30101,0.0
-7295,12989,31086,0.0
-7387,12711,31394,0.0
-7561,12566,32052,0.0
-7630,12235,32259,0.0
-7630,11797,32176,0.0
-7613,11337,32017,0.0
-7627,10930,31996,0.0
0,0,0,0.0
0,0,0,0.0
-7541,9568,31400,0.0
-7610,9250,31612,0.0
-7732,8987,32036,0.0
-7939,8812,32815,0.0
-6608,6992,27250,0.0
-6605,6650,27172,0.0
-6604,6313,27103,0.0
-6601,5978,27027,0.0
-6596,5644,26941,0.0
-6591,5314,26861,0.0
-6589,4989,26789,0.0
-6580,4662,26689,0.0
-6585,4347,26644,0.0
-6582,4031,26572,0.0
-6575,3715,26482,0.0
-6579,3406,26437,0.0
-6569,3094,26339,0.0
-6570,2789,26283,0.0
-6562,2483,26193,0.0
-6564,2182,26136,0.0
-6562,1882,26070,0.0
-6550,1581,25963,0.0
-6549,1285,25904,0.0
-6551,992,25853,0.0
-6557,700,25816,0.0
-6550,409,25731,0.0
-6542,119,25645,0.0
-6527,-168,25525,0.0
-6609,-459,25788,0.0
-7237,-820,28179,0.0
-7238,-1134,28116,0.0
-6824,-1365,26447,0.0
-6995,-1702,27050,0.0
-7059,-2022,27232,0.0
-7041,-2319,27103,0.0
-6948,-2587,26684,0.0
0,0,0,0.0
-6930,-3172,26495,0.0
-6904,-3455,26338,0.0
-6897,-3745,26252,0.0
-6881,-4028,26128,0.0
-6875,-4317,26045,0.0
-6923,-4640,26168,0.0
-6918,-4931,26088,0.0
-6921,-5226,26040,0.0
-6913,-5513,25949,0.0
-6926,-5817,25939,0.0
-6961,-6140,26006,0.0
-6916,-6395,25780,0.0
-6866,-6639,25532,0.0
-6888,-6953,25551,0.0
-6917,-7276,25597,0.0
-6901,-7553,25479,0.0
-6873,-7816,25314,0.0
-6896,-8137,25335,0.0
-6886,-8419,25237,0.0
-6897,-8730,25216,0.0
-6871,-8991,25056,0.0
-6872,-9288,24994,0.0
-6894,-9617,25013,0.0
-6839,-9838,24752,0.0
-6875,-10188,24817,0.0
-6843,-10440,24639,0.0
-6832,-10723,24535,0.0
-6845,-11046,24518,0.0
-6830,-11325,24399,0.0
-6819,-11610,24297,0.0
-6808,-11896,24192,0.0
-6815,-12214,24151,0.0
-6814,-12520,24080,0.0
-6783,-12770,23902,0.0
-6792,-13098,23868,0.0
-6798,-13423,23823,0.0
-6800,-13740,23760,0.0
-6784,-14025,23636,0.0
-6790,-14356,23589,0.0
-6762,-14616,23420,0.0
-6782,-14980,23418,0.0
-6789,-15324,23374,0.0
-6782,-15634,23275,0.0
-6772,-15943,23172,0.0
-6782,-16299,23131,0.0
-6761,-16582,22983,0.0
-7182,-17976,24338,0.0
-6672,-17037,22536,0.0
-6524,-16992,21963,0.0
-6557,-17415,21999,0.0
-6573,-17799,21975,0.0
-6572,-18143,21896,0.0
-6556,-18446,21764,0.0
-6507,-18657,21524,0.0
-6567,-19188,21645,0.0
-6575,-19571,21588,0.0
-6572,-19929,21498,0.0
-6571,-20293,21410,0.0
-15,-50,52,0.0
-21,-69,70,0.0
-21,-71,69,0.0
-25,-86,84,0.0
-28,-97,93,0.0
-27,-96,89,0.0
-27,-99,90,0.0
-27,-101,89,0.0
-31,-115,99,0.0
-33,-128,108,0.0
-31,-121,101,0.0
-30,-118,96,0.0
-29,-117,92,0.0
-25,-103,79,0.0
-26,-110,84,0.0
-30,-128,94,0.0
-29,-124,90,0.0
-30,-132,93,0.0
-30,-137,94,0.0
-26,-118,80,0.0
-28,-132,86,0.0
-27,-130,83,0.0
-29,-142,89,0.0
-33,-157,96,0.0
-32,-156,93,0.0
-29,-149,87,0.0
-34,-173,98,0.0
-32,-167,92,0.0
-34,-180,96,0.0
-32,-173,90,0.0
-33,-181,92,0.0
-33,-186,92,0.0
-33,-189,91,0.0
-34,-196,92,0.0
-36,-212,96,0.0
-35,-213,94,0.0
-35,-218,93,0.0
-36,-225,94,0.0
-37,-239,96,0.0
-37,-241,95,0.0
-40,-267,101,0.0
-46,-313,114,0.0
-46,-320,114,0.0
-45,-318,109,0.0
-44,-320,106,0.0
-44,-326,104,0.0
-42,-319,98,0.0
-42,-325,96,0.0
-42,-327,93,0.0
-2037,15659,14849,0.0
-2078,15472,14988,0.0
-227,1642,1625,0.0
-4539,31724,32073,0.0
-4632,31387,32418,0.0
-4749,31209,32933,0.0
-2765,17621,18999,0.0
-2780,17184,18930,0.0
-2756,16534,18612,0.0
-2825,16444,18917,0.0
-2606,14724,17311,0.0
-2779,15244,18318,0.0
-2764,14726,18089,0.0
-2817,14572,18299,0.0
-3360,16878,21671,0.0
-3372,16443,21590,0.0
-3374,15976,21455,0.0
-3388,15583,21407,0.0
-3399,15186,21343,0.0
-3224,13982,20110,0.0
-3292,13865,20411,0.0
-3411,13951,21024,0.0
-3469,13775,21256,0.0
-5059,19499,30820,0.0
-5085,19024,30805,0.0
-5144,18677,30993,0.0
-5608,19756,33606,0.0
-5651,19313,33688,0.0
-4705,15596,27906,0.0
-4722,15175,27864,0.0
-4736,14755,27809,0.0
-4393,13261,25670,0.0
-4495,13146,26144,0.0
-4540,12856,26281,0.0
-4879,13373,28114,0.0
-4973,13190,28531,0.0
-5078,13023,29001,0.0
-5168,12815,29396,0.0
-5280,12645,29900,0.0
-5614,12981,31661,0.0
-5701,12720,32021,0.0
-5776,12425,32310,0.0
-5802,12027,32334,0.0
0,0,0,0.0
0,0,0,0.0
0,0,0,0.0
-5806,10281,31870,0.0
-5761,9781,31506,0.0
-5782,9402,31509,0.0
-5856,9108,31800,0.0
-6001,8914,32472,0.0
-6161,8728,33226,0.0
0,0,0,0.0
-5343,6846,28623,0.0
-5442,6612,29059,0.0
-5623,6462,29925,0.0
-5647,6123,29959,0.0
-5661,5774,29936,0.0
-5634,5389,29703,0.0
-5658,5055,29737,0.0
-5659,4705,29654,0.0
-5648,4347,29507,0.0
-5656,4007,29463,0.0
-5663,3668,29409,0.0
-5656,3325,29294,0.0
-5655,2987,29201,0.0
-5654,2651,29114,0.0
-5651,2319,29016,0.0
-5650,1989,28931,0.0
-5650,1662,28852,0.0
-5447,1289,27742,0.0
-5531,994,28093,0.0
-5507,677,27898,0.0
-5529,368,27938,0.0
-5635,58,28397,0.0
-5635,-256,28328,0.0
-5631,-569,28232,0.0
-5631,-880,28161,0.0
-5629,-1190,28078,0.0
-5621,-1497,27972,0.0
-5606,-1800,27832,0.0
-5624,-2113,27849,0.0
-5492,-2362,27131,0.0
-5486,-2657,27037,0.0
-5347,-2880,26291,0.0
-5612,-3325,27525,0.0
-5609,-3625,27444,0.0
-5606,-3925,27366,0.0
-5605,-4226,27297,0.0
-5592,-4517,27175,0.0
-5574,-4802,27026,0.0
-5565,-5093,26919,0.0
-5580,-5406,26930,0.0
-5530,-5655,26631,0.0
-5538,-5961,26609,0.0
-5499,-6213,26360,0.0
-5572,-6596,26650,0.0
-5563,-6883,26546,0.0
-5560,-7182,26478,0.0
-5554,-7473,26388,0.0
-5549,-7768,26308,0.0
-5549,-8068,26247,0.0
-5542,-8361,26161,0.0
-5537,-8656,26080,0.0
-5544,-8972,26057,0.0
-5525,-9245,25912,0.0
-5524,-9550,25854,0.0
-5523,-9853,25790,0.0
-5512,-10141,25684,0.0
-5501,-10429,25578,0.0
-5497,-10731,25506,0.0
-5492,-11034,25428,0.0
-5479,-11321,25317,0.0
-5492,-11661,25320,0.0
-5494,-11981,25274,0.0
-5486,-12282,25183,0.0
-5492,-12617,25155,0.0
-5464,-12876,24979,0.0
-5485,-13251,25020,0.0
-5477,-13560,24931,0.0
-5478,-13892,24881,0.0
-5470,-14206,24793,0.0
-5465,-14530,24720,0.0
-5465,-14866,24662,0.0
-5459,-15193,24585,0.0
-5374,-15297,24152,0.0
-5379,-15653,24121,0.0
-5420,-16124,24253,0.0
-5446,-16553,24312,0.0
-5467,-16978,24353,0.0
-5497,-17439,24433,0.0
-5497,-17813,24383,0.0
-5497,-18186,24326,0.0
-5493,-18554,24256,0.0
-5489,-18930,24189,0.0
-5478,-19280,24084,0.0
-5479,-19680,24035,0.0
-5477,-20071,23969,0.0
-5471,-20455,23888,0.0
-5465,-20842,23804,0.0
-5462,-21251,23739,0.0
-5460,-21667,23673,0.0
-5458,-22090,23608,0.0
-16,-63,66,0.0
-18,-74,76,0.0
-19,-79,80,0.0
-18,-78,76,0.0
-20,-92,88,0.0
-19,-86,80,0.0
-21,-97,89,0.0
-21,-98,87,0.0
-22,-111,96,0.0
-21,-101,86,0.0
-19,-91,77,0.0
-26,-128,106,0.0
-23,-115,92,0.0
-22,-118,92,0.0
-25,-131,101,0.0
-24,-133,100,0.0
-23,-131,96,0.0
-25,-147,105,0.0
-23,-136,95,0.0
-25,-145,99,0.0
-23,-138,92,0.0
-24,-148,96,0.0
-25,-157,100,0.0
-25,-164,101,0.0
-24,-160,97,0.0
-23,-158,94,0.0
-26,-183,106,0.0
-25,-173,97,0.0
-27,-195,107,0.0
-26,-190,102,0.0
-27,-200,104,0.0
-26,-197,100,0.0
-26,-208,102,0.0
-27,-218,104,0.0
-27,-225,104,0.0
-27,-228,103,0.0
-26,-227,99,0.0
-26,-231,98,0.0
-27,-245,102,0.0
-26,-243,97,0.0
-26,-249,97,0.0
-29,-289,109,0.0
-31,-315,115,0.0
-31,-323,114,0.0
-30,-319,109,0.0
-30,-330,108,0.0
-28,-323,103,0.0
-28,-328,100,0.0
-27,-324,96,0.0
-1234,15186,14571,0.0
-1271,14996,14698,0.0
-1306,14776,14795,0.0
-2945,31985,32715,0.0
-2989,31205,32606,0.0
0,0,0,0.0
-3028,29253,31905,0.0
-1820,16923,18860,0.0
-1841,16498,18788,0.0
-1855,16023,18645,0.0
-1893,15763,18748,0.0
-1889,15189,18464,0.0
-1918,14881,18491,0.0
-1940,14526,18454,0.0
-2151,15561,20212,0.0
-3358,23469,31173,0.0
-2195,14826,20141,0.0
-2339,15275,21226,0.0
-2374,14980,21298,0.0
-2396,14620,21271,0.0
-2382,14055,20931,0.0
-3476,19828,30230,0.0
-3550,19588,30582,0.0
-3608,19258,30795,0.0
-3655,18868,30911,0.0
-3692,18428,30941,0.0
-3295,15905,27377,0.0
-3378,15765,27826,0.0
-3457,15602,28251,0.0
-3468,15130,28112,0.0
-3441,14510,27678,0.0
-3452,14068,27561,0.0
-3474,13675,27527,0.0
-3495,13290,27502,0.0
-3511,12888,27429,0.0
-3518,12466,27300,0.0
-3496,11951,26946,0.0
-3465,11424,26537,0.0
-3560,11312,27090,0.0
-4152,12711,31397,0.0
-4254,12541,31978,0.0
-4303,12206,32154,0.0
-4322,11788,32107,0.0
0,0,0,0.0
-4345,10932,31918,0.0
-4364,10532,31886,0.0
-4368,10099,31739,0.0
-4340,9607,31377,0.0
-4389,9291,31577,0.0
-4421,8934,31644,0.0
-4600,8866,32770,0.0
-4727,8671,33505,0.0
0,0,0,0.0
-4066,6726,28560,0.0
-4116,6445,28779,0.0
-4270,6314,29723,0.0
-4325,6027,29981,0.0
-4327,5663,29867,0.0
-4247,5204,29193,0.0
-4338,4958,29700,0.0
-4337,4604,29574,0.0
-4343,4261,29502,0.0
-4346,3918,29407,0.0
-4348,3577,29313,0.0
-4357,3245,29262,0.0
-4358,2909,29164,0.0
-4357,2577,29059,0.0
-4363,2249,28996,0.0
-4365,1923,28908,0.0
-4363,1598,28799,0.0
-4225,1235,27796,0.0
-4285,939,28100,0.0
-4244,621,27748,0.0
-4266,316,27806,0.0
-4370,10,28394,0.0
-4376,-301,28349,0.0
-4371,-611,28229,0.0
-4374,-921,28171,0.0
-4374,-1227,28091,0.0
-4374,-1534,28009,0.0
-4369,-1836,27901,0.0
-4365,-2139,27807,0.0
-4369,-2442,27754,0.0
-4368,-2743,27677,0.0
-4365,-3042,27586,0.0
-4371,-3346,27551,0.0
-4364,-3640,27444,0.0
-4363,-3938,27367,0.0
-4335,-4211,27133,0.0
-4347,-4519,27144,0.0
-4339,-4807,27029,0.0
-4342,-5106,26983,0.0
-4338,-5400,26903,0.0
-4341,-5700,26860,0.0
-4330,-5982,26734,0.0
-4322,-6269,26633,0.0
-4340,-6593,26685,0.0
-4330,-6875,26568,0.0
-4326,-7167,26488,0.0
-4326,-7467,26439,0.0
-4318,-7753,26338,0.0
-4316,-8052,26280,0.0
-4314,-8352,26223,0.0
-4312,-8649,26156,0.0
-4311,-8953,26105,0.0
-4308,-9252,26039,0.0
-4301,-9545,25954,0.0
-4296,-9844,25881,0.0
-4272,-10097,25691,0.0
-4277,-10421,25680,0.0
-4284,-10753,25683,0.0
-4279,-11056,25612,0.0
-4278,-11373,25568,0.0
-4272,-11678,25493,0.0
-4270,-11998,25448,0.0
-4254,-12278,25318,0.0
-4257,-12618,25304,0.0
-4251,-12929,25229,0.0
-4239,-13229,25129,0.0
-4247,-13591,25143,0.0
-4232,-13883,25022,0.0
-4201,-14123,24808,0.0
-4232,-14578,24964,0.0
-4228,-14916,24912,0.0
-4223,-15255,24853,0.0
-4217,-15593,24791,0.0
-4211,-15941,24735,0.0
-4204,-16282,24667,0.0
-4197,-16633,24607,0.0
-4188,-16974,24527,0.0
-4179,-17324,24454,0.0
-4176,-17700,24412,0.0
-4166,-18053,24334,0.0
-4158,-18419,24266,0.0
-4150,-18797,24210,0.0
-4135,-19143,24105,0.0
-4133,-19554,24076,0.0
-4122,-19932,24000,0.0
-4113,-20319,23928,0.0
-4102,-20714,23858,0.0
-4093,-21114,23789,0.0
-4082,-21521,23720,0.0
-15,-82,88,0.0
-15,-81,85,0.0
-14,-79,81,0.0
-16,-94,95,0.0
-13,-76,76,0.0
-17,-104,101,0.0
-14,-88,83,0.0
-16,-97,90,0.0
-15,-94,85,0.0
-17,-107,95,0.0
-16,-105,92,0.0
-17,-118,100,0.0
-16,-117,96,0.0
-16,-119,96,0.0
-16,-121,95,0.0
-17,-130,101,0.0
-19,-143,108,0.0
-17,-136,101,0.0
-18,-141,102,0.0
-17,-139,98,0.0
-17,-142,97,0.0
-17,-144,97,0.0
-18,-164,107,0.0
-18,-166,107,0.0
-17,-156,98,0.0
-18,-175,107,0.0
-19,-182,109,0.0
-18,-188,110,0.0
-18,-186,106,0.0
-17,-177,98,0.0
-18,-195,106,0.0
-19,-206,108,0.0
-18,-205,105,0.0
-17,-212,106,0.0
-17,-211,102,0.0
-18,-224,106,0.0
-19,-239,110,0.0
-18,-247,110,0.0
-17,-240,104,0.0
-17,-240,101,0.0
-17,-252,103,0.0
-16,-248,98,0.0
-17,-264,101,0.0
-19,-319,119,0.0
-18,-321,115,0.0
-18,-327,114,0.0
-18,-332,112,0.0
-17,-333,108,0.0
-16,-328,102,0.0
-15,-335,101,0.0
0,0,0,0.0
-692,14647,14462,0.0
-729,14499,14625,0.0
-762,14278,14711,0.0
-1764,31202,32842,0.0
-98,1636,1759,0.0
-1827,28998,31861,0.0
-1892,28515,32011,0.0
0,0,0,0.0
-2004,27341,32050,0.0
-1992,25916,31049,0.0
-2049,25449,31163,0.0
-1321,15677,19622,0.0
-1361,15458,19782,0.0
-1378,14974,19593,0.0
-2212,23031,30816,0.0
-2219,22147,30310,0.0
-1577,15098,21136,0.0
-1614,14830,21241,0.0
-1646,14523,21287,0.0
-2388,20243,30370,0.0
-2436,19852,30492,0.0
-2443,19142,30108,0.0
-2541,19155,30858,0.0
-2583,18735,30924,0.0
-2841,19832,33547,0.0
-2880,19341,33542,0.0
-2315,14972,26626,0.0
-2386,14847,27087,0.0
-2468,14788,27688,0.0
-2499,14414,27706,0.0
-2518,13978,27596,0.0
-2542,13584,27555,0.0
-2587,13304,27745,0.0
-2599,12860,27585,0.0
-2597,12363,27287,0.0
-2518,11528,26200,0.0
-2600,11444,26796,0.0
-2987,12636,30502,0.0
-2876,11687,29102,0.0
-3209,12524,32197,0.0
-3232,12105,32153,0.0
-3257,11702,32142,0.0
-3277,11284,32073,0.0
-3289,10848,31944,0.0
-3304,10428,31842,0.0
-3322,10027,31788,0.0
-3301,9516,31358,0.0
-3338,9181,31488,0.0
-3430,8990,32133,0.0
-3535,8818,32902,0.0
-3646,8644,33716,0.0
0,0,0,0.0
-3125,6654,28536,0.0
-3215,6470,29182,0.0
-3300,6262,29781,0.0
-3337,5955,29944,0.0
-3344,5596,29840,0.0
-3342,5227,29656,0.0
-3361,4896,29674,0.0
-3368,4550,29585,0.0
-3373,4204,29479,0.0
-3377,3861,29374,0.0
-3386,3527,29308,0.0
-3397,3197,29267,0.0
-3399,2862,29151,0.0
-3403,2532,29053,0.0
-3410,2207,28985,0.0
-3416,1883,28918,0.0
-3408,1555,28733,0.0
-3307,1198,27772,0.0
-3348,901,28007,0.0
-3332,589,27760,0.0
-3360,286,27890,0.0
-3434,-19,28405,0.0
-3438,-329,28330,0.0
-3439,-638,28242,0.0
-3437,-944,28136,0.0
-3439,-1249,28056,0.0
-3443,-1554,28008,0.0
-3443,-1857,27915,0.0
-3444,-2158,27837,0.0
-3443,-2458,27752,0.0
-3443,-2757,27673,0.0
-3442,-3055,27591,0.0
-3442,-3352,27514,0.0
-3439,-3645,27415,0.0
-3439,-3942,27350,0.0
-3441,-4241,27301,0.0
-3438,-4534,27211,0.0
-3435,-4826,27126,0.0
-3432,-5118,27042,0.0
-3432,-5413,26980,0.0
-3428,-5703,26892,0.0
-3425,-5994,26813,0.0
-3422,-6286,26735,0.0
-3417,-6574,26648,0.0
-3416,-6869,26589,0.0
-3410,-7157,26499,0.0
-3406,-7447,26420,0.0
-3403,-7740,26351,0.0
-3397,-8029,26264,0.0
-3398,-8334,26231,0.0
-3392,-8627,26154,0.0
-3391,-8930,26110,0.0
-3388,-9229,26048,0.0
-3380,-9520,25960,0.0
-3378,-9825,25909,0.0
-3368,-10111,25810,0.0
-3365,-10421,25764,0.0
-3360,-10723,25697,0.0
-3353,-11023,25623,0.0
-3345,-11322,25544,0.0
-3342,-11639,25502,0.0
-3336,-11949,25440,0.0
-3329,-12259,25374,0.0
-3325,-12584,25337,0.0
-3315,-12888,25248,0.0
-3310,-13213,25201,0.0
-3301,-13528,25129,0.0
-3298,-13868,25101,0.0
-3286,-14175,25005,0.0
-3280,-14512,24961,0.0
-3275,-14858,24924,0.0
-3262,-15176,24837,0.0
-3252,-15506,24765,0.0
-3248,-15870,24741,0.0
-3236,-16206,24666,0.0
-3228,-16557,24611,0.0
-3215,-16898,24535,0.0
-3207,-17263,24488,0.0
-3195,-17614,24415,0.0
-3184,-17977,24353,0.0
-3171,-18334,24280,0.0
-3156,-18688,24193,0.0
-3146,-19080,24152,0.0
-3132,-19448,24075,0.0
-3119,-19839,24017,0.0
-3104,-20218,23939,0.0
-3092,-20622,23885,0.0
-3073,-20991,23783,0.0
-3057,-21393,23713,0.0
-10,-71,78,0.0
-11,-81,85,0.0
-9,-64,66,0.0
-10,-73,74,0.0
-11,-86,85,0.0
-10,-81,79,0.0
-10,-89,85,0.0
-11,-93,87,0.0
-11,-96,88,0.0
-11,-99,88,0.0
-10,-95,83,0.0
-11,-103,88,0.0
-10,-103,86,0.0
-13,-129,105,0.0
-12,-128,102,0.0
-10,-115,89,0.0
-11,-130,99,0.0
-11,-130,97,0.0
-11,-121,88,0.0
-11,-135,96,0.0
-11,-135,94,0.0
-11,-134,90,0.0
-13,-160,106,0.0
-11,-146,94,0.0
-12,-160,101,0.0
-10,-144,89,0.0
-11,-174,105,0.0
-11,-173,102,0.0
-11,-169,97,0.0
-11,-190,107,0.0
-11,-191,104,0.0
-11,-196,104,0.0
-11,-199,103,0.0
-11,-200,101,0.0
-10,-209,102,0.0
-10,-226,108,0.0
-10,-228,106,0.0
-10,-238,107,0.0
-10,-249,109,0.0
-9,-242,103,0.0
-9,-240,99,0.0
-9,-249,100,0.0
-8,-251,97,0.0
-9,-291,109,0.0
-9,-324,118,0.0
-8,-331,116,0.0
-8,-334,114,0.0
-7,-338,111,0.0
-7,-331,105,0.0
-6,-337,103,0.0
-336,17316,16809,0.0
-378,17147,17003,0.0
-419,16959,17178,0.0
-386,14107,14597,0.0
-418,13884,14676,0.0
-518,15724,16981,0.0
-559,15591,17202,0.0
-591,15261,17205,0.0
-630,15097,17390,0.0
-1221,27283,32118,0.0
-1236,25802,31043,0.0
-1294,25360,31185,0.0
-1343,24733,31090,0.0
-1406,24419,31381,0.0
-943,15466,20322,0.0
-978,15157,20367,0.0
-1006,14778,20311,0.0
-1070,14923,20980,0.0
-1111,14729,21186,0.0
-1147,14457,21282,0.0
0,0,0,0.0
-1725,19749,30463,0.0
-1792,19570,30913,0.0
-1832,19106,30913,0.0
-1872,18657,30929,0.0
-2072,19744,33547,0.0
-2113,19261,33549,0.0
-1709,14908,26631,0.0
-1773,14807,27134,0.0
-1836,14684,27615,0.0
-1870,14327,27663,0.0
-1896,13917,27599,0.0
-1921,13513,27537,0.0
-1969,13276,27812,0.0
-1986,12830,27644,0.0
-1986,12298,27271,0.0
-1928,11435,26108,0.0
-2037,11578,27237,0.0
-2186,11903,28866,0.0
-2232,11638,29119,0.0
-2495,12457,32177,0.0
-2513,11999,32026,0.0
-2540,11604,32029,0.0
-2563,11189,31963,0.0
-2585,10785,31919,0.0
-2596,10338,31730,0.0
-2607,9904,31560,0.0
-2617,9478,31394,0.0
-2652,9141,31516,0.0
-2732,8956,32182,0.0
-2817,8768,32893,0.0
-2905,8576,33641,0.0
0,0,0,0.0
-2500,6608,28500,0.0
-2577,6424,29146,0.0
-2648,6215,29737,0.0
-2683,5910,29906,0.0
-2666,5500,29514,0.0
-2669,5138,29347,0.0
-2716,4861,29668,0.0
-2722,4511,29541,0.0
-2729,4166,29434,0.0
-2739,3830,29365,0.0
-2750,3498,29307,0.0
-2757,3164,29218,0.0
-2763,2832,29119,0.0
-2771,2505,29046,0.0
-2774,2178,28936,0.0
-2781,1855,28849,0.0
-2783,1534,28739,0.0
-2704,1178,27792,0.0
-2736,881,27986,0.0
-2722,569,27719,0.0
-2747,268,27847,0.0
-2812,-35,28390,0.0
-2815,-345,28305,0.0
-2818,-652,28228,0.0
-2821,-957,28141,0.0
-2823,-1262,28068,0.0
-2823,-1563,27958,0.0
-2828,-1867,27912,0.0
-2825,-2164,27798,0.0
-2828,-2465,27731,0.0
-2829,-2764,27659,0.0
-2827,-3057,27553,0.0
-2828,-3355,27488,0.0
-2830,-3651,27419,0.0
-2827,-3941,27319,0.0
-2827,-4236,27250,0.0
-2829,-4533,27200,0.0
-2825,-4823,27105,0.0
-2821,-5111,27007,0.0
-2820,-5404,26944,0.0
-2815,-5689,26839,0.0
-2816,-5987,26797,0.0
-2814,-6277,26721,0.0
-2808,-6560,26616,0.0
-2805,-6852,26550,0.0
-2800,-7139,26463,0.0
-2797,-7434,26405,0.0
-2791,-7717,26307,0.0
-2792,-8022,26278,0.0
-2787,-8314,26207,0.0
-2780,-8601,26116,0.0
-2778,-8903,26073,0.0
-2771,-9193,25991,0.0
-2765,-9483,25909,0.0
-2761,-9788,25861,0.0
-2756,-10088,25798,0.0
-2748,-10379,25712,0.0
-2741,-10678,25643,0.0
-2735,-10986,25590,0.0
-2730,-11296,25539,0.0
-2721,-11594,25458,0.0
-2716,-11911,25415,0.0
-2709,-12226,25365,0.0
-2702,-12543,25312,0.0
-2695,-12862,25260,0.0
-2686,-13173,25188,0.0
-2677,-13488,25118,0.0
-2667,-13813,25064,0.0
-2660,-14142,25013,0.0
-2650,-14471,24956,0.0
-2638,-14791,24879,0.0
-2631,-15140,24845,0.0
-2617,-15460,24758,0.0
-2609,-15816,24726,0.0
-2599,-16169,24680,0.0
-2584,-16499,24594,0.0
-2570,-16839,24521,0.0
-2557,-17188,24455,0.0
-2544,-17543,24391,0.0
-2531,-17914,24342,0.0
-2516,-18270,24269,0.0
-2500,-18632,24198,0.0
-2486,-19008,24136,0.0
-2470,-19385,24073,0.0
-2452,-19752,23989,0.0
-2435,-20135,23920,0.0
-2414,-20498,23820,0.0
-2399,-20915,23777,0.0
-2381,-21321,23713,0.0
-2360,-21704,23618,0.0
-6,-59,62,0.0
-6,-60,62,0.0
-6,-62,63,0.0
-5,-54,54,0.0
-9,-84,83,0.0
-12,-131,125,0.0
-8,-98,91,0.0
-8,-100,92,0.0
-8,-98,87,0.0
-8,-89,78,0.0
-7,-98,83,0.0
-8,-105,89,0.0
-8,-102,84,0.0
-8,-117,93,0.0
-8,-120,94,0.0
-8,-116,89,0.0
-8,-126,94,0.0
-7,-119,87,0.0
-8,-130,93,0.0
-8,-136,96,0.0
-7,-126,86,0.0
-7,-128,85,0.0
-6,-121,79,0.0
-7,-142,89,0.0
-7,-155,96,0.0
-7,-163,99,0.0
-6,-157,93,0.0
-6,-165,95,0.0
-7,-185,104,0.0
-7,-184,101,0.0
-6,-174,93,0.0
-7,-198,103,0.0
-6,-205,103,0.0
-6,-201,99,0.0
-6,-215,103,0.0
-5,-213,99,0.0
-5,-221,101,0.0
-4,-218,96,0.0
-4,-223,96,0.0
-3,-222,92,0.0
-3,-231,93,0.0
-3,-235,92,0.0
-3,-264,100,0.0
-2,-317,116,0.0
-2,-323,115,0.0
-2,-327,112,0.0
0,-330,109,0.0
0,-326,104,0.0
0,-327,100,0.0
93,16722,16293,0.0
52,16128,16052,0.0
15,15632,15894,0.0
-18,13978,14517,0.0
-50,13759,14600,0.0
-92,15376,16667,0.0
-132,15564,17237,0.0
-167,15271,17279,0.0
-204,15059,17413,0.0
-270,16792,19843,0.0
-481,25737,31080,0.0
-540,25221,31131,0.0
-591,24482,30890,0.0
-659,24490,31591,0.0
-706,23676,31228,0.0
-488,14919,20123,0.0
-546,15307,21116,0.0
-584,15072,21270,0.0
-613,14625,21118,0.0
-652,14459,21364,0.0
-968,20004,30254,0.0
-1022,19743,30572,0.0
-1077,19489,30903,0.0
-1117,18975,30821,0.0
-1157,18497,30782,0.0
-1306,19673,33554,0.0
-1347,19163,33508,0.0
-1106,14873,26672,0.0
-1162,14799,27226,0.0
-1212,14624,27612,0.0
-1245,14245,27614,0.0
-1271,13809,27494,0.0
-1303,13451,27521,0.0
-1346,13205,27774,0.0
-1386,12925,27964,0.0
-1382,12269,27317,0.0
-1400,11838,27138,0.0
-1426,11464,27080,0.0
-1641,12568,30610,0.0
-1702,12411,31184,0.0
-1770,12293,31889,0.0
-1812,11973,32092,0.0
-1839,11570,32070,0.0
-1858,11123,31913,0.0
-1880,10697,31798,0.0
-1911,10341,31883,0.0
-1921,9878,31619,0.0
-1928,9413,31327,0.0
-1972,9131,31628,0.0
-2039,8944,32291,0.0
-2109,8758,33010,0.0
-2187,8586,33846,0.0
-1862,6901,28498,0.0
-1882,6572,28495,0.0
-1926,6329,28865,0.0
-2009,6197,29810,0.0
-2036,5880,29912,0.0
-2046,5521,29797,0.0
-2054,5158,29638,0.0
-2071,4826,29634,0.0
-2083,4484,29551,0.0
-2091,4137,29419,0.0
-2103,3802,29352,0.0
-2113,3469,29273,0.0
-2124,3139,29209,0.0
-2131,2807,29096,0.0
-2138,2479,28998,0.0
-2148,2156,28931,0.0
-2154,1834,28835,0.0
-2134,1495,28381,0.0
-2102,1161,27789,0.0
-2120,860,27865,0.0
-2120,554,27732,0.0
-2143,253,27880,0.0
-2192,-51,28371,0.0
-2197,-358,28284,0.0
-2201,-665,28205,0.0
-2205,-970,28138,0.0
-2208,-1272,28049,0.0
-2213,-1576,27989,0.0
-2213,-1874,27878,0.0
-2216,-2173,27805,0.0
-2215,-2469,27692,0.0
-2219,-2768,27644,0.0
-2213,-3054,27478,0.0
-2220,-3358,27482,0.0
-2220,-3649,27385,0.0
-2221,-3946,27335,0.0
-2219,-4234,27225,0.0
-2219,-4527,27161,0.0
-2217,-4816,27065,0.0
-2163,-4986,26361,0.0
-2164,-5277,26318,0.0
-2173,-5586,26366,0.0
-2210,-5978,26774,0.0
-2208,-6268,26702,0.0
-2205,-6557,26624,0.0
-2154,-6696,25977,0.0
-2100,-6817,25299,0.0
-2192,-7418,26382,0.0
-2191,-7717,26340,0.0
-2185,-8004,26258,0.0
-2179,-8290,26169,0.0
-2127,-8399,25543,0.0
-2123,-8687,25480,0.0
-2159,-9150,25913,0.0
-2159,-9469,25914,0.0
-2118,-9607,25429,0.0
-2113,-9909,25385,0.0
-2137,-10348,25682,0.0
-2132,-10660,25650,0.0
-2127,-10972,25609,0.0
-2078,-11053,25042,0.0
-2057,-11285,24832,0.0
-2102,-11882,25408,0.0
-2092,-12183,25330,0.0
-2088,-12528,25337,0.0
-2078,-12835,25264,0.0
-2068,-13153,25206,0.0
-2060,-13481,25163,0.0
-2047,-13794,25089,0.0
-1991,-13804,24472,0.0
-1978,-14108,24388,0.0
-2002,-14688,24766,0.0
-2001,-15101,24841,0.0
-1989,-15452,24807,0.0
-1974,-15767,24713,0.0
-1961,-16119,24668,0.0
-1949,-16478,24630,0.0
-1934,-16826,24567,0.0
-1917,-17155,24472,0.0
-1901,-17511,24412,0.0
-1884,-17872,24352,0.0
-1867,-18231,24283,0.0
-1851,-18600,24223,0.0
-1832,-18961,24147,0.0
-1814,-19342,24090,0.0
-1795,-19717,24017,0.0
-1773,-20089,23936,0.0
-1751,-20462,23851,0.0
-1731,-20858,23785,0.0
-1710,-21272,23733,0.0
-1686,-21659,23643,0.0
-1664,-22088,23593,0.0
-5,-68,72,0.0
-4,-56,58,0.0
-5,-83,83,0.0
-5,-83,81,0.0
-5,-72,69,0.0
-5,-87,82,0.0
-5,-96,87,0.0
-5,-97,87,0.0
-6,-103,90,0.0
-5,-101,86,0.0
-6,-121,101,0.0
-6,-124,102,0.0
-6,-122,98,0.0
-5,-119,93,0.0
-5,-131,101,0.0
-6,-142,106,0.0
-4,-120,88,0.0
-5,-137,98,0.0
-4,-128,90,0.0
-4,-135,93,0.0
-4,-143,96,0.0
-4,-133,87,0.0
-4,-153,98,0.0
-3,-144,90,0.0
-3,-158,96,0.0
-3,-161,95,0.0
-3,-172,100,0.0
-3,-185,105,0.0
-3,-181,99,0.0
-2,-197,106,0.0
-2,-202,106,0.0
-2,-215,109,0.0
-1,-204,101,0.0
-1,-210,101,0.0
0,-218,102,0.0
-1,-231,105,0.0
0,-231,102,0.0
0,-244,105,0.0
0,-239,100,0.0
1,-246,100,0.0
1,-251,99,0.0
2,-264,101,0.0
2,-320,118,0.0
4,-337,120,0.0
5,-339,117,0.0
5,-335,112,0.0
5,-332,106,0.0
6,-334,104,0.0
1454,13634,13415,0.0
1450,13700,13770,0.0
1433,13633,13997,0.0
1410,13505,14164,0.0
1397,13481,14445,0.0
1373,13348,14612,0.0
1353,13238,14806,0.0
1338,13190,15074,0.0
1550,15392,17974,0.0
1521,15213,18155,0.0
1405,14154,17263,0.0
1289,13078,16304,0.0
1267,12943,16495,0.0
1634,16808,21900,0.0
1657,17165,22868,0.0
1404,14648,19958,0.0
1386,14558,20288,0.0
1435,15164,21619,0.0
1363,14500,21151,0.0
1338,14329,21391,0.0
1496,16139,24660,0.0
1638,17775,27808,0.0
1459,15933,25527,0.0
1471,16162,26525,0.0
1414,15629,26281,0.0
1376,15298,26368,0.0
1344,15039,26576,0.0
1319,14834,26885,0.0
1253,14166,26340,0.0
1206,13705,26155,0.0
1165,13314,26088,0.0
1125,12917,25999,0.0
1163,13408,27735,0.0
1134,13140,27942,0.0
1131,13155,28776,0.0
1117,13041,29360,0.0
1159,13583,31492,0.0
1115,13095,31285,0.0
1080,12722,31339,0.0
1060,12521,31825,0.0
1036,12251,32154,0.0
996,11797,31997,0.0
963,11409,32003,0.0
926,10967,31844,0.0
890,10532,31690,0.0
861,10178,31767,0.0
817,9642,31251,0.0
791,9302,31348,0.0
775,9061,31790,0.0
764,8890,32517,0.0
753,8703,33241,0.0
746,8538,34108,0.0
0,0,0,0.0
597,6695,29430,0.0
587,6486,30009,0.0
563,6126,29906,0.0
540,5770,29799,0.0
520,5432,29771,0.0
498,5082,29665,0.0
478,4734,29543,0.0
458,4394,29454,0.0
440,4053,29338,0.0
422,3722,29275,0.0
405,3397,29238,0.0
390,3069,29150,0.0
373,2742,29060,0.0
358,2419,28980,0.0
344,2098,28895,0.0
330,1778,28782,0.0
307,1413,27741,0.0
296,1113,27744,0.0
286,816,27826,0.0
274,511,27642,0.0
266,213,27724,0.0
262,-87,28295,0.0
253,-392,28253,0.0
244,-694,28171,0.0
237,-995,28068,0.0
229,-1294,27978,0.0
223,-1595,27921,0.0
216,-1892,27857,0.0
210,-2189,27783,0.0
205,-2482,27675,0.0
199,-2758,27426,0.0
197,-3071,27546,0.0
194,-3362,27460,0.0
191,-3652,27374,0.0
188,-3940,27281,0.0
186,-4228,27201,0.0
186,-4519,27140,0.0
185,-4812,27088,0.0
184,-5096,26994,0.0
185,-5388,26938,0.0
185,-5673,26852,0.0
188,-5954,26752,0.0
189,-6237,26662,0.0
192,-6529,26612,0.0
195,-6807,26512,0.0
198,-7093,26436,0.0
202,-7376,26352,0.0
207,-7656,26255,0.0
208,-7783,25658,0.0
213,-8060,25575,0.0
221,-8386,25637,0.0
232,-8835,26057,0.0
239,-9123,25979,0.0
248,-9420,25926,0.0
256,-9715,25867,0.0
266,-10010,25802,0.0
275,-10296,25714,0.0
285,-10596,25655,0.0
296,-10893,25587,0.0
308,-11185,25506,0.0
320,-11499,25470,0.0
333,-11788,25379,0.0
346,-12076,25280,0.0
331,-11395,23206,0.0
356,-12060,23905,0.0
392,-13047,25184,0.0
408,-13373,25147,0.0
424,-13683,25073,0.0
442,-14020,25042,0.0
460,-14323,24948,0.0
478,-14632,24863,0.0
498,-14976,24830,0.0
519,-15303,24763,0.0
527,-15270,24124,0.0
549,-15594,24059,0.0
574,-16020,24141,0.0
604,-16548,24363,0.0
631,-16956,24391,0.0
655,-17297,24320,0.0
680,-17639,24241,0.0
708,-17995,24178,0.0
736,-18372,24137,0.0
766,-18774,24121,0.0
795,-19141,24052,0.0
826,-19521,23993,0.0
856,-19882,23906,0.0
890,-20290,23868,0.0
923,-20666,23784,0.0
958,-21054,23711,0.0
993,-21461,23650,0.0
1029,-21849,23561,0.0
1068,-22271,23503,0.0
1107,-22686,23430,0.0
1145,-23078,23326,0.0
1187,-23494,23240,0.0
3,-88,84,0.0
4,-85,80,0.0
4,-84,79,0.0
4,-94,85,0.0
5,-93,82,0.0
5,-101,88,0.0
5,-113,97,0.0
6,-110,91,0.0
6,-121,99,0.0
7,-137,109,0.0
7,-129,100,0.0
7,-125,95,0.0
8,-126,93,0.0
8,-135,98,0.0
8,-139,98,0.0
8,-148,102,0.0
8,-137,92,0.0
132,-1975,1310,0.0
9,-145,94,0.0
9,-143,90,0.0
10,-166,103,0.0
11,-169,102,0.0
10,-158,92,0.0
12,-174,99,0.0
13,-184,102,0.0
13,-184,101,0.0
14,-198,105,0.0
17,-218,113,0.0
16,-209,105,0.0
16,-212,104,0.0
18,-231,110,0.0
19,-230,107,0.0
19,-236,107,0.0
20,-239,105,0.0
20,-240,102,0.0
20,-243,101,0.0
22,-254,101,0.0
23,-260,101,0.0
26,-296,111,0.0
29,-318,116,0.0
30,-334,117,0.0
30,-329,111,0.0
30,-321,105,0.0
31,-329,104,0.0
2140,13559,13367,0.0
2146,13598,13694,0.0
2129,13491,13877,0.0
2621,16603,17447,0.0
2126,13466,14455,0.0
2124,13442,14742,0.0
2434,15389,17243,0.0
2379,15024,17203,0.0
1964,12389,14496,0.0
1958,12336,14750,0.0
2179,13701,16744,0.0
2202,13823,17267,0.0
1991,12470,15924,0.0
1976,12343,16115,0.0
2229,13887,18540,0.0
2238,13901,18979,0.0
2241,13877,19380,0.0
2234,13785,19695,0.0
2232,13713,20044,0.0
2234,13669,20449,0.0
2262,13775,21095,0.0
2232,13526,21209,0.0
2183,13154,21122,0.0
2135,12792,21042,0.0
2067,12306,20741,0.0
2041,12068,20849,0.0
2034,11949,21164,0.0
2032,11846,21520,0.0
2448,14153,26378,0.0
2390,13696,26199,0.0
2328,13222,25971,0.0
2072,11653,23511,0.0
2232,12419,25750,0.0
2093,11523,24565,0.0
2414,13131,28793,0.0
2108,11327,25567,0.0
2096,11112,25829,0.0
2076,10855,25997,0.0
2065,10636,26266,0.0
2487,12611,32137,0.0
2307,11508,30281,0.0
2398,11755,31965,0.0
2355,11333,31872,0.0
2315,10921,31797,0.0
2277,10518,31734,0.0
2224,10051,31456,0.0
2177,9609,31228,0.0
2165,9317,31486,0.0
2155,9035,31789,0.0
2173,8857,32489,0.0
2197,8691,33291,0.0
0,0,0,0.0
0,0,0,0.0
1866,6661,29369,0.0
1882,6463,29995,0.0
1851,6101,29873,0.0
1827,5755,29817,0.0
1800,5404,29712,0.0
1772,5052,29585,0.0
1631,4394,27520,0.0
1610,4083,27470,0.0
1705,4043,29370,0.0
1586,3495,27589,0.0
1619,3291,28438,0.0
1642,3049,29094,0.0
1622,2726,29013,0.0
1604,2403,28921,0.0
1587,2084,28850,0.0
1569,1766,28750,0.0
1506,1407,27790,0.0
1499,1110,27864,0.0
1486,807,27809,0.0
1465,504,27563,0.0
1463,208,27702,0.0
1394,-86,26550,0.0
1385,-371,26492,0.0
1380,-657,26502,0.0
1367,-938,26380,0.0
1444,-1296,27961,0.0
1425,-1581,27675,0.0
1419,-1880,27657,0.0
1418,-2181,27686,0.0
1386,-2431,27119,0.0
1382,-2722,27086,0.0
1344,-2937,26364,0.0
1397,-3355,27427,0.0
1393,-3645,27353,0.0
1372,-3884,26925,0.0
1382,-4206,27097,0.0
1384,-4508,27107,0.0
1383,-4796,27040,0.0
1382,-5079,26949,0.0
1382,-5369,26888,0.0
1383,-5656,26820,0.0
1383,-5938,26724,0.0
1385,-6223,26650,0.0
1387,-6511,26588,0.0
1389,-6788,26486,0.0
1367,-6945,25933,0.0
1383,-7287,26086,0.0
1361,-7421,25504,0.0
1390,-7830,25868,0.0
1405,-8164,25958,0.0
1400,-8379,25671,0.0
1362,-8382,24776,0.0
1437,-9082,25920,0.0
1373,-8900,24550,0.0
1456,-9667,25795,0.0
1465,-9945,25693,0.0
1478,-10254,25667,0.0
1485,-10515,25520,0.0
1433,-10344,24357,0.0
1446,-10626,24291,0.0
1460,-10914,24235,0.0
1472,-11185,24138,0.0
1521,-11739,24636,0.0
1561,-12219,24949,0.0
1588,-12606,25052,0.0
1602,-12884,24931,0.0
1552,-12636,23819,0.0
1568,-12909,23714,0.0
1587,-13199,23637,0.0
1608,-13517,23605,0.0
1632,-13842,23580,0.0
1648,-14099,23438,0.0
1675,-14447,23440,0.0
1696,-14738,23346,0.0
1718,-15034,23257,0.0
1744,-15355,23200,0.0
1768,-15653,23107,0.0
1794,-15973,23040,0.0
1819,-16273,22942,0.0
1819,-16349,22531,0.0
1804,-16276,21930,0.0
1825,-16521,21765,0.0
1860,-16888,21758,0.0
1892,-17220,21700,0.0
1923,-17545,21626,0.0
1955,-17872,21550,0.0
1991,-18229,21506,0.0
2025,-18554,21417,0.0
2058,-18873,21316,0.0
2095,-19230,21253,0.0
2134,-19588,21185,0.0
2173,-19942,21108,0.0
2213,-20299,21027,0.0
