//X,Y,Z,Classification
-78,-249,100,0.0
-85,-278,108,0.0
-94,-311,118,0.0
-99,-332,122,0.0
-97,-333,118,0.0
-95,-329,112,0.0
-95,-333,110,0.0
-95,-339,107,0.0
-90,-326,99,0.0
-90,-329,96,0.0
-89,-333,93,0.0
-89,-338,91,0.0
-86,-330,85,0.0
-86,-333,82,0.0
-6062,17776,15552,0.0
-6091,17489,15635,0.0
-6110,17177,15692,0.0
-6115,16833,15713,0.0
-5814,15671,14949,0.0
-6049,15961,15559,0.0
-6121,15810,15750,0.0
-6947,17564,17882,0.0
-6938,17167,17862,0.0
-6915,16748,17810,0.0
-6972,16519,17957,0.0
0,0,0,0.0
-6754,15318,17402,0.0
-6839,15173,17623,0.0
-6958,15096,17928,0.0
-7107,15078,18311,0.0
-7229,14995,18626,0.0
-7269,14739,18726,0.0
-12170,24116,31348,0.0
-12158,23538,31310,0.0
0,0,0,0.0
0,0,0,0.0
-11835,21347,30458,0.0
0,0,0,0.0
-11782,20244,30299,0.0
-11915,19973,30630,0.0
-11993,19607,30817,0.0
-12095,19280,31066,0.0
0,0,0,0.0
0,0,0,0.0
-13142,19374,33704,0.0
-13081,18772,33527,0.0
-13050,18224,33428,0.0
-13045,17719,33394,0.0
-13006,17174,33271,0.0
-12976,16650,33173,0.0
-12924,16104,33014,0.0
-12945,15655,33043,0.0
-12889,15120,32875,0.0
-12876,14642,32815,0.0
-12808,14108,32613,0.0
-12797,13645,32558,0.0
-12749,13148,32408,0.0
-12736,12694,32345,0.0
-12720,12240,32273,0.0
-9219,8558,23368,0.0
-9421,8427,23857,0.0
-9610,8274,24310,0.0
-9615,7959,24296,0.0
-9584,7618,24191,0.0
-9560,7285,24102,0.0
-9539,6960,24023,0.0
-9526,6643,23963,0.0
-9493,6316,23848,0.0
-9488,6011,23809,0.0
-9467,5698,23722,0.0
-9441,5387,23631,0.0
-9423,5083,23553,0.0
-9398,4778,23456,0.0
-9385,4483,23394,0.0
-9363,4186,23306,0.0
-9346,3894,23232,0.0
-9327,3604,23150,0.0
-8897,3170,22050,0.0
-9079,2963,22467,0.0
-8958,2657,22132,0.0
-8881,2371,21907,0.0
-8963,2128,22074,0.0
-9219,1919,22666,0.0
-9210,1647,22609,0.0
-9194,1377,22529,0.0
-9187,1110,22472,0.0
-9161,843,22371,0.0
-9162,579,22334,0.0
-9156,316,22276,0.0
-9143,55,22204,0.0
-9131,-204,22132,0.0
-9120,-462,22063,0.0
-9116,-721,22012,0.0
-9093,-975,21913,0.0
-9088,-1230,21855,0.0
-9077,-1483,21784,0.0
-9071,-1736,21725,0.0
-9067,-1988,21669,0.0
-9050,-2236,21582,0.0
-9049,-2488,21534,0.0
-9036,-2735,21454,0.0
-9028,-2983,21387,0.0
-9025,-3231,21330,0.0
-8467,-3266,19965,0.0
-8452,-3493,19879,0.0
-8449,-3725,19826,0.0
-8424,-3945,19719,0.0
-8451,-4191,19732,0.0
-8541,-4470,19893,0.0
-8560,-4715,19886,0.0
-8477,-4903,19642,0.0
-8477,-5135,19590,0.0
-8567,-5424,19744,0.0
-8384,-5538,19267,0.0
-8393,-5776,19237,0.0
-8512,-6091,19453,0.0
-8367,-6217,19067,0.0
-8575,-6608,19485,0.0
-8381,-6689,18986,0.0
-8346,-6891,18848,0.0
-8360,-7134,18824,0.0
-8558,-7539,19209,0.0
-8599,-7813,19239,0.0
-8599,-8051,19177,0.0
-8597,-8289,19110,0.0
-8594,-8525,19039,0.0
-8600,-8769,18986,0.0
-8603,-9013,18927,0.0
-8601,-9253,18859,0.0
-8586,-9478,18757,0.0
-8322,-9421,18114,0.0
-8586,-9962,18620,0.0
-8532,-10140,18432,0.0
-8473,-10311,18236,0.0
-8510,-10599,18244,0.0
-8519,-10853,18189,0.0
-9092,-11845,19336,0.0
-9102,-12120,19277,0.0
-9127,-12417,19248,0.0
-9133,-12690,19178,0.0
-9144,-12974,19118,0.0
-9170,-13280,19088,0.0
-9187,-13574,19036,0.0
-9203,-13870,18983,0.0
-9213,-14157,18911,0.0
-9240,-14476,18877,0.0
-9249,-14769,18805,0.0
-9255,-15057,18722,0.0
-9279,-15378,18675,0.0
-9304,-15704,18628,0.0
-9317,-16013,18555,0.0
-9344,-16346,18508,0.0
-9363,-16673,18444,0.0
-9383,-17002,18380,0.0
-9408,-17344,18322,0.0
-9424,-17673,18246,0.0
-9454,-18032,18193,0.0
-9480,-18386,18131,0.0
-9499,-18731,18053,0.0
-9529,-19103,17994,0.0
-9549,-19460,17915,0.0
-9573,-19827,17839,0.0
-9600,-20204,17767,0.0
-9629,-20592,17696,0.0
-9674,-21018,17650,0.0
-9685,-21374,17540,0.0
-9708,-21762,17449,0.0
-9752,-22202,17392,0.0
-9781,-22615,17306,0.0
-9805,-23022,17209,0.0
-9773,-23299,17009,0.0
-9564,-23150,16503,0.0
-9422,-23155,16118,0.0
-767,-1915,1301,0.0
-734,-1861,1234,0.0
0,0,0,0.0
-744,-1944,1228,0.0
-747,-1979,1219,0.0
-731,-1967,1182,0.0
-738,-2016,1180,0.0
0,0,0,0.0
-739,-2077,1155,0.0
-721,-2059,1115,0.0
-715,-2069,1091,0.0
-705,-2069,1062,0.0
-708,-2110,1054,0.0
-55,-169,82,0.0
-60,-187,88,0.0
-62,-198,91,0.0
-65,-209,92,0.0
-67,-215,93,0.0
-77,-254,106,0.0
-75,-248,100,0.0
-82,-276,108,0.0
-86,-297,114,0.0
-93,-325,120,0.0
-94,-330,117,0.0
-91,-326,111,0.0
-91,-330,109,0.0
-91,-336,107,0.0
-88,-332,102,0.0
-86,-327,97,0.0
-85,-330,94,0.0
-86,-335,91,0.0
-85,-337,88,0.0
-85,-341,85,0.0
-6079,18436,16222,0.0
-6093,18091,16265,0.0
-6096,17718,16278,0.0
-6093,17336,16275,0.0
-6095,16975,16284,0.0
-6082,16580,16254,0.0
-6058,16160,16190,0.0
-5988,15633,16005,0.0
-6043,15436,16151,0.0
-6899,17245,18442,0.0
-6902,16879,18450,0.0
-6934,16587,18534,0.0
-12014,28109,32109,0.0
-6627,15164,17710,0.0
-6747,15095,18026,0.0
-6866,15020,18342,0.0
-6975,14915,18628,0.0
-11883,24832,31726,0.0
-11791,24078,31473,0.0
-11432,22805,30501,0.0
-11444,22300,30526,0.0
-11403,21696,30401,0.0
-11392,21160,30358,0.0
-11328,20537,30174,0.0
-11456,20266,30501,0.0
-11393,19659,30316,0.0
-11603,19524,30857,0.0
-11701,19194,31101,0.0
-12724,20340,33800,0.0
-12738,19837,33817,0.0
0,0,0,0.0
-12621,18627,33457,0.0
-12623,18128,33441,0.0
-12583,17575,33311,0.0
-12560,17051,33222,0.0
-12537,16535,33134,0.0
-12488,15993,32978,0.0
-12517,15556,33026,0.0
-12473,15035,32882,0.0
-12445,14540,32779,0.0
-12335,13958,32459,0.0
-12394,13574,32582,0.0
-12321,13049,32358,0.0
-12342,12630,32380,0.0
-12355,12206,32381,0.0
-8924,8502,23363,0.0
-12262,11257,32067,0.0
-9296,8213,24284,0.0
-9300,7898,24267,0.0
-9281,7567,24188,0.0
-9258,7236,24100,0.0
-9232,6907,24005,0.0
-9209,6585,23914,0.0
-9180,6260,23807,0.0
-9182,5962,23783,0.0
-9161,5650,23697,0.0
-9145,5345,23624,0.0
-9131,5044,23556,0.0
-9099,4737,23439,0.0
-9088,4443,23378,0.0
-9080,4153,23324,0.0
-9054,3858,23222,0.0
-9035,3569,23139,0.0
-8618,3138,22037,0.0
-8939,2980,22821,0.0
-8686,2629,22140,0.0
-8604,2342,21896,0.0
-8682,2101,22060,0.0
-8930,1891,22652,0.0
-8923,1621,22595,0.0
-8927,1355,22563,0.0
-8900,1086,22460,0.0
-8882,820,22373,0.0
-8880,557,22328,0.0
-8864,296,22246,0.0
-8859,36,22191,0.0
-8849,-222,22124,0.0
-8828,-479,22030,0.0
-8825,-735,21977,0.0
-8818,-990,21917,0.0
-8810,-1244,21854,0.0
-8801,-1496,21785,0.0
-8786,-1746,21701,0.0
-8777,-1996,21635,0.0
-8767,-2244,21563,0.0
-8759,-2493,21495,0.0
-8756,-2741,21441,0.0
-8749,-2988,21375,0.0
-8738,-3232,21300,0.0
-8501,-3386,20675,0.0
-8436,-3599,20466,0.0
-8339,-3794,20182,0.0
-8398,-4058,20277,0.0
-8386,-4290,20198,0.0
-8443,-4557,20281,0.0
-8545,-4854,20475,0.0
-8487,-5060,20284,0.0
-8503,-5309,20269,0.0
-8549,-5579,20323,0.0
-8370,-5698,19843,0.0
-8406,-5959,19873,0.0
-8545,-6300,20146,0.0
-8522,-6524,20034,0.0
-8573,-6805,20095,0.0
-8464,-6959,19781,0.0
-8343,-7096,19442,0.0
-8418,-7399,19557,0.0
-8586,-7789,19884,0.0
-8576,-8025,19799,0.0
-8577,-8270,19738,0.0
-8575,-8513,19670,0.0
-8588,-8772,19633,0.0
-8592,-9022,19576,0.0
-8591,-9269,19509,0.0
-8581,-9505,19419,0.0
-8580,-9752,19347,0.0
-8582,-10003,19281,0.0
-8410,-10048,18829,0.0
-8443,-10333,18832,0.0
-8415,-10545,18699,0.0
-8401,-10773,18593,0.0
-8427,-11055,18579,0.0
-8800,-11804,19325,0.0
-8828,-12104,19308,0.0
-8839,-12384,19255,0.0
-8848,-12659,19189,0.0
-8870,-12959,19157,0.0
-8884,-13248,19104,0.0
-8899,-13541,19051,0.0
-8909,-13828,18986,0.0
-8927,-14129,18937,0.0
-8935,-14417,18864,0.0
-8955,-14728,18816,0.0
-8973,-15037,18762,0.0
-8990,-15346,18703,0.0
-8999,-15646,18627,0.0
-9023,-15974,18578,0.0
-9048,-16308,18533,0.0
-9064,-16629,18466,0.0
-9085,-16963,18406,0.0
-9099,-17285,18331,0.0
-9123,-17631,18274,0.0
-9134,-17951,18186,0.0
-9158,-18305,18125,0.0
-9187,-18674,18072,0.0
-9216,-19044,18015,0.0
-9242,-19414,17951,0.0
-9261,-19773,17869,0.0
-9281,-20137,17786,0.0
-9318,-20544,17736,0.0
-9352,-20950,17674,0.0
-9360,-21301,17561,0.0
-9381,-21687,17471,0.0
-9420,-22121,17412,0.0
-9444,-22526,17323,0.0
-9472,-22942,17235,0.0
-9496,-23359,17140,0.0
-9292,-23208,16631,0.0
-9100,-23075,16146,0.0
-733,-1887,1290,0.0
-711,-1860,1240,0.0
-733,-1946,1267,0.0
-726,-1956,1242,0.0
-711,-1945,1205,0.0
-726,-2017,1218,0.0
-718,-2026,1193,0.0
-707,-2024,1162,0.0
-708,-2056,1150,0.0
-701,-2067,1126,0.0
-700,-2095,1112,0.0
-693,-2105,1087,0.0
-53,-166,84,0.0
-50,-157,76,0.0
-56,-180,86,0.0
-60,-194,89,0.0
-62,-206,93,0.0
-67,-225,97,0.0
-66,-226,95,0.0
-73,-253,104,0.0
-79,-277,110,0.0
-85,-298,115,0.0
-93,-337,125,0.0
-92,-335,121,0.0
-89,-332,115,0.0
-93,-347,116,0.0
-90,-343,111,0.0
-89,-347,108,0.0
-87,-342,102,0.0
-86,-345,99,0.0
-86,-347,96,0.0
-83,-345,92,0.0
-83,-347,88,0.0
-5943,18666,16517,0.0
-5983,18392,16629,0.0
-5945,17886,16524,0.0
-5916,17419,16444,0.0
-5880,16944,16344,0.0
-5846,16484,16249,0.0
-5820,16057,16174,0.0
-5767,15566,16024,0.0
-6863,18124,19068,0.0
-6877,17765,19102,0.0
-6861,17337,19054,0.0
-6834,16890,18974,0.0
-6806,16446,18888,0.0
-6767,15989,18774,0.0
-6526,15076,18100,0.0
-6690,15107,18547,0.0
-6739,14872,18674,0.0
-11298,24361,31292,0.0
-11284,23770,31238,0.0
-11557,23781,31979,0.0
0,0,0,0.0
-11013,21605,30438,0.0
-10981,21031,30335,0.0
-11174,20882,30847,0.0
-11106,20249,30640,0.0
-11151,19828,30742,0.0
-11219,19449,30907,0.0
-11289,19076,31078,0.0
-12290,20236,33811,0.0
-12301,19726,33812,0.0
-12266,19151,33689,0.0
-12224,18574,33546,0.0
-12206,18044,33470,0.0
-12155,17472,33299,0.0
-12166,16996,33301,0.0
-10982,14904,30034,0.0
-10957,14436,29937,0.0
-10932,13976,29841,0.0
-10935,13556,29818,0.0
-10995,13209,29951,0.0
-11944,13897,32505,0.0
-11928,13429,32425,0.0
-11918,12974,32364,0.0
-11912,12527,32309,0.0
0,0,0,0.0
-11866,11616,32113,0.0
-8920,8412,24113,0.0
-9024,8189,24366,0.0
-8991,7841,24245,0.0
-8972,7510,24164,0.0
-8952,7183,24080,0.0
-8924,6853,23974,0.0
-8914,6540,23916,0.0
-8893,6222,23827,0.0
-8883,5917,23770,0.0
-8852,5599,23651,0.0
-8849,5303,23612,0.0
-8827,4999,23520,0.0
-8814,4702,23453,0.0
-8800,4408,23379,0.0
-8782,4115,23297,0.0
-8765,3824,23216,0.0
-8756,3540,23157,0.0
-8350,3110,22048,0.0
-8697,2963,22927,0.0
-8420,2603,22158,0.0
-8327,2314,21880,0.0
-8403,2073,22042,0.0
-8656,1866,22668,0.0
-8651,1598,22615,0.0
-8630,1329,22519,0.0
-8622,1064,22457,0.0
-8611,799,22390,0.0
-8595,537,22306,0.0
-8595,277,22265,0.0
-8577,18,22178,0.0
-8567,-239,22109,0.0
-8557,-496,22038,0.0
-8551,-750,21980,0.0
-8540,-1004,21908,0.0
-8534,-1257,21848,0.0
-8524,-1507,21777,0.0
-8510,-1757,21696,0.0
-8504,-2006,21634,0.0
-8499,-2255,21575,0.0
-8491,-2502,21505,0.0
-8487,-2749,21449,0.0
-8476,-2994,21374,0.0
-8469,-3239,21305,0.0
-8464,-3484,21243,0.0
-8470,-3734,21211,0.0
-8458,-3974,21128,0.0
-8436,-4208,21020,0.0
-8282,-4373,20586,0.0
-8364,-4659,20739,0.0
-8416,-4932,20817,0.0
-8418,-5178,20765,0.0
-8411,-5417,20694,0.0
-8419,-5666,20658,0.0
-8412,-5906,20586,0.0
-8405,-6145,20511,0.0
-8409,-6393,20466,0.0
-8411,-6639,20414,0.0
-8416,-6888,20367,0.0
-8413,-7129,20298,0.0
-8413,-7375,20239,0.0
-8379,-7590,20097,0.0
-8159,-7630,19509,0.0
-8186,-7895,19514,0.0
-8339,-8288,19817,0.0
-8403,-8598,19906,0.0
-8431,-8875,19906,0.0
-8434,-9127,19847,0.0
-8441,-9385,19798,0.0
-8452,-9647,19754,0.0
-8430,-9874,19636,0.0
-8207,-9858,19050,0.0
-8118,-9994,18775,0.0
-8071,-10179,18598,0.0
-8082,-10436,18555,0.0
-8487,-11215,19409,0.0
-8520,-11517,19410,0.0
-8526,-11786,19349,0.0
-8544,-12072,19312,0.0
-8546,-12339,19239,0.0
-8560,-12624,19192,0.0
-8576,-12912,19145,0.0
-8583,-13191,19081,0.0
-8612,-13505,19061,0.0
-8620,-13790,18995,0.0
-8628,-14074,18925,0.0
-8645,-14378,18875,0.0
-8653,-14669,18805,0.0
-8670,-14976,18751,0.0
-8688,-15290,18698,0.0
-8707,-15607,18646,0.0
-8716,-15909,18570,0.0
-8738,-16240,18522,0.0
-8756,-16563,18461,0.0
-8769,-16883,18389,0.0
-8791,-17223,18335,0.0
-8809,-17557,18268,0.0
-8833,-17907,18213,0.0
-8849,-18246,18138,0.0
-8862,-18581,18056,0.0
-8890,-18952,18002,0.0
-8914,-19320,17939,0.0
-8936,-19687,17867,0.0
-8959,-20060,17796,0.0
-8987,-20450,17731,0.0
-9014,-20842,17662,0.0
-9034,-21222,17576,0.0
-9058,-21616,17495,0.0
-9101,-22063,17449,0.0
-9103,-22417,17322,0.0
-9137,-22854,17252,0.0
-9156,-23259,17151,0.0
-721,-1863,1342,0.0
-8797,-23043,16207,0.0
-718,-1911,1313,0.0
-705,-1904,1276,0.0
-699,-1919,1256,0.0
-691,-1928,1230,0.0
-702,-1984,1236,0.0
-708,-2034,1236,0.0
-686,-1997,1183,0.0
0,0,0,0.0
-686,-2059,1159,0.0
-671,-2046,1122,0.0
-669,-2070,1105,0.0
-671,-2106,1095,0.0
-674,-2151,1089,0.0
-48,-159,79,0.0
-52,-176,84,0.0
-63,-211,98,0.0
-65,-225,101,0.0
-65,-228,100,0.0
-70,-246,104,0.0
-71,-254,105,0.0
-77,-280,112,0.0
-83,-305,118,0.0
-87,-325,121,0.0
-90,-340,123,0.0
-88,-338,119,0.0
-88,-343,115,0.0
-86,-339,111,0.0
-83,-333,104,0.0
-83,-338,102,0.0
-82,-341,98,0.0
-79,-337,94,0.0
-79,-340,91,0.0
-78,-344,88,0.0
-5719,18631,16574,0.0
-5227,16660,15144,0.0
-5690,17744,16481,0.0
-5664,17280,16400,0.0
-5254,15685,15212,0.0
-5437,15879,15735,0.0
-5565,15898,16099,0.0
-5561,15541,16083,0.0
-6622,18098,19141,0.0
-6620,17695,19127,0.0
-6589,17225,19031,0.0
-6544,16728,18892,0.0
-6504,16254,18766,0.0
-6467,15799,18649,0.0
-6340,15137,18268,0.0
-6428,15001,18513,0.0
-6477,14769,18643,0.0
-10805,24068,31077,0.0
-10824,23552,31113,0.0
-10613,22551,30483,0.0
0,0,0,0.0
-10587,21441,30364,0.0
-10528,20811,30176,0.0
-10608,20458,30379,0.0
-10732,20188,30710,0.0
-10708,19641,30614,0.0
-10856,19414,31014,0.0
-10883,18964,31059,0.0
0,0,0,0.0
-11852,19594,33765,0.0
-11781,18962,33534,0.0
-11771,18435,33473,0.0
-11737,17879,33343,0.0
-11729,17371,33287,0.0
-11725,16873,33241,0.0
-10709,14969,30332,0.0
-10942,14846,30957,0.0
-10958,14424,30968,0.0
-10967,13998,30962,0.0
-10879,13454,30679,0.0
-10897,13048,30693,0.0
-11080,12837,31174,0.0
-11537,12922,32421,0.0
-11527,12472,32353,0.0
-11487,11994,32201,0.0
-8466,8525,23707,0.0
-8659,8398,24217,0.0
-8699,8117,24298,0.0
-8679,7781,24207,0.0
-8672,7461,24157,0.0
-8654,7136,24076,0.0
-8635,6812,23988,0.0
-8607,6487,23879,0.0
-8586,6171,23789,0.0
-8581,5869,23740,0.0
-8563,5561,23655,0.0
-8552,5260,23590,0.0
-8528,4955,23488,0.0
-8512,4658,23410,0.0
-8497,4364,23333,0.0
-8480,4072,23249,0.0
-8475,3789,23199,0.0
-8455,3501,23108,0.0
-8075,3079,22036,0.0
-8417,2934,22930,0.0
-8165,2582,22206,0.0
-8098,2299,21983,0.0
-8132,2048,22039,0.0
-8381,1843,22676,0.0
-8365,1573,22590,0.0
-8346,1305,22498,0.0
-8341,1041,22448,0.0
-8330,778,22375,0.0
-8325,518,22321,0.0
-8309,258,22235,0.0
-8303,0,22176,0.0
-8295,-256,22113,0.0
-8287,-512,22048,0.0
-8283,-766,21992,0.0
-8256,-1016,21874,0.0
-8252,-1268,21821,0.0
-8242,-1517,21750,0.0
-8240,-1767,21699,0.0
-8236,-2016,21641,0.0
-8220,-2261,21550,0.0
-8217,-2509,21497,0.0
-8207,-2753,21422,0.0
-8197,-2997,21350,0.0
-8199,-3244,21307,0.0
-8184,-3484,21216,0.0
-8173,-3724,21138,0.0
-8178,-3971,21101,0.0
-8170,-4212,21028,0.0
-8025,-4377,20604,0.0
-8103,-4662,20754,0.0
-8146,-4930,20810,0.0
-8138,-5169,20738,0.0
-8153,-5421,20724,0.0
-8156,-5667,20675,0.0
-8146,-5903,20594,0.0
-8142,-6143,20529,0.0
-8149,-6392,20489,0.0
-8145,-6633,20421,0.0
-8148,-6880,20371,0.0
-8140,-7117,20295,0.0
-8145,-7366,20245,0.0
-8148,-7615,20196,0.0
-8152,-7864,20143,0.0
-8142,-8101,20059,0.0
-8111,-8315,19920,0.0
-8131,-8580,19902,0.0
-8126,-8822,19828,0.0
-8093,-9033,19684,0.0
-8115,-9306,19672,0.0
-8169,-9617,19738,0.0
-8180,-9881,19696,0.0
-8193,-10148,19656,0.0
-8201,-10412,19608,0.0
-8193,-10656,19519,0.0
-8212,-10936,19494,0.0
-8234,-11223,19473,0.0
-8242,-11492,19419,0.0
-8251,-11763,19363,0.0
-8254,-12029,19295,0.0
-8268,-12313,19254,0.0
-8279,-12593,19200,0.0
-8284,-12868,19135,0.0
-8307,-13169,19105,0.0
-8318,-13457,19050,0.0
-8329,-13745,18992,0.0
-8351,-14055,18958,0.0
-8364,-14352,18902,0.0
-8362,-14626,18810,0.0
-8386,-14947,18775,0.0
-8399,-15251,18715,0.0
-8410,-15556,18648,0.0
-8422,-15865,18584,0.0
-8443,-16193,18534,0.0
-8451,-16499,18456,0.0
-8480,-16851,18422,0.0
-8485,-17159,18336,0.0
-8512,-17513,18291,0.0
-8516,-17825,18199,0.0
-8549,-18199,18163,0.0
-8555,-18522,18070,0.0
-8589,-18908,18033,0.0
-8601,-19252,17948,0.0
-8622,-19617,17878,0.0
-8649,-20004,17820,0.0
-8676,-20393,17757,0.0
-8685,-20746,17658,0.0
-8712,-21146,17591,0.0
-8733,-21537,17510,0.0
-8753,-21930,17423,0.0
-8773,-22330,17334,0.0
-8800,-22752,17256,0.0
-8827,-23180,17176,0.0
-8743,-23322,16878,0.0
-683,-1851,1308,0.0
-691,-1903,1313,0.0
-674,-1884,1269,0.0
-682,-1936,1273,0.0
-673,-1940,1246,0.0
-670,-1962,1228,0.0
-669,-1987,1214,0.0
-656,-1981,1180,0.0
-667,-2043,1187,0.0
-658,-2046,1159,0.0
-655,-2069,1141,0.0
-645,-2070,1112,0.0
-648,-2110,1104,0.0
-43,-143,72,0.0
-46,-155,77,0.0
-52,-178,85,0.0
-55,-192,90,0.0
-58,-206,94,0.0
-61,-217,96,0.0
-65,-237,101,0.0
-67,-251,105,0.0
-72,-271,109,0.0
-76,-290,113,0.0
-82,-318,120,0.0
-86,-340,124,0.0
-85,-336,119,0.0
-86,-350,119,0.0
-82,-339,112,0.0
-81,-340,107,0.0
-80,-340,103,0.0
-79,-341,100,0.0
-79,-344,97,0.0
-78,-347,94,0.0
-75,-342,88,0.0
-4948,16746,14976,0.0
-5029,16647,15212,0.0
-5402,17489,16330,0.0
-5382,17042,16259,0.0
-5284,16365,15954,0.0
-5252,15911,15849,0.0
-5274,15625,15904,0.0
-5347,15492,16115,0.0
-6363,18027,19164,0.0
-6343,17572,19091,0.0
-6317,17107,18997,0.0
-5994,15868,18012,0.0
-6154,15925,18480,0.0
-6221,15735,18669,0.0
-6215,15360,18633,0.0
-6201,14977,18578,0.0
-10521,24820,31489,0.0
-10454,24090,31265,0.0
-10459,23535,31249,0.0
-10246,22510,30583,0.0
-10237,21957,30531,0.0
-10204,21359,30403,0.0
0,0,0,0.0
-10188,20301,30299,0.0
-10384,20179,30853,0.0
-10311,19536,30606,0.0
-10474,19341,31057,0.0
0,0,0,0.0
0,0,0,0.0
-11404,19460,33708,0.0
-11378,18898,33597,0.0
-11345,18333,33463,0.0
-11319,17788,33348,0.0
-11296,17257,33244,0.0
-10196,15133,29973,0.0
-11273,16248,33098,0.0
-10250,14339,30060,0.0
-10243,13899,30002,0.0
-10271,13511,30047,0.0
-10489,13367,30647,0.0
-10531,12993,30732,0.0
-11102,13251,32358,0.0
-11130,12842,32399,0.0
-11125,12397,32342,0.0
-8032,8636,23319,0.0
-8165,8464,23675,0.0
-8376,8361,24254,0.0
-8410,8075,24319,0.0
-8378,7730,24196,0.0
-8354,7395,24090,0.0
-8356,7088,24061,0.0
-8332,6761,23959,0.0
-8327,6453,23909,0.0
-8307,6137,23816,0.0
-8295,5831,23747,0.0
-8271,5520,23641,0.0
-8256,5218,23564,0.0
-8241,4919,23485,0.0
-8239,4629,23440,0.0
-8215,4332,23338,0.0
-8201,4042,23258,0.0
-8186,3754,23178,0.0
-8167,3468,23086,0.0
-7811,3052,22043,0.0
-8137,2906,22923,0.0
-7997,2588,22492,0.0
-7842,2278,22017,0.0
-7912,2036,22174,0.0
-8099,1817,22657,0.0
-8085,1549,22578,0.0
-8079,1284,22519,0.0
-8069,1021,22451,0.0
-8054,758,22368,0.0
-8051,498,22315,0.0
-8041,240,22249,0.0
-8032,-16,22179,0.0
-8026,-272,22118,0.0
-8019,-527,22054,0.0
-8003,-779,21966,0.0
-7991,-1030,21891,0.0
-7987,-1281,21835,0.0
-7975,-1529,21756,0.0
-7967,-1777,21686,0.0
-7963,-2025,21627,0.0
-7953,-2270,21554,0.0
-7948,-2516,21495,0.0
-7937,-2759,21415,0.0
-7930,-3003,21350,0.0
-7930,-3249,21301,0.0
-7915,-3486,21210,0.0
-7909,-3728,21145,0.0
-7915,-3975,21111,0.0
-7897,-4210,21012,0.0
-7759,-4375,20595,0.0
-7837,-4660,20749,0.0
-7871,-4924,20788,0.0
-7875,-5168,20746,0.0
-7878,-5411,20698,0.0
-7869,-5647,20624,0.0
-7872,-5892,20576,0.0
-7874,-6136,20524,0.0
-7868,-6374,20455,0.0
-7870,-6619,20403,0.0
-7867,-6860,20340,0.0
-7866,-7102,20276,0.0
-7872,-7351,20234,0.0
-7874,-7597,20181,0.0
-7872,-7838,20113,0.0
-7874,-8085,20058,0.0
-7876,-8334,20003,0.0
-7875,-8579,19939,0.0
-7886,-8838,19903,0.0
-7885,-9085,19839,0.0
-7892,-9341,19788,0.0
-7649,-9295,19117,0.0
-7649,-9538,19053,0.0
-7888,-10085,19581,0.0
-7914,-10372,19580,0.0
-7918,-10630,19520,0.0
-7939,-10914,19502,0.0
-7938,-11170,19430,0.0
-7957,-11453,19404,0.0
-7965,-11723,19349,0.0
-7976,-12001,19303,0.0
-7959,-12236,19185,0.0
-7836,-12306,18815,0.0
-7806,-12517,18667,0.0
-8015,-13121,19091,0.0
-8031,-13414,19047,0.0
-8046,-13710,19000,0.0
-8055,-14000,18942,0.0
-8072,-14304,18898,0.0
-8072,-14580,18812,0.0
-8085,-14884,18756,0.0
-8103,-15197,18709,0.0
-8115,-15505,18650,0.0
-8128,-15816,18589,0.0
-8145,-16139,18536,0.0
-8157,-16453,18468,0.0
-8173,-16781,18410,0.0
-8190,-17112,18351,0.0
-8203,-17438,18280,0.0
-8221,-17781,18222,0.0
-8235,-18120,18152,0.0
-8257,-18477,18096,0.0
-8271,-18821,18021,0.0
-8285,-19173,17945,0.0
-8306,-19540,17879,0.0
-8328,-19915,17814,0.0
-8342,-20276,17730,0.0
-8363,-20662,17661,0.0
-8386,-21055,17591,0.0
-8399,-21429,17497,0.0
-8426,-21846,17433,0.0
-8455,-22271,17367,0.0
-8473,-22673,17275,0.0
-8485,-23065,17169,0.0
-8454,-23344,16975,0.0
-8290,-23250,16513,0.0
-652,-1859,1290,0.0
-665,-1927,1305,0.0
-653,-1922,1270,0.0
-639,-1909,1231,0.0
-657,-1992,1254,0.0
-658,-2027,1245,0.0
-645,-2019,1209,0.0
0,0,0,0.0
-631,-2035,1159,0.0
-633,-2074,1151,0.0
-624,-2074,1120,0.0
-631,-2132,1122,0.0
-47,-163,84,0.0
-53,-187,93,0.0
-50,-181,87,0.0
-53,-191,90,0.0
-57,-207,95,0.0
-60,-223,99,0.0
-62,-237,102,0.0
-66,-252,106,0.0
-70,-272,110,0.0
-73,-292,115,0.0
-81,-329,125,0.0
-81,-330,122,0.0
-80,-333,119,0.0
-80,-337,116,0.0
-77,-333,111,0.0
-75,-328,104,0.0
-75,-332,102,0.0
-75,-337,99,0.0
-74,-339,97,0.0
-73,-341,93,0.0
-71,-339,89,0.0
-4357,16703,15163,0.0
-4445,16649,15442,0.0
-4531,16585,15717,0.0
-4619,16522,15997,0.0
-4698,16417,16242,0.0
-4787,16347,16524,0.0
-4773,15926,16450,0.0
-4788,15609,16475,0.0
-5056,16101,17367,0.0
-5184,16131,17782,0.0
-5284,16061,18095,0.0
-5386,15992,18418,0.0
-5472,15866,18680,0.0
-5576,15790,19005,0.0
-5614,15523,19105,0.0
-5649,15251,19193,0.0
-5657,14910,19192,0.0
-9134,23495,30934,0.0
-8988,22564,30394,0.0
-6999,17144,23631,0.0
-9002,21511,30346,0.0
-7165,16701,24119,0.0
-7220,16408,24262,0.0
-7232,16024,24267,0.0
-7252,15662,24296,0.0
-7254,15264,24264,0.0
-7251,14864,24219,0.0
-7248,14469,24171,0.0
-7243,14074,24115,0.0
-7252,13713,24106,0.0
-10107,18592,33544,0.0
-10061,17997,33339,0.0
-10047,17467,33238,0.0
-10043,16964,33173,0.0
-9109,14941,30040,0.0
-9165,14593,30180,0.0
-9173,14167,30154,0.0
-9177,13741,30120,0.0
-9206,13357,30168,0.0
-9395,13200,30739,0.0
-9534,12961,31143,0.0
-9825,12914,32039,0.0
-9893,12564,32210,0.0
-9881,12114,32117,0.0
-7187,8498,23323,0.0
-7426,8461,24061,0.0
-7509,8234,24287,0.0
-7506,7914,24240,0.0
-7470,7563,24083,0.0
-7478,7260,24065,0.0
-7458,6935,23964,0.0
-7446,6619,23881,0.0
-7451,6322,23856,0.0
-7423,6002,23729,0.0
-7416,5700,23661,0.0
-7407,5401,23591,0.0
-7397,5105,23519,0.0
-7385,4810,23442,0.0
-7246,4439,22959,0.0
-7351,4223,23252,0.0
-6988,3748,22062,0.0
-6975,3477,21983,0.0
-6964,3210,21907,0.0
-6965,2951,21870,0.0
-6966,2692,21832,0.0
-6965,2435,21787,0.0
-6956,2177,21719,0.0
-6939,1919,21626,0.0
-6960,1672,21648,0.0
-7042,1438,21861,0.0
-7121,1198,22065,0.0
-7241,959,22391,0.0
-7233,701,22323,0.0
-7232,445,22276,0.0
-7218,189,22191,0.0
-7215,-64,22133,0.0
-7206,-317,22062,0.0
-7198,-568,21994,0.0
-7177,-815,21883,0.0
-7166,-1063,21802,0.0
-7166,-1310,21756,0.0
-7168,-1558,21718,0.0
-7160,-1803,21646,0.0
-7151,-2046,21570,0.0
-7150,-2291,21522,0.0
-7152,-2536,21480,0.0
-7135,-2774,21384,0.0
-7135,-3017,21332,0.0
-6906,-3155,20602,0.0
-6917,-3395,20585,0.0
-6910,-3626,20516,0.0
-7095,-3964,21018,0.0
-7119,-4219,21041,0.0
-6991,-4379,20609,0.0
-7089,-4681,20848,0.0
-7093,-4924,20809,0.0
-7088,-5160,20742,0.0
-7090,-5401,20698,0.0
-7081,-5633,20615,0.0
-7084,-5876,20575,0.0
-7085,-6117,20522,0.0
-7088,-6360,20477,0.0
-6903,-6429,19891,0.0
-6880,-6642,19770,0.0
-6886,-6882,19733,0.0
-6905,-7137,19733,0.0
-7079,-7559,20173,0.0
-7084,-7807,20131,0.0
-7086,-8053,20078,0.0
-7022,-8222,19839,0.0
-7088,-8543,19964,0.0
-7092,-8794,19917,0.0
-7096,-9045,19868,0.0
-7096,-9292,19807,0.0
-6957,-9354,19358,0.0
-6954,-9593,19289,0.0
-7093,-10035,19612,0.0
-7119,-10323,19620,0.0
-7122,-10581,19564,0.0
-7128,-10843,19512,0.0
-7135,-11109,19466,0.0
-7150,-11389,19437,0.0
-7150,-11649,19371,0.0
-7153,-11913,19309,0.0
-7017,-11943,18874,0.0
-6963,-12107,18660,0.0
-6956,-12352,18573,0.0
-7165,-12988,19055,0.0
-7200,-13322,19075,0.0
-7215,-13621,19039,0.0
-7214,-13893,18961,0.0
-7225,-14189,18912,0.0
-7233,-14483,18856,0.0
-7237,-14772,18787,0.0
-7247,-15075,18733,0.0
-7261,-15390,18687,0.0
-7265,-15686,18613,0.0
-7285,-16020,18580,0.0
-7296,-16336,18520,0.0
-7303,-16649,18452,0.0
-7308,-16960,18375,0.0
-7322,-17296,18321,0.0
-7337,-17635,18264,0.0
-7345,-17964,18191,0.0
-7361,-18317,18136,0.0
-7375,-18666,18071,0.0
-7386,-19016,18001,0.0
-7399,-19377,17934,0.0
-7408,-19726,17851,0.0
-7422,-20095,17780,0.0
-7438,-20478,17714,0.0
-7459,-20878,17655,0.0
-7468,-21248,17566,0.0
-7484,-21646,17491,0.0
-7507,-22072,17433,0.0
-7509,-22435,17317,0.0
-7530,-22865,17247,0.0
-7548,-23295,17168,0.0
-601,-1889,1360,0.0
-7221,-23016,16187,0.0
-594,-1925,1322,0.0
-588,-1935,1298,0.0
-585,-1960,1283,0.0
-567,-1928,1232,0.0
-571,-1975,1231,0.0
-565,-1984,1207,0.0
0,0,0,0.0
-575,-2083,1205,0.0
-557,-2051,1157,0.0
-548,-2052,1128,0.0
-547,-2080,1114,0.0
-39,-152,79,0.0
-39,-157,79,0.0
-42,-168,83,0.0
-42,-171,82,0.0
-45,-190,88,0.0
-46,-196,89,0.0
-50,-218,96,0.0
-50,-220,93,0.0
-58,-258,106,0.0
-60,-270,108,0.0
-63,-290,113,0.0
-67,-312,118,0.0
-69,-332,121,0.0
-70,-338,119,0.0
-68,-335,114,0.0
-66,-328,108,0.0
-66,-334,105,0.0
-65,-337,103,0.0
-65,-341,100,0.0
-62,-335,94,0.0
-62,-339,91,0.0
-3557,16628,15368,0.0
-3634,16567,15643,0.0
-3710,16495,15911,0.0
-3792,16444,16206,0.0
-3861,16334,16446,0.0
-3950,16294,16763,0.0
-3880,15614,16414,0.0
-4101,16098,17291,0.0
-4112,15743,17280,0.0
-4107,15341,17208,0.0
-4373,15930,18263,0.0
-4475,15900,18632,0.0
-4566,15825,18957,0.0
-4646,15703,19231,0.0
-4756,15675,19627,0.0
-4698,15097,19331,0.0
-4828,15127,19810,0.0
-4854,14829,19865,0.0
-5129,15272,20931,0.0
-5267,15282,21433,0.0
-5375,15198,21816,0.0
-5484,15108,22200,0.0
-5600,15027,22608,0.0
-5716,14937,23016,0.0
-5832,14839,23426,0.0
-5946,14727,23822,0.0
-6061,14610,24224,0.0
-6018,14112,23992,0.0
-6119,13953,24332,0.0
-6168,13674,24466,0.0
-8433,18172,33374,0.0
-8449,17688,33356,0.0
-7087,14407,27912,0.0
-8409,16596,33043,0.0
-8433,16148,33059,0.0
-8414,15623,32906,0.0
-7829,14092,30550,0.0
-7831,13654,30487,0.0
-8005,13512,31092,0.0
-8141,13296,31550,0.0
-8231,12998,31825,0.0
-8383,12789,32340,0.0
-8387,12353,32284,0.0
-8375,11898,32165,0.0
-6174,8453,23661,0.0
-6308,8316,24122,0.0
-6347,8048,24221,0.0
-6348,7731,24169,0.0
-6331,7400,24054,0.0
-6334,7093,24010,0.0
-6327,6780,23935,0.0
-6321,6470,23859,0.0
-6307,6157,23755,0.0
-6293,5849,23656,0.0
-6299,5562,23625,0.0
-6279,5254,23500,0.0
-6278,4966,23445,0.0
-6269,4675,23362,0.0
-6263,4388,23287,0.0
-6254,4103,23207,0.0
-6247,3822,23132,0.0
-5920,3363,21879,0.0
-5924,3107,21846,0.0
-5922,2848,21791,0.0
-6009,2632,22062,0.0
-5994,2369,21963,0.0
-6069,2140,22189,0.0
-6102,1895,22264,0.0
-6087,1634,22164,0.0
-6086,1380,22109,0.0
-6090,1127,22080,0.0
-6072,873,21963,0.0
-6071,624,21915,0.0
-6060,374,21831,0.0
-6057,127,21769,0.0
-6049,-118,21697,0.0
-6055,-363,21670,0.0
-6049,-606,21598,0.0
-6044,-849,21537,0.0
-6047,-1091,21500,0.0
-6027,-1328,21382,0.0
-6063,-1577,21459,0.0
-6061,-1817,21409,0.0
-6070,-2060,21392,0.0
-6068,-2299,21337,0.0
-6070,-2538,21294,0.0
-6076,-2780,21266,0.0
-6078,-3020,21225,0.0
-6067,-3252,21139,0.0
-6055,-3483,21047,0.0
-6050,-3717,20983,0.0
-6055,-3958,20952,0.0
-6058,-4197,20913,0.0
-6046,-4424,20822,0.0
-6050,-4664,20789,0.0
-6031,-4885,20674,0.0
-6025,-5115,20600,0.0
-6023,-5348,20544,0.0
-6020,-5582,20485,0.0
-6000,-5798,20365,0.0
-5969,-6003,20214,0.0
-5963,-6230,20141,0.0
-5980,-6483,20144,0.0
-5972,-6710,20068,0.0
-6003,-6982,20119,0.0
-6022,-7243,20134,0.0
-6008,-7465,20035,0.0
-6019,-7718,20020,0.0
-6023,-7963,19976,0.0
-5987,-8155,19806,0.0
-6012,-8430,19832,0.0
-6020,-8685,19808,0.0
-6019,-8926,19747,0.0
-5983,-9115,19574,0.0
-6016,-9411,19628,0.0
-6049,-9709,19675,0.0
-6048,-9958,19618,0.0
-6059,-10226,19595,0.0
-6062,-10481,19543,0.0
-6067,-10745,19503,0.0
-6070,-11005,19454,0.0
-6065,-11253,19379,0.0
-6080,-11537,19362,0.0
-6076,-11790,19291,0.0
-6083,-12064,19249,0.0
-6087,-12338,19202,0.0
-6090,-12609,19146,0.0
-6095,-12888,19098,0.0
-6099,-13165,19045,0.0
-6105,-13453,19002,0.0
-6110,-13739,18951,0.0
-6114,-14022,18892,0.0
-6122,-14320,18847,0.0
-6120,-14600,18776,0.0
-6123,-14892,18714,0.0
-6128,-15190,18657,0.0
-6138,-15505,18614,0.0
-6135,-15794,18536,0.0
-6148,-16123,18498,0.0
-6149,-16426,18428,0.0
-6159,-16758,18382,0.0
-6157,-17059,18299,0.0
-6167,-17398,18249,0.0
-6178,-17742,18199,0.0
-6177,-18061,18118,0.0
-6184,-18405,18056,0.0
-6192,-18753,17993,0.0
-6200,-19109,17931,0.0
-6205,-19463,17861,0.0
-6216,-19837,17802,0.0
-21,-70,61,0.0
-23,-78,67,0.0
-23,-79,67,0.0
-21,-74,61,0.0
-22,-78,63,0.0
-22,-79,62,0.0
-6258,-22520,17257,0.0
-24,-90,67,0.0
-21,-82,60,0.0
-504,-1909,1365,0.0
-5985,-23051,16103,0.0
-491,-1924,1313,0.0
-490,-1956,1303,0.0
-486,-1970,1282,0.0
-484,-1997,1268,0.0
-476,-1999,1239,0.0
-477,-2036,1231,0.0
-472,-2049,1208,0.0
-464,-2049,1179,0.0
-28,-130,73,0.0
-29,-141,76,0.0
-28,-137,73,0.0
-33,-161,84,0.0
-32,-156,78,0.0
-36,-180,88,0.0
-36,-183,87,0.0
-36,-184,85,0.0
-37,-199,89,0.0
-42,-226,98,0.0
-43,-238,100,0.0
-47,-264,108,0.0
-48,-273,109,0.0
-48,-279,108,0.0
-56,-324,121,0.0
-56,-335,121,0.0
-56,-340,119,0.0
-54,-335,113,0.0
-54,-340,111,0.0
-53,-342,107,0.0
-52,-338,103,0.0
-49,-331,96,0.0
-51,-345,97,0.0
-1648,15582,14867,0.0
-3682,33573,32722,0.0
-3709,32643,32502,0.0
-2141,18198,18510,0.0
-3853,31641,32880,0.0
-2263,17959,19066,0.0
-2280,17501,18984,0.0
-2293,17024,18868,0.0
-2308,16577,18772,0.0
-2326,16166,18708,0.0
-2338,15742,18619,0.0
-2318,15108,18266,0.0
-2368,14945,18469,0.0
-2778,16991,21466,0.0
-2710,16057,20741,0.0
-2659,15266,20165,0.0
-2853,15877,21450,0.0
-2737,14765,20405,0.0
-2871,15007,21221,0.0
-2892,14656,21207,0.0
-2914,14312,21195,0.0
-4233,20157,30561,0.0
-4301,19848,30815,0.0
-4351,19464,30951,0.0
-4376,18974,30911,0.0
-3885,16322,27252,0.0
-3891,15837,27106,0.0
-3998,15768,27676,0.0
-4060,15505,27917,0.0
-3806,14080,26013,0.0
-3976,14237,27003,0.0
-3993,13841,26961,0.0
-4004,13426,26870,0.0
-3969,12876,26488,0.0
-4331,13587,28746,0.0
-3966,12023,26175,0.0
-4589,13440,30126,0.0
-4700,13294,30695,0.0
-4801,13103,31187,0.0
-4935,12994,31901,0.0
-3288,8346,21152,0.0
-3321,8120,21258,0.0
-3325,7827,21186,0.0
-3332,7545,21131,0.0
-3338,7264,21076,0.0
-3347,6994,21037,0.0
-3348,6711,20952,0.0
-3341,6416,20817,0.0
-3361,6177,20852,0.0
-3361,5903,20762,0.0
-3365,5641,20704,0.0
-3367,5378,20636,0.0
-3377,5131,20615,0.0
-3379,4875,20549,0.0
-3379,4619,20468,0.0
-3377,4363,20380,0.0
-3385,4124,20354,0.0
-3387,3880,20295,0.0
-3392,3640,20250,0.0
-3395,3401,20202,0.0
-3400,3166,20160,0.0
-3400,2929,20090,0.0
-3401,2694,20026,0.0
-3391,2455,19903,0.0
-3403,2232,19912,0.0
-3404,2004,19851,0.0
-3406,1779,19806,0.0
-3402,1551,19721,0.0
-3397,1326,19633,0.0
-3395,1105,19556,0.0
-3397,886,19510,0.0
-3517,691,20142,0.0
-3602,479,20573,0.0
-3607,250,20539,0.0
-3606,23,20479,0.0
-3609,-202,20435,0.0
-3610,-427,20391,0.0
-3607,-650,20319,0.0
-3612,-874,20293,0.0
-3611,-1096,20234,0.0
-3616,-1319,20204,0.0
-3626,-1545,20213,0.0
-3612,-1759,20086,0.0
-3612,-1978,20037,0.0
-3615,-2198,19997,0.0
-3621,-2421,19988,0.0
-3611,-2632,19885,0.0
-3603,-2844,19790,0.0
-3618,-3073,19825,0.0
-3616,-3289,19768,0.0
-3617,-3508,19729,0.0
-3612,-3720,19660,0.0
-3612,-3937,19617,0.0
-3614,-4157,19582,0.0
-3609,-4368,19510,0.0
-3611,-4589,19481,0.0
-3612,-4807,19440,0.0
-3606,-5018,19373,0.0
-3606,-5235,19326,0.0
-3604,-5452,19279,0.0
-3605,-5673,19246,0.0
-3601,-5887,19187,0.0
-3600,-6107,19141,0.0
-3594,-6316,19069,0.0
-3584,-6520,18975,0.0
-3587,-6749,18956,0.0
-3583,-6964,18897,0.0
-3581,-7186,18852,0.0
-3577,-7402,18792,0.0
-3578,-7631,18761,0.0
-3572,-7846,18695,0.0
-3575,-8082,18675,0.0
-3568,-8298,18609,0.0
-3566,-8524,18563,0.0
-3561,-8745,18499,0.0
-3558,-8973,18453,0.0
-3556,-9206,18411,0.0
-3551,-9431,18351,0.0
-3548,-9664,18304,0.0
-3548,-9906,18270,0.0
-3538,-10122,18190,0.0
-3536,-10362,18144,0.0
-3523,-10575,18053,0.0
-3520,-10814,18003,0.0
-3520,-11067,17972,0.0
-3512,-11299,17903,0.0
-3507,-11539,17845,0.0
-3503,-11787,17795,0.0
-3501,-12046,17759,0.0
-3493,-12282,17685,0.0
-3487,-12531,17626,0.0
-3481,-12786,17572,0.0
-3476,-13045,17519,0.0
-3469,-13298,17455,0.0
-3465,-13568,17408,0.0
-3460,-13835,17355,0.0
-3447,-14076,17264,0.0
-3438,-14334,17191,0.0
-3429,-14597,17121,0.0
-3344,-14532,16669,0.0
-3281,-14551,16327,0.0
-3235,-14647,16076,0.0
-3226,-14912,16011,0.0
-3218,-15181,15945,0.0
-3210,-15453,15878,0.0
-3203,-15739,15822,0.0
-3196,-16030,15765,0.0
-3188,-16322,15705,0.0
-12,-63,60,0.0
-13,-68,62,0.0
-13,-69,62,0.0
-14,-79,69,0.0
-13,-72,63,0.0
-16,-92,78,0.0
-14,-80,67,0.0
-16,-94,77,0.0
-16,-97,77,0.0
-17,-109,84,0.0
-17,-110,83,0.0
-16,-108,79,0.0
-16,-104,75,0.0
-17,-116,82,0.0
-15,-105,72,0.0
-3016,-21601,14512,0.0
-2998,-21953,14404,0.0
-268,-2011,1288,0.0
-19,-140,88,0.0
-15,-120,73,0.0
-17,-136,81,0.0
-20,-160,92,0.0
-18,-156,88,0.0
-19,-162,89,0.0
-21,-181,96,0.0
-20,-187,98,0.0
-20,-185,94,0.0
-21,-206,102,0.0
-23,-219,106,0.0
-21,-205,96,0.0
-22,-229,105,0.0
-21,-221,97,0.0
-24,-256,110,0.0
-25,-275,115,0.0
-23,-260,105,0.0
-24,-287,113,0.0
-25,-308,117,0.0
-27,-333,123,0.0
-25,-329,118,0.0
-25,-334,115,0.0
-24,-338,113,0.0
-24,-341,109,0.0
-22,-337,104,0.0
-22,-342,102,0.0
-540,16975,16444,0.0
-581,16768,16593,0.0
-547,14593,14751,0.0
-1270,31439,32464,0.0
-1308,30158,31813,0.0
-1376,29671,31977,0.0
-1435,29010,31943,0.0
-1523,28973,32597,0.0
-1532,27455,31563,0.0
-1562,26451,31074,0.0
-1620,25979,31192,0.0
-1676,25475,31262,0.0
-1708,24652,30924,0.0
-1156,15866,20348,0.0
-1168,15258,20007,0.0
-1206,15021,20143,0.0
-1293,15373,21084,0.0
-1338,15191,21312,0.0
-1374,14900,21389,0.0
-2010,20863,30646,0.0
-2024,20110,30237,0.0
-2077,19768,30429,0.0
-2143,19557,30826,0.0
-2196,19216,31025,0.0
-2435,20434,33804,0.0
-2466,19866,33680,0.0
-1987,15367,26710,0.0
-2156,16008,28534,0.0
-2220,15824,28937,0.0
-2162,14806,27785,0.0
-2183,14367,27681,0.0
-2208,13954,27611,0.0
-2246,13643,27740,0.0
-2261,13189,27569,0.0
-2270,12719,27345,0.0
-2216,11922,26377,0.0
-2293,11845,26984,0.0
-2337,11594,27212,0.0
-2534,12062,29187,0.0
-2833,12936,32291,0.0
-1879,8228,21205,0.0
-1892,7944,21155,0.0
-1904,7655,21079,0.0
-1917,7377,21024,0.0
-1930,7109,20990,0.0
-1934,6808,20845,0.0
-1955,6576,20903,0.0
-1964,6301,20819,0.0
-1970,6026,20725,0.0
-1978,5760,20646,0.0
-1984,5494,20553,0.0
-1999,5254,20555,0.0
-2007,5001,20495,0.0
-2012,4745,20409,0.0
-2023,4505,20383,0.0
-2025,4249,20271,0.0
-2037,4016,20256,0.0
-2049,3784,20248,0.0
-2056,3548,20203,0.0
-2057,3303,20089,0.0
-2063,3069,20030,0.0
-2075,2845,20033,0.0
-2076,2610,19936,0.0
-2080,2382,19879,0.0
-2084,2155,19814,0.0
-2088,1930,19748,0.0
-2098,1712,19746,0.0
-2094,1484,19617,0.0
-2104,1269,19615,0.0
-1979,986,18368,0.0
-2106,832,19465,0.0
-2165,634,19927,0.0
-2238,428,20518,0.0
-2251,204,20552,0.0
-2376,-21,21614,0.0
-2478,-267,22443,0.0
-3859,-796,34835,0.0
-3900,-1186,35077,0.0
0,0,0,0.0
-3953,-1968,35317,0.0
0,0,0,0.0
0,0,0,0.0
-4035,-3168,35704,0.0
-4117,-3624,36324,0.0
-4152,-4049,36525,0.0
-4149,-4438,36395,0.0
0,0,0,0.0
0,0,0,0.0
-4138,-5598,36022,0.0
-4122,-5965,35795,0.0
-4084,-6296,35384,0.0
-4061,-6644,35108,0.0
-4038,-6987,34829,0.0
-4043,-7377,34796,0.0
-4065,-7805,34923,0.0
-4078,-8218,34967,0.0
-4118,-8689,35237,0.0
0,0,0,0.0
-4124,-9496,35179,0.0
0,0,0,0.0
-4077,-10176,34666,0.0
0,0,0,0.0
0,0,0,0.0
-4009,-11192,33959,0.0
-3952,-11426,33435,0.0
-3910,-11698,33044,0.0
0,0,0,0.0
-3950,-12626,33329,0.0
-3974,-13110,33495,0.0
0,0,0,0.0
0,0,0,0.0
-3941,-14253,33165,0.0
-3912,-14567,32901,0.0
-3875,-14852,32579,0.0
-3846,-15170,32333,0.0
-3798,-15407,31925,0.0
0,0,0,0.0
0,0,0,0.0
0,0,0,0.0
-3712,-16775,31201,0.0
0,0,0,0.0
-3636,-17322,30596,0.0
-3580,-17503,30146,0.0
-3537,-17740,29799,0.0
-3510,-18061,29599,0.0
-3475,-18332,29318,0.0
-3435,-18588,29018,0.0
-3394,-18831,28704,0.0
-3345,-19029,28327,0.0
-3302,-19253,27996,0.0
-3271,-19553,27778,0.0
-3219,-19724,27383,0.0
-3179,-19965,27088,0.0
-3157,-20329,26963,0.0
-3130,-20653,26781,0.0
-2213,-14967,18977,0.0
-2147,-14888,18459,0.0
-2079,-14780,17922,0.0
-2013,-14670,17400,0.0
-1971,-14723,17082,0.0
-1899,-14548,16511,0.0
-1860,-14616,16229,0.0
-1829,-14739,16012,0.0
-1813,-14988,15931,0.0
-1793,-15203,15811,0.0
-1785,-15537,15811,0.0
-1773,-15829,15762,0.0
-1756,-16111,15698,0.0
-1739,-16386,15622,0.0
-9,-80,76,0.0
-1709,-16987,15504,0.0
-9,-89,80,0.0
-8,-88,76,0.0
-10,-105,89,0.0
-9,-101,84,0.0
-8,-97,79,0.0
-8,-99,78,0.0
-8,-101,79,0.0
-8,-106,81,0.0
-10,-129,97,0.0
-9,-122,89,0.0
-8,-119,84,0.0
-1465,-20902,14601,0.0
-1443,-21284,14527,0.0
-1418,-21660,14444,0.0
-1389,-21992,14324,0.0
-1347,-22133,14078,0.0
-9,-148,91,0.0
-8,-154,93,0.0
-9,-165,98,0.0
-9,-167,96,0.0
-8,-173,97,0.0
-8,-163,90,0.0
-8,-180,96,0.0
-8,-196,102,0.0
-7,-188,95,0.0
-8,-209,103,0.0
-8,-220,105,0.0
-8,-236,110,0.0
-8,-241,109,0.0
-8,-250,110,0.0
-8,-259,111,0.0
-7,-269,111,0.0
-7,-272,109,0.0
-7,-290,113,0.0
-6,-308,116,0.0
-6,-333,122,0.0
-5,-339,119,0.0
-5,-341,117,0.0
-4,-338,111,0.0
-4,-341,108,0.0
-3,-342,104,0.0
291,16088,15702,0.0
236,14766,14721,0.0
199,14329,14594,0.0
165,14015,14580,0.0
155,16070,17079,0.0
118,15983,17355,0.0
81,15684,17398,0.0
45,15455,17517,0.0
11,17652,20446,0.0
-28,17031,20157,0.0
-68,16682,20179,0.0
-107,16489,20387,0.0
-146,16220,20499,0.0
-183,15911,20560,0.0
-217,15367,20302,0.0
-263,15709,21225,0.0
-301,15457,21359,0.0
-335,15079,21317,0.0
-371,14807,21417,0.0
-568,20310,30063,0.0
-622,20143,30517,0.0
-675,19872,30823,0.0
-721,19447,30891,0.0
-764,18966,30859,0.0
-881,20207,33687,0.0
-925,19677,33619,0.0
-762,15084,26423,0.0
-793,14668,26349,0.0
-863,14927,27511,0.0
-903,14638,27687,0.0
-934,14215,27605,0.0
-966,13835,27595,0.0
-961,12966,26576,0.0
-1013,12890,27161,0.0
-1049,12604,27317,0.0
-1075,12202,27219,0.0
-1100,11811,27130,0.0
-1275,12961,30674,0.0
-1347,12973,31653,0.0
-1397,12739,32068,0.0
-947,8178,21256,0.0
-962,7876,21152,0.0
-977,7585,21068,0.0
-995,7314,21029,0.0
-1010,7035,20957,0.0
-1026,6773,20928,0.0
-1039,6500,20850,0.0
-1055,6241,20814,0.0
-1069,5981,20761,0.0
-1081,5720,20696,0.0
-1096,5468,20657,0.0
-1108,5214,20600,0.0
-1120,4965,20553,0.0
-1130,4708,20463,0.0
-1140,4461,20395,0.0
-1153,4224,20372,0.0
-1161,3979,20293,0.0
-1172,3743,20256,0.0
-1181,3504,20189,0.0
-1191,3270,20136,0.0
-1199,3037,20075,0.0
-1207,2807,20025,0.0
-1216,2580,19980,0.0
-1222,2350,19908,0.0
-1229,2125,19848,0.0
-1238,1906,19827,0.0
-1243,1682,19752,0.0
-1250,1462,19697,0.0
-1250,1238,19559,0.0
-1260,1026,19582,0.0
-1268,811,19562,0.0
-1314,616,20153,0.0
-1347,405,20521,0.0
-1392,186,21077,0.0
-1461,-44,21997,0.0
0,0,0,0.0
-2250,-796,33506,1.0
0,0,0,0.0
-2306,-1548,34005,1.0
0,0,0,0.0
0,0,0,0.0
0,0,0,0.0
0,0,0,0.0
0,0,0,0.0
-2369,-3789,34067,1.0
0,0,0,0.0
0,0,0,0.0
-2386,-4907,33979,1.0
-2403,-5310,34138,1.0
-2391,-5647,33874,1.0
-2380,-5985,33641,1.0
-2358,-6288,33245,1.0
-2366,-6672,33287,1.0
-2360,-7019,33140,1.0
-2360,-7388,33099,1.0
-2376,-7805,33263,1.0
0,0,0,0.0
-2373,-8543,33152,1.0
-2370,-8905,33067,1.0
-2356,-9231,32850,1.0
-2355,-9609,32819,1.0
-2357,-10007,32848,1.0
-2334,-10293,32513,1.0
-2328,-10659,32440,1.0
-2308,-10960,32173,1.0
-2287,-11253,31891,1.0
-2285,-11643,31885,1.0
0,0,0,0.0
-2264,-12348,31664,1.0
-2247,-12668,31467,1.0
-2246,-13079,31497,1.0
-2232,-13429,31373,1.0
-2225,-13815,31327,1.0
-2224,-14250,31388,1.0
-2195,-14508,31053,1.0
0,0,0,0.0
0,0,0,0.0
-2125,-15398,30338,1.0
-2103,-15712,30142,1.0
-2088,-16073,30035,1.0
-2069,-16409,29877,1.0
0,0,0,0.0
-2013,-16955,29343,1.0
-1983,-17208,29049,1.0
-1957,-17501,28824,1.0
-1928,-17763,28551,1.0
-1898,-18024,28284,1.0
-1872,-18324,28076,1.0
-1846,-18630,27879,1.0
-1818,-18922,27662,1.0
-1794,-19255,27502,1.0
-1753,-19409,27093,1.0
-1721,-19654,26815,1.0
-1687,-19888,26526,1.0
-1648,-20066,26168,1.0
-1182,-14872,18965,0.0
-1137,-14793,18448,0.0
-1093,-14689,17918,0.0
-1047,-14561,17373,0.0
-1019,-14658,17109,0.0
-974,-14528,16591,0.0
-941,-14546,16253,0.0
-916,-14677,16045,0.0
-898,-14936,15977,0.0
-876,-15151,15859,0.0
-860,-15458,15834,0.0
-842,-15750,15786,0.0
-822,-16041,15733,0.0
-802,-16318,15662,0.0
-782,-16619,15609,0.0
-759,-16898,15530,0.0
-3,-79,71,0.0
-4,-87,76,0.0
-4,-99,85,0.0
-3,-84,71,0.0
-3,-100,83,0.0
-4,-104,84,0.0
-3,-102,80,0.0
-3,-113,87,0.0
-2,-109,83,0.0
-3,-127,94,0.0
-3,-110,79,0.0
-447,-20801,14649,0.0
-415,-21172,14571,0.0
-382,-21523,14472,0.0
-349,-21914,14396,0.0
-311,-22046,14145,0.0
-26,-2091,1310,0.0
-22,-2084,1275,0.0
-1,-140,83,0.0
-1,-166,96,0.0
-1,-170,96,0.0
0,-178,98,0.0
0,-181,97,0.0
0,-192,101,0.0
0,-194,99,0.0
0,-223,111,0.0
0,-208,101,0.0
1,-229,108,0.0
1,-239,109,0.0
1,-260,116,0.0
3,-246,106,0.0
3,-260,109,0.0
4,-270,110,0.0
4,-278,110,0.0
5,-299,114,0.0
6,-329,122,0.0
7,-336,120,0.0
7,-340,118,0.0
8,-343,115,0.0
9,-338,109,0.0
9,-340,106,0.0
1217,14994,14729,0.0
1170,14621,14671,0.0
1115,14134,14487,0.0
1079,13875,14528,0.0
1062,13860,14826,0.0
1179,15620,17070,0.0
1120,15082,16839,0.0
1078,14741,16818,0.0
979,13598,15852,0.0
954,13475,16054,0.0
1323,19005,23139,0.0
1286,18806,23405,0.0
1671,24875,31646,0.0
1587,24052,31284,0.0
1204,18604,24742,0.0
952,14989,20385,0.0
927,14895,20721,0.0
908,14890,21190,0.0
880,14733,21452,0.0
1185,20247,30170,0.0
978,17093,26072,0.0
954,17065,26649,0.0
916,16761,26803,0.0
868,16290,26687,0.0
833,16034,26914,0.0
795,15736,27071,0.0
759,15432,27220,0.0
697,14582,26378,0.0
656,14138,26238,0.0
602,13403,25530,0.0
578,13308,26027,0.0
581,13849,27821,0.0
549,13563,27999,0.0
527,13532,28721,0.0
447,11967,26125,0.0
426,11920,26784,0.0
399,11731,27143,0.0
422,13043,31097,0.0
396,12935,31798,0.0
239,8332,21134,0.0
218,8080,21161,0.0
195,7801,21110,0.0
173,7522,21053,0.0
152,7248,21000,0.0
131,6964,20908,0.0
111,6675,20786,0.0
92,6422,20769,0.0
74,6161,20715,0.0
56,5910,20687,0.0
38,5645,20603,0.0
21,5402,20582,0.0
5,5150,20525,0.0
-10,4900,20465,0.0
-26,4655,20411,0.0
-40,4409,20346,0.0
-54,4163,20269,0.0
-68,3927,20230,0.0
-81,3692,20181,0.0
-94,3453,20100,0.0
-107,3225,20067,0.0
-118,2996,20026,0.0
-130,2765,19956,0.0
-141,2540,19913,0.0
-151,2313,19840,0.0
-161,2089,19775,0.0
-170,1871,19752,0.0
-179,1646,19639,0.0
-188,1431,19620,0.0
-195,1208,19458,0.0
-203,997,19479,0.0
-212,788,19528,0.0
-226,595,20149,0.0
-238,384,20495,0.0
-252,167,21040,0.0
-271,-62,22010,0.0
-439,-475,34731,1.0
-452,-855,34906,1.0
0,0,0,0.0
-475,-1626,35235,1.0
-486,-2017,35384,1.0
-496,-2409,35498,1.0
-505,-2807,35654,1.0
0,0,0,0.0
-531,-3667,36481,1.0
-535,-4060,36424,1.0
-535,-4406,35990,1.0
0,0,0,0.0
0,0,0,0.0
-536,-5499,35358,1.0
-535,-5839,35048,1.0
-532,-6190,34826,1.0
-530,-6534,34589,1.0
-530,-6917,34562,1.0
-531,-7314,34594,1.0
0,0,0,0.0
0,0,0,0.0
-528,-8508,34647,1.0
0,0,0,0.0
-518,-9242,34406,1.0
-513,-9623,34338,1.0
-506,-9962,34126,1.0
-497,-10309,33943,1.0
-490,-10686,33862,1.0
-480,-10996,33578,1.0
0,0,0,0.0
-458,-11616,33036,1.0
-450,-12029,33062,1.0
-439,-12406,32986,1.0
-428,-12762,32850,1.0
-417,-13168,32840,1.0
-403,-13498,32638,1.0
0,0,0,0.0
-378,-14302,32570,1.0
0,0,0,0.0
0,0,0,0.0
-329,-15248,31874,1.0
-310,-15532,31588,1.0
-293,-15925,31520,1.0
-275,-16230,31280,1.0
-254,-16501,30979,1.0
-234,-16786,30709,1.0
-213,-17038,30385,1.0
-192,-17287,30062,1.0
0,0,0,0.0
-148,-17876,29589,1.0
-124,-18129,29289,1.0
-100,-18294,28855,1.0
-76,-18475,28455,1.0
-52,-18774,28243,1.0
-28,-19086,28051,1.0
-3,-19336,27768,1.0
22,-19482,27342,1.0
47,-19681,27001,1.0
74,-19956,26766,1.0
102,-20257,26565,1.0
93,-14911,19123,0.0
112,-14829,18600,0.0
130,-14721,18061,0.0
147,-14608,17531,0.0
166,-14584,17125,0.0
183,-14592,16763,0.0
202,-14585,16395,0.0
220,-14584,16042,0.0
243,-14848,15981,0.0
266,-15099,15903,0.0
289,-15360,15833,0.0
313,-15644,15781,0.0
339,-15937,15732,0.0
365,-16213,15662,0.0
391,-16486,15587,0.0
419,-16780,15524,0.0
448,-17078,15462,0.0
1,-80,71,0.0
507,-17682,15327,0.0
538,-18008,15273,0.0
569,-18309,15192,0.0
1,-80,65,0.0
2,-92,73,0.0
670,-19273,14967,0.0
706,-19611,14893,0.0
743,-19960,14822,0.0
781,-20288,14729,0.0
819,-20638,14646,0.0
860,-21020,14580,0.0
902,-21382,14493,0.0
943,-21731,14391,0.0
979,-21935,14188,0.0
93,-2056,1299,0.0
95,-2052,1265,0.0
100,-2080,1253,0.0
7,-140,82,0.0
5,-132,75,0.0
8,-156,86,0.0
7,-159,87,0.0
8,-165,87,0.0
10,-190,99,0.0
10,-188,95,0.0
11,-194,95,0.0
12,-205,97,0.0
12,-217,101,0.0
14,-235,105,0.0
14,-235,103,0.0
14,-239,101,0.0
15,-243,100,0.0
16,-255,102,0.0
18,-267,103,0.0
22,-317,118,0.0
23,-330,120,0.0
24,-336,117,0.0
24,-329,112,0.0
25,-331,108,0.0
24,-333,104,0.0
2041,14082,13880,0.0
2021,13956,14051,0.0
2110,14593,15008,0.0
2003,13861,14562,0.0
1997,13835,14848,0.0
2278,15799,17322,0.0
2007,13927,15601,0.0
1840,12777,14625,0.0
1829,12700,14855,0.0
2041,14172,16941,0.0
2053,14248,17406,0.0
2055,14257,17803,0.0
2055,14254,18196,0.0
2055,14242,18588,0.0
1808,12514,16701,0.0
2065,14275,19483,0.0
2056,14188,19806,0.0
2049,14113,20155,0.0
2052,14104,20611,0.0
2063,14145,21154,0.0
1840,12576,19254,0.0
1834,12493,19582,0.0
1833,12444,19975,0.0
1832,12389,20372,0.0
1824,12279,20689,0.0
1825,12226,21113,0.0
1816,12108,21437,0.0
1811,12003,21797,0.0
1810,11919,22207,0.0
1808,11829,22620,0.0
1807,11743,23054,0.0
1806,11647,23490,0.0
1806,11543,23924,0.0
1806,11442,24384,0.0
1806,11337,24849,0.0
1808,11229,25332,0.0
1807,11107,25805,0.0
1809,10986,26301,0.0
1815,10882,26863,0.0
1408,8334,21228,0.0
1379,8047,21165,0.0
1349,7748,21060,0.0
1324,7485,21042,0.0
1295,7195,20939,0.0
1271,6934,20911,0.0
1246,6661,20838,0.0
1221,6393,20771,0.0
1197,6129,20702,0.0
1178,5889,20709,0.0
1155,5625,20623,0.0
1134,5370,20560,0.0
1112,5114,20481,0.0
1095,4878,20470,0.0
1075,4630,20405,0.0
1056,4385,20340,0.0
1037,4142,20272,0.0
1020,3905,20220,0.0
1004,3672,20180,0.0
988,3438,20129,0.0
973,3207,20072,0.0
958,2977,20018,0.0
944,2752,19986,0.0
931,2525,19928,0.0
917,2300,19863,0.0
904,2078,19807,0.0
891,1856,19749,0.0
880,1637,19697,0.0
868,1421,19647,0.0
857,1203,19576,0.0
846,989,19510,0.0
839,778,19516,0.0
854,582,20029,0.0
867,375,20498,0.0
880,157,20963,0.0
915,-71,21942,0.0
1427,-483,34438,1.0
1429,-859,34682,1.0
0,0,0,0.0
1426,-1621,34964,1.0
0,0,0,0.0
1428,-2401,35311,1.0
0,0,0,0.0
1421,-3171,35364,1.0
1438,-3606,35864,1.0
1445,-4023,36101,1.0
1438,-4404,35994,1.0
1435,-4788,35913,1.0
1433,-5178,35880,1.0
1431,-5561,35806,1.0
1425,-5923,35610,1.0
0,0,0,0.0
1401,-6580,34892,1.0
1393,-6913,34605,1.0
0,0,0,0.0
0,0,0,0.0
0,0,0,0.0
1447,-8659,35341,1.0
1449,-9029,35212,1.0
0,0,0,0.0
0,0,0,0.0
0,0,0,0.0
1464,-10478,34595,1.0
1469,-10837,34440,1.0
0,0,0,0.0
1436,-11188,33051,1.0
1446,-11552,32953,1.0
1466,-11994,33067,1.0
1487,-12446,33192,1.0
1504,-12854,33190,1.0
0,0,0,0.0
1534,-13621,33037,1.0
1547,-13982,32904,1.0
1561,-14339,32760,1.0
1569,-14628,32463,1.0
1577,-14921,32183,1.0
1578,-15129,31732,1.0
1590,-15431,31488,1.0
1619,-15900,31580,1.0
1642,-16305,31533,1.0
1654,-16584,31244,1.0
1665,-16843,30923,1.0
1679,-17135,30669,1.0
1678,-17262,30130,1.0
1695,-17550,29881,1.0
1711,-17830,29621,1.0
1734,-18171,29465,1.0
1739,-18325,29011,1.0
1749,-18518,28629,1.0
1771,-18812,28408,1.0
1790,-19093,28168,1.0
1805,-19309,27837,1.0
1821,-19521,27504,1.0
1851,-19890,27395,1.0
1868,-20108,27076,1.0
1888,-20337,26777,1.0
1382,-14905,19192,0.0
1380,-14888,18749,0.0
1373,-14801,18232,0.0
1362,-14688,17700,0.0
1353,-14565,17172,0.0
1369,-14722,16984,0.0
1358,-14582,16460,0.0
1355,-14536,16055,0.0
1379,-14762,15955,0.0
1407,-15028,15896,0.0
1425,-15176,15710,0.0
1465,-15555,15760,0.0
1496,-15838,15703,0.0
1528,-16117,15639,0.0
1560,-16395,15570,0.0
1595,-16703,15523,0.0
1630,-16988,15450,0.0
1664,-17277,15377,0.0
1701,-17585,15314,0.0
1740,-17906,15257,0.0
1777,-18205,15177,0.0
1818,-18518,15103,0.0
1859,-18843,15033,0.0
1901,-19166,14955,0.0
1945,-19501,14881,0.0
1988,-19833,14800,0.0
2035,-20177,14721,0.0
2083,-20541,14650,0.0
2130,-20880,14556,0.0
2179,-21224,14459,0.0
2232,-21607,14382,0.0
2283,-21959,14278,0.0
2316,-22140,14059,0.0
216,-2059,1276,0.0
219,-2076,1257,0.0
15,-153,89,0.0
228,-2123,1224,0.0
17,-166,94,0.0
19,-177,97,0.0
20,-185,98,0.0
22,-201,104,0.0
23,-213,108,0.0
24,-225,110,0.0
23,-215,103,0.0
27,-243,113,0.0
27,-242,110,0.0
29,-253,111,0.0
31,-274,117,0.0
31,-275,114,0.0
34,-286,114,0.0
36,-303,118,0.0
38,-320,121,0.0
39,-330,121,0.0
40,-336,118,0.0
41,-341,116,0.0
40,-330,108,0.0
41,-337,107,0.0
-4751,16728,15038,0.0
-4839,16658,15301,0.0
-4908,16525,15508,0.0
-5014,16506,15828,0.0
-5021,16160,15834,0.0
-5154,16221,16241,0.0
-5190,15970,16338,0.0
-5174,15563,16270,0.0
-5918,17406,18596,0.0
-6033,17344,18938,0.0
-6023,16922,18885,0.0
-5814,15966,18213,0.0
-5958,15990,18647,0.0
-5743,15058,17954,0.0
