//X,Y,Z,Classification
-12,-298,111,0.0
-13,-325,118,0.0
-11,-322,113,0.0
-11,-327,110,0.0
-11,-340,111,0.0
-10,-335,105,0.0
-10,-339,103,0.0
762,13638,13367,0.0
802,14757,14776,0.0
750,14202,14525,0.0
715,13938,14562,0.0
673,13531,14442,0.0
647,13450,14667,0.0
621,13353,14876,0.0
597,13286,15123,0.0
572,13207,15362,0.0
542,13013,15469,0.0
1024,25586,31083,0.0
636,16604,20618,0.0
600,16409,20827,0.0
551,15827,20539,0.0
519,15688,20818,0.0
458,14659,19891,0.0
429,14554,20200,0.0
420,15233,21628,0.0
368,14355,20854,0.0
341,14362,21350,0.0
359,16455,25040,0.0
322,16224,25276,0.0
284,15938,25430,0.0
245,15664,25600,0.0
208,15359,25718,0.0
171,15092,25901,0.0
135,14815,26068,0.0
96,13994,25252,0.0
64,14217,26321,0.0
29,13787,26197,0.0
-4,13050,25460,0.0
-38,13344,26738,0.0
-72,13031,26834,0.0
-104,12561,26593,0.0
-137,12406,27016,0.0
-170,12139,27208,0.0
-197,11628,26837,0.0
-228,11365,27026,0.0
-296,12656,31032,0.0
-335,12512,31652,0.0
-373,12295,32117,0.0
-403,11855,31999,0.0
-434,11459,31989,0.0
-463,11041,31905,0.0
-493,10652,31895,0.0
-518,10192,31653,0.0
-540,9717,31337,0.0
-568,9366,31402,0.0
-601,9086,31711,0.0
-641,8918,32446,0.0
-681,8718,33123,0.0
-724,8549,33968,0.0
0,0,0,0.0
-649,6504,28427,0.0
-687,6347,29193,0.0
-725,6162,29900,0.0
-744,5819,29869,0.0
-761,5462,29751,0.0
-775,5105,29606,0.0
-793,4776,29612,0.0
-808,4431,29501,0.0
-824,4094,29428,0.0
-837,3754,29310,0.0
-851,3425,29243,0.0
-863,3093,29146,0.0
-876,2767,29075,0.0
-887,2444,29002,0.0
-897,2119,28878,0.0
-884,1751,28030,0.0
-884,1425,27623,0.0
-893,1123,27558,0.0
-914,834,27864,0.0
-917,526,27606,0.0
-935,229,27845,0.0
-961,-73,28346,0.0
-967,-379,28219,0.0
-974,-682,28131,0.0
-982,-987,28137,0.0
-986,-1288,28025,0.0
-992,-1590,27968,0.0
-997,-1889,27903,0.0
-1000,-2185,27797,0.0
-1004,-2482,27723,0.0
-1006,-2775,27627,0.0
-1007,-3065,27515,0.0
-1010,-3361,27463,0.0
-1012,-3654,27388,0.0
-1013,-3945,27313,0.0
-1015,-4237,27242,0.0
-1015,-4529,27175,0.0
-1015,-4821,27107,0.0
-1013,-5104,27001,0.0
-1012,-5390,26915,0.0
-1011,-5679,26843,0.0
-1010,-5974,26799,0.0
-1007,-6263,26725,0.0
-994,-6481,26368,0.0
-1001,-6828,26539,0.0
-997,-7120,26478,0.0
-993,-7405,26396,0.0
-987,-7686,26299,0.0
-983,-7984,26260,0.0
-979,-8270,26176,0.0
-974,-8574,26149,0.0
-967,-8858,26055,0.0
-960,-9147,25978,0.0
-953,-9447,25932,0.0
-946,-9739,25859,0.0
-937,-10024,25767,0.0
-929,-10328,25719,0.0
-921,-10633,25670,0.0
-912,-10927,25592,0.0
-902,-11226,25522,0.0
-892,-11528,25458,0.0
-876,-11760,25241,0.0
-861,-12018,25080,0.0
-849,-12318,25009,0.0
-831,-12542,24783,0.0
-836,-13102,25208,0.0
-822,-13415,25140,0.0
-809,-13734,25081,0.0
-795,-14075,25057,0.0
-780,-14384,24968,0.0
-763,-14691,24877,0.0
-748,-15043,24855,0.0
-732,-15376,24795,0.0
-716,-15726,24757,0.0
-697,-16056,24683,0.0
-679,-16405,24630,0.0
-658,-16730,24540,0.0
-639,-17071,24467,0.0
-619,-17441,24431,0.0
-598,-17786,24352,0.0
-576,-18142,24283,0.0
-553,-18486,24192,0.0
-530,-18882,24165,0.0
-506,-19258,24105,0.0
-481,-19638,24043,0.0
-455,-20005,23959,0.0
-428,-20385,23883,0.0
-400,-20766,23804,0.0
-373,-21182,23757,0.0
-344,-21564,23665,0.0
-313,-21974,23599,0.0
-282,-22381,23520,0.0
-1,-66,67,0.0
0,-62,62,0.0
0,-69,68,0.0
0,-75,73,0.0
0,-75,72,0.0
0,-83,76,0.0
0,-78,71,0.0
0,-94,83,0.0
0,-102,88,0.0
0,-104,88,0.0
0,-98,81,0.0
0,-109,89,0.0
0,-119,94,0.0
0,-113,87,0.0
1,-118,89,0.0
0,-113,84,0.0
1,-119,87,0.0
1,-132,94,0.0
1,-138,95,0.0
2,-125,84,0.0
2,-134,88,0.0
2,-142,92,0.0
2,-139,87,0.0
3,-134,82,0.0
3,-159,95,0.0
3,-152,88,0.0
4,-173,98,0.0
5,-178,99,0.0
5,-182,98,0.0
5,-182,96,0.0
6,-189,97,0.0
6,-196,98,0.0
7,-219,106,0.0
8,-219,103,0.0
8,-215,99,0.0
9,-226,101,0.0
10,-238,103,0.0
9,-231,98,0.0
10,-227,93,0.0
10,-237,94,0.0
12,-250,97,0.0
14,-301,112,0.0
16,-314,113,0.0
16,-319,111,0.0
17,-322,108,0.0
16,-315,103,0.0
18,-319,100,0.0
1804,13646,13444,0.0
1804,13688,13775,0.0
1791,13625,14006,0.0
1754,13385,14056,0.0
1762,13483,14463,0.0
1749,13409,14696,0.0
1719,13213,14797,0.0
1655,12750,14589,0.0
1617,12484,14596,0.0
1598,12361,14769,0.0
1675,12974,15844,0.0
1666,12924,16133,0.0
1656,12862,16413,0.0
1645,12792,16688,0.0
1635,12730,16981,0.0
1625,12663,17275,0.0
1616,12598,17578,0.0
1606,12518,17869,0.0
1597,12450,18184,0.0
1589,12379,18504,0.0
1580,12306,18830,0.0
1571,12223,19148,0.0
1563,12145,19485,0.0
1556,12068,19832,0.0
1547,11974,20165,0.0
1539,11890,20523,0.0
1532,11803,20887,0.0
1526,11725,21281,0.0
1519,11631,21658,0.0
1514,11541,22057,0.0
1509,11458,22483,0.0
1504,11359,22897,0.0
1500,11273,23352,0.0
1497,11172,23792,0.0
1492,11067,24245,0.0
1490,10973,24743,0.0
1486,10854,25202,0.0
1485,10753,25728,0.0
1478,10606,26167,0.0
1499,10642,27091,0.0
1736,12195,32057,0.0
1701,11797,32046,0.0
1661,11381,31973,0.0
1620,10943,31828,0.0
1584,10541,31769,0.0
1548,10128,31661,0.0
1499,9634,31276,0.0
1474,9298,31385,0.0
1463,9043,31781,0.0
1469,8879,32533,0.0
1474,8697,33277,0.0
1482,8515,34075,0.0
0,0,0,0.0
1227,6648,29278,0.0
1230,6454,29916,0.0
1207,6114,29902,0.0
1184,5764,29826,0.0
1160,5414,29732,0.0
1138,5072,29668,0.0
1114,4727,29567,0.0
1094,4387,29479,0.0
1072,4050,29380,0.0
1052,3714,29283,0.0
1035,3390,29248,0.0
1016,3058,29126,0.0
998,2732,29039,0.0
982,2411,28971,0.0
966,2091,28890,0.0
951,1773,28802,0.0
905,1409,27761,0.0
898,1113,27881,0.0
887,811,27834,0.0
870,506,27619,0.0
866,210,27766,0.0
872,-90,28237,0.0
858,-392,28042,0.0
851,-694,28031,0.0
843,-994,27974,0.0
834,-1293,27885,0.0
822,-1582,27678,0.0
818,-1883,27693,0.0
807,-2166,27480,0.0
790,-2422,27007,0.0
786,-2712,26971,0.0
770,-2953,26500,0.0
792,-3341,27302,0.0
788,-3631,27227,0.0
785,-3921,27165,0.0
783,-4206,27071,0.0
780,-4483,26938,0.0
781,-4786,26959,0.0
781,-5074,26895,0.0
781,-5360,26821,0.0
781,-5636,26700,0.0
781,-5915,26600,0.0
786,-6219,26610,0.0
786,-6491,26480,0.0
786,-6755,26332,0.0
791,-7043,26277,0.0
797,-7343,26259,0.0
788,-7498,25742,0.0
761,-7468,24646,0.0
767,-7740,24583,0.0
774,-8009,24513,0.0
826,-8767,25885,0.0
833,-9047,25792,0.0
845,-9364,25803,0.0
847,-9574,25519,0.0
831,-9572,24702,0.0
863,-10113,25285,0.0
889,-10582,25655,0.0
901,-10877,25583,0.0
912,-11163,25490,0.0
927,-11483,25469,0.0
941,-11792,25419,0.0
906,-11465,24034,0.0
905,-11552,23560,1.0
924,-11896,23614,1.0
1005,-13029,25183,0.0
1021,-13334,25107,0.0
1040,-13655,25055,0.0
1059,-13972,24992,0.0
1079,-14301,24945,0.0
1101,-14629,24891,0.0
1122,-14954,24828,0.0
1144,-15286,24772,0.0
1138,-15233,24102,0.0
1163,-15583,24076,0.0
1197,-16038,24204,0.0
1174,-15720,23177,0.0
1255,-16802,24208,0.0
1295,-17322,24390,0.0
1323,-17662,24311,0.0
1273,-16969,22834,0.0
1302,-17307,22772,0.0
1329,-17617,22669,0.0
1448,-19145,24094,0.0
1481,-19508,24016,0.0
1420,-18631,22437,0.0
1454,-19001,22387,0.0
1484,-19313,22263,0.0
1519,-19685,22204,0.0
1555,-20037,22117,0.0
1590,-20392,22026,0.0
1620,-20661,21840,0.0
1649,-20915,21636,0.0
1684,-21225,21489,0.0
6,-80,80,0.0
5,-78,76,0.0
5,-71,68,0.0
6,-78,73,0.0
6,-82,74,0.0
7,-88,79,0.0
6,-88,77,0.0
7,-99,84,0.0
8,-103,86,0.0
8,-104,85,0.0
10,-118,94,0.0
10,-116,91,0.0
10,-123,93,0.0
9,-121,90,0.0
11,-139,101,0.0
12,-138,98,0.0
12,-142,98,0.0
13,-148,101,0.0
12,-149,98,0.0
14,-158,102,0.0
14,-157,99,0.0
13,-152,94,0.0
16,-169,102,0.0
16,-172,101,0.0
16,-178,102,0.0
17,-188,105,0.0
17,-189,103,0.0
19,-202,107,0.0
19,-198,103,0.0
21,-212,106,0.0
22,-220,109,0.0
24,-233,111,0.0
22,-227,105,0.0
24,-239,108,0.0
23,-230,100,0.0
26,-246,104,0.0
26,-252,104,0.0
28,-260,104,0.0
28,-261,101,0.0
31,-292,110,0.0
34,-320,117,0.0
36,-330,116,0.0
37,-330,112,0.0
35,-318,105,0.0
36,-315,100,0.0
-4069,16327,14892,0.0
-4155,16282,15173,0.0
-4240,16231,15453,0.0
-4323,16164,15723,0.0
-4385,16019,15920,0.0
-4467,15936,16184,0.0
-4425,15417,15999,0.0
-4497,15305,16228,0.0
-4623,15366,16651,0.0
-4640,15062,16681,0.0
-4944,15674,17740,0.0
-5052,15637,18090,0.0
-5152,15572,18416,0.0
-5227,15422,18647,0.0
-5342,15386,19022,0.0
-5262,14794,18702,0.0
-5408,14837,19184,0.0
-5419,14508,19188,0.0
-5472,14295,19343,0.0
-8637,22009,30474,0.0
-6718,16696,23660,0.0
-6854,16610,24096,0.0
-6990,16514,24530,0.0
-7024,16174,24603,0.0
-7013,15737,24524,0.0
-6997,15293,24421,0.0
-6988,14878,24352,0.0
-6978,14462,24270,0.0
-6966,14053,24187,0.0
-6958,13655,24116,0.0
-6961,13288,24086,0.0
-9666,17935,33381,0.0
-9650,17403,33272,0.0
-9636,16880,33164,0.0
-9623,16365,33058,0.0
-9635,15902,33045,0.0
-9613,15388,32912,0.0
-8839,13715,30210,0.0
-8965,13475,30583,0.0
-8857,12890,30166,0.0
-9011,12687,30635,0.0
-9315,12679,31611,0.0
-9499,12488,32177,0.0
-9524,12085,32205,0.0
-9527,11659,32161,0.0
0,0,0,0.0
0,0,0,0.0
-9513,10374,31942,0.0
-9433,9877,31619,0.0
-9438,9475,31579,0.0
-9517,9147,31783,0.0
-9770,8977,32572,0.0
-8181,7173,27225,0.0
-8199,6848,27235,0.0
-8196,6507,27175,0.0
-8190,6167,27106,0.0
-8175,5824,27004,0.0
-8170,5492,26941,0.0
-8170,5165,26892,0.0
-8158,4833,26801,0.0
-8155,4511,26743,0.0
-8145,4185,26657,0.0
-8133,3863,26567,0.0
-8126,3545,26495,0.0
-8122,3232,26431,0.0
-8111,2918,26346,0.0
-8106,2609,26279,0.0
-8101,2301,26212,0.0
-8094,1995,26137,0.0
-8090,1691,26070,0.0
-8079,1389,25986,0.0
-8069,1089,25903,0.0
-8069,791,25849,0.0
-8058,495,25762,0.0
-8058,200,25707,0.0
-8052,-92,25637,0.0
-8076,-385,25663,0.0
-8920,-747,28284,0.0
-8480,-1016,26833,0.0
-8374,-1303,26442,0.0
-8520,-1630,26842,0.0
-8544,-1940,26862,2.0
-8535,-2242,26777,2.0
0,0,0,0.0
-8526,-2844,26630,2.0
-8524,-3145,26566,2.0
-8522,-3445,26499,2.0
-8486,-3729,26327,2.0
-8488,-4029,26272,2.0
0,0,0,0.0
-8516,-4640,26239,2.0
-8499,-4929,26125,2.0
-8564,-5267,26263,2.0
-8559,-5564,26184,2.0
-8533,-5845,26040,2.0
-8523,-6138,25949,2.0
-8500,-6417,25812,2.0
-8448,-6675,25593,2.0
-8475,-6992,25608,2.0
-8490,-7303,25591,2.0
-8471,-7584,25467,2.0
-8473,-7884,25406,2.0
-8505,-8213,25435,2.0
-8490,-8497,25323,2.0
-8460,-8766,25167,2.0
-8561,-9173,25396,2.0
-8482,-9389,25092,2.0
-8473,-9679,24995,2.0
-8483,-9993,24955,2.0
-8468,-10278,24841,2.0
-8434,-10537,24667,2.0
-8451,-10862,24643,2.0
-8468,-11190,24624,2.0
-8496,-11532,24627,2.0
-8498,-11843,24560,2.0
-8463,-12103,24383,2.0
-8475,-12430,24342,2.0
-8477,-12741,24266,2.0
-672,-1036,1920,0.0
-8469,-13356,24088,2.0
-8496,-13714,24084,2.0
0,0,0,0.0
-8506,-14367,23949,2.0
-8510,-14695,23877,2.0
-8526,-15046,23838,2.0
-8573,-15457,23884,2.0
-8536,-15717,23692,2.0
-8499,-15977,23502,0.0
-8485,-16282,23376,0.0
-8404,-16455,23064,0.0
-8948,-17874,24462,0.0
-8941,-18216,24348,0.0
-8176,-16983,22173,0.0
-8089,-17128,21848,0.0
-8098,-17477,21781,0.0
-8092,-17796,21673,0.0
-8113,-18175,21634,0.0
-8117,-18524,21551,0.0
-8125,-18884,21475,0.0
-8124,-19224,21373,0.0
-8130,-19587,21290,0.0
-8144,-19972,21225,0.0
-8150,-20342,21137,0.0
-8168,-20747,21080,0.0
-8177,-21132,20995,0.0
-8182,-21515,20900,0.0
-27,-74,71,0.0
-23,-66,61,0.0
-29,-81,74,0.0
-22,-65,59,0.0
-32,-94,82,0.0
-30,-92,78,0.0
-32,-98,81,0.0
-28,-87,70,0.0
-34,-106,84,0.0
-34,-107,84,0.0
-33,-108,82,0.0
-35,-115,85,0.0
-36,-121,87,0.0
-39,-133,93,0.0
-35,-120,82,0.0
-40,-139,94,0.0
-35,-126,83,0.0
-35,-128,82,0.0
-39,-144,90,0.0
-41,-151,92,0.0
-41,-155,92,0.0
-44,-169,98,0.0
-41,-161,91,0.0
-45,-179,99,0.0
-45,-183,99,0.0
-44,-183,96,0.0
-44,-183,94,0.0
-46,-194,96,0.0
-47,-203,98,0.0
-46,-203,95,0.0
-50,-221,101,0.0
-52,-233,103,0.0
-49,-224,96,0.0
-51,-235,98,0.0
-51,-247,99,0.0
-56,-270,106,0.0
-58,-284,108,0.0
-65,-323,118,0.0
-65,-332,118,0.0
-65,-336,115,0.0
-63,-332,110,0.0
-61,-327,104,0.0
-63,-340,105,0.0
-60,-335,99,0.0
-58,-330,93,0.0
-58,-333,91,0.0
116,-307,62,0.0
112,-290,61,0.0
108,-280,62,0.0
107,-273,64,0.0
106,-267,66,0.0
110,-270,69,0.0
104,-253,68,0.0
108,-260,73,0.0
107,-255,75,0.0
108,-254,76,0.0
108,-249,79,0.0
110,-252,83,0.0
108,-244,83,0.0
112,-252,89,0.0
112,-247,90,0.0
113,-244,92,0.0
115,-245,96,0.0
113,-237,96,0.0
115,-239,100,0.0
120,-246,107,0.0
119,-240,106,0.0
119,-240,109,0.0
121,-241,113,0.0
122,-237,115,0.0
122,-234,117,0.0
124,-234,121,0.0
125,-234,123,0.0
143,-262,143,0.0
148,-269,150,0.0
149,-266,153,0.0
148,-262,155,0.0
143,-249,151,0.0
142,-243,150,0.0
131,-221,141,0.0
134,-223,146,0.0
127,-209,140,0.0
130,-210,145,0.0
115,-184,130,0.0
112,-175,127,0.0
104,-161,119,0.0
1147,-1743,1325,0.0
1109,-1660,1293,0.0
1138,-1678,1339,0.0
1123,-1629,1333,0.0
1175,-1678,1407,0.0
16819,-23646,20301,0.0
16766,-23200,20405,0.0
16713,-22757,20504,0.0
16670,-22332,20614,0.0
16596,-21870,20680,0.0
16572,-21477,20805,0.0
16505,-21033,20874,0.0
16467,-20630,20976,0.0
16414,-20212,21057,0.0
16371,-19809,21145,0.0
16319,-19400,21221,0.0
16276,-19004,21305,0.0
16241,-18621,21396,0.0
16190,-18222,21463,0.0
16167,-17857,21564,0.0
16109,-17458,21616,0.0
16086,-17100,21714,0.0
16050,-16729,21790,0.0
16026,-16374,21880,0.0
16432,-16451,22559,0.0
16721,-16397,23080,1.0
0,0,0,0.0
16844,-15832,23497,1.0
0,0,0,0.0
0,0,0,0.0
0,0,0,0.0
16734,-14373,23808,1.0
0,0,0,0.0
0,0,0,0.0
16584,-13244,23924,1.0
1007,-784,1461,0.0
16633,-12619,24205,1.0
16573,-12242,24220,1.0
16549,-11894,24286,1.0
16531,-11553,24359,1.0
0,0,0,0.0
0,0,0,0.0
0,0,0,0.0
16514,-10231,24714,1.0
16526,-9912,24826,1.0
16555,-9602,24959,1.0
16521,-9254,24996,1.0
16569,-8954,25157,1.0
16515,-8598,25159,1.0
16486,-8258,25200,1.0
16457,-7918,25237,1.0
16586,-7652,25518,1.0
16535,-7302,25521,1.0
16419,-6926,25418,1.0
16457,-6616,25556,1.0
0,0,0,0.0
1197,-433,1871,0.0
16444,-5635,25757,1.0
16451,-5310,25840,1.0
1156,-351,1821,0.0
16391,-4639,25886,1.0
16353,-4302,25893,1.0
16455,-4001,26121,1.0
0,0,0,0.0
16501,-3353,26324,1.0
1111,-204,1777,0.0
16501,-2690,26447,1.0
1150,-164,1848,0.0
0,0,0,0.0
16304,-1672,26308,1.0
15945,-1313,25784,0.0
15617,-968,25305,0.0
15631,-650,25379,0.0
15665,-332,25485,0.0
15671,-11,25544,0.0
15691,310,25625,0.0
15712,633,25705,0.0
15731,959,25783,0.0
15742,1286,25847,0.0
15763,1616,25923,0.0
15809,1951,26040,0.0
15823,2284,26105,0.0
15823,2618,26144,0.0
15847,2956,26224,0.0
15883,3300,26320,0.0
15901,3642,26387,0.0
15944,3992,26494,0.0
15967,4341,26566,0.0
16005,4698,26663,0.0
16020,5049,26720,0.0
16059,5412,26816,0.0
35,12,59,0.0
23,9,41,0.0
24,10,42,0.0
23,9,40,0.0
28,12,48,0.0
30,14,53,0.0
47,23,80,0.0
41,21,70,0.0
33,18,56,0.0
40,22,68,0.0
40,22,68,0.0
43,25,73,0.0
52,32,88,0.0
47,32,81,0.0
52,35,88,0.0
52,35,87,0.0
53,39,91,0.0
57,43,96,0.0
55,42,92,0.0
58,46,99,0.0
58,48,99,0.0
60,51,101,0.0
67,58,114,0.0
58,52,98,0.0
69,64,117,0.0
59,57,102,0.0
59,57,99,0.0
64,64,107,0.0
59,61,101,0.0
60,65,103,0.0
62,67,105,0.0
66,74,113,0.0
64,75,110,0.0
66,78,113,0.0
65,79,110,0.0
67,83,114,0.0
69,86,116,0.0
67,86,113,0.0
68,90,115,0.0
70,94,118,0.0
71,97,119,0.0
69,98,118,0.0
64,92,108,0.0
70,103,118,0.0
70,106,117,0.0
68,104,113,0.0
74,116,123,0.0
70,113,117,0.0
73,120,122,0.0
70,118,117,0.0
73,125,122,0.0
72,126,120,0.0
74,131,122,0.0
74,133,122,0.0
75,137,123,0.0
74,139,121,0.0
74,142,122,0.0
75,147,123,0.0
78,156,127,0.0
75,152,122,0.0
78,163,127,0.0
112,-303,62,0.0
106,-284,61,0.0
108,-283,64,0.0
106,-274,65,0.0
103,-266,67,0.0
110,-277,72,0.0
106,-264,72,0.0
108,-267,76,0.0
107,-259,77,0.0
109,-263,82,0.0
108,-255,82,0.0
108,-254,84,0.0
111,-255,88,0.0
108,-246,88,0.0
113,-253,94,0.0
112,-248,95,0.0
112,-246,97,0.0
114,-246,101,0.0
116,-247,104,0.0
118,-248,107,0.0
118,-244,110,0.0
118,-241,112,0.0
121,-244,116,0.0
119,-237,116,0.0
124,-244,123,0.0
123,-239,124,0.0
127,-243,130,0.0
139,-262,144,0.0
141,-262,147,0.0
145,-266,154,0.0
149,-268,159,0.0
144,-256,156,0.0
143,-252,158,0.0
142,-245,157,0.0
130,-220,145,0.0
125,-211,143,0.0
129,-213,148,0.0
124,-202,144,0.0
109,-175,129,0.0
104,-165,123,0.0
110,-171,132,0.0
1125,-1721,1349,0.0
1107,-1667,1339,0.0
1109,-1644,1354,0.0
1118,-1631,1376,0.0
16387,-23535,20336,0.0
16352,-23113,20458,0.0
16288,-22654,20540,0.0
16233,-22213,20630,0.0
16164,-21757,20698,0.0
16119,-21338,20794,0.0
16092,-20945,20908,0.0
16047,-20533,20998,0.0
15993,-20115,21073,0.0
15951,-19713,21160,0.0
15915,-19323,21253,0.0
15877,-18933,21339,0.0
15825,-18531,21405,0.0
15788,-18148,21486,0.0
15752,-17772,21569,0.0
15717,-17397,21648,0.0
15688,-17033,21735,0.0
15653,-16665,21810,0.0
15700,-16384,21998,0.0
16112,-16476,22698,0.0
0,0,0,0.0
16352,-16039,23283,1.0
0,0,0,0.0
16344,-15352,23508,1.0
0,0,0,0.0
16330,-14664,23719,1.0
16263,-14269,23733,1.0
0,0,0,0.0
0,0,0,0.0
16231,-13244,24012,1.0
16280,-12952,24190,1.0
0,0,0,0.0
16167,-12203,24226,1.0
16080,-11811,24195,1.0
0,0,0,0.0
16161,-11216,24513,1.0
16127,-10866,24556,1.0
16092,-10517,24597,1.0
0,0,0,0.0
0,0,0,0.0
16097,-9546,24877,1.0
16084,-9213,24943,1.0
16102,-8900,25057,1.0
1129,-601,1764,0.0
0,0,0,0.0
1110,-546,1746,0.0
0,0,0,0.0
0,0,0,0.0
16104,-6954,25549,1.0
0,0,0,0.0
16059,-6287,25630,1.0
16052,-5959,25692,1.0
1174,-413,1884,0.0
16021,-5301,25787,1.0
0,0,0,0.0
16005,-4648,25899,1.0
15999,-4322,25958,1.0
16049,-4009,26105,1.0
15974,-3665,26047,1.0
16074,-3361,26275,1.0
16134,-3043,26436,1.0
0,0,0,0.0
16139,-2384,26565,1.0
0,0,0,0.0
15912,-1695,26308,1.0
15614,-1341,25870,0.0
15192,-990,25224,0.0
15251,-678,25373,0.0
15258,-361,25436,0.0
15299,-43,25552,0.0
15314,277,25626,0.0
15319,598,25682,0.0
15347,923,25775,0.0
15367,1248,25851,0.0
15376,1575,25912,0.0
15396,1905,25989,0.0
15416,2237,26063,0.0
15448,2573,26158,0.0
15460,2907,26218,0.0
15490,3247,26306,0.0
15508,3589,26374,0.0
15541,3935,26467,0.0
15568,4282,26548,0.0
15593,4632,26624,0.0
15616,4984,26694,0.0
15657,5346,26798,0.0
15673,5701,26855,0.0
31,12,55,0.0
25,9,42,0.0
27,11,46,0.0
27,12,47,0.0
43,21,76,0.0
38,19,66,0.0
40,21,70,0.0
37,20,64,0.0
35,20,62,0.0
41,24,71,0.0
50,30,87,0.0
48,30,83,0.0
51,34,89,0.0
46,32,80,0.0
51,36,90,0.0
58,43,103,0.0
56,43,99,0.0
60,47,105,0.0
54,44,95,0.0
59,49,103,0.0
59,51,104,0.0
59,52,104,0.0
64,58,110,0.0
57,55,101,0.0
62,61,110,0.0
65,65,115,0.0
69,70,120,0.0
67,70,116,0.0
60,65,106,0.0
63,69,110,0.0
66,74,114,0.0
61,70,105,0.0
64,77,112,0.0
67,81,116,0.0
65,83,114,0.0
65,83,112,0.0
66,88,116,0.0
63,86,110,0.0
65,90,113,0.0
64,90,112,0.0
65,94,114,0.0
70,103,121,0.0
68,102,118,0.0
68,104,117,0.0
69,110,120,0.0
68,109,117,0.0
68,112,117,0.0
72,120,123,0.0
72,123,123,0.0
69,121,118,0.0
70,124,120,0.0
71,128,121,0.0
73,137,125,0.0
74,140,125,0.0
71,138,121,0.0
74,145,125,0.0
74,148,124,0.0
74,151,125,0.0
74,154,124,0.0
74,157,124,0.0
112,-309,65,0.0
109,-298,66,0.0
108,-291,67,0.0
104,-280,68,0.0
105,-277,70,0.0
103,-267,71,0.0
106,-271,75,0.0
105,-263,76,0.0
107,-267,80,0.0
107,-264,82,0.0
103,-251,82,0.0
106,-254,86,0.0
108,-256,89,0.0
110,-257,93,0.0
109,-250,94,0.0
109,-249,96,0.0
114,-257,103,0.0
114,-252,104,0.0
115,-252,107,0.0
117,-251,111,0.0
116,-244,111,0.0
117,-245,115,0.0
119,-246,118,0.0
121,-247,122,0.0
125,-250,127,0.0
117,-232,121,0.0
129,-252,135,0.0
136,-262,145,0.0
142,-270,154,0.0
141,-264,154,0.0
145,-268,161,0.0
142,-258,159,0.0
133,-239,150,0.0
137,-242,157,0.0
131,-228,151,0.0
132,-226,154,0.0
123,-207,145,0.0
123,-204,145,0.0
116,-190,140,0.0
108,-175,132,0.0
1086,-1724,1328,0.0
1103,-1723,1361,0.0
1096,-1686,1364,0.0
1095,-1659,1375,0.0
16011,-23875,20265,0.0
15942,-23399,20345,0.0
15896,-22961,20447,0.0
15869,-22554,20573,0.0
15804,-22098,20645,0.0
15772,-21693,20758,0.0
15720,-21264,20840,0.0
15670,-20840,20922,0.0
15641,-20451,21030,0.0
15574,-20014,21083,0.0
15536,-19619,21172,0.0
15498,-19227,21258,0.0
15485,-18868,21376,0.0
15426,-18456,21427,0.0
15382,-18066,21497,0.0
15359,-17705,21594,0.0
15315,-17321,21659,0.0
15259,-16927,21702,0.0
15252,-16590,21814,0.0
15413,-16435,22167,0.0
15844,-16554,22909,0.0
0,0,0,0.0
0,0,0,0.0
0,0,0,0.0
0,0,0,0.0
15940,-14963,23641,1.0
15941,-14629,23755,1.0
0,0,0,0.0
15837,-13869,23819,1.0
0,0,0,0.0
0,0,0,0.0
0,0,0,0.0
15817,-12532,24209,1.0
1122,-865,1724,0.0
0,0,0,0.0
0,0,0,0.0
15699,-11139,24420,1.0
15664,-10791,24457,1.0
15670,-10472,24560,1.0
15735,-10192,24754,1.0
15810,-9914,24961,1.0
15673,-9506,24833,1.0
0,0,0,0.0
15630,-8838,24938,1.0
0,0,0,0.0
0,0,0,0.0
15683,-7901,25269,1.0
15682,-7579,25349,1.0
15715,-7272,25480,1.0
15757,-6968,25626,1.0
0,0,0,0.0
1105,-442,1809,0.0
1175,-446,1929,0.0
15597,-5615,25661,1.0
1219,-414,2012,0.0
15623,-4979,25844,1.0
15639,-4662,25940,1.0
15643,-4339,26013,1.0
1111,-285,1852,0.0
15658,-3694,26169,1.0
15650,-3366,26220,1.0
1127,-219,1893,0.0
1108,-192,1865,0.0
15728,-2400,26534,1.0
0,0,0,0.0
15603,-1727,26442,1.0
15237,-1365,25875,0.0
14802,-1014,25189,0.0
14892,-706,25394,0.0
14909,-390,25473,0.0
14911,-73,25526,0.0
14927,244,25602,0.0
14965,565,25713,0.0
14975,887,25778,0.0
14985,1210,25840,0.0
15001,1536,25913,0.0
15024,1865,25994,0.0
15043,2194,26069,0.0
15075,2528,26167,0.0
15096,2863,26242,0.0
15103,3197,26294,0.0
15135,3539,26387,0.0
15144,3878,26439,0.0
15199,4231,26570,0.0
15211,4576,26626,0.0
15240,4928,26709,0.0
15259,5281,26776,0.0
15308,5646,26892,0.0
15331,6006,26965,0.0
26,10,46,0.0
26,11,47,0.0
30,13,55,0.0
28,13,50,0.0
38,19,68,0.0
40,21,70,0.0
40,22,71,0.0
46,26,83,0.0
47,29,85,0.0
45,29,81,0.0
49,31,87,0.0
47,32,85,0.0
50,36,91,0.0
54,39,96,0.0
59,44,106,0.0
59,46,105,0.0
52,42,94,0.0
55,45,98,0.0
57,49,103,0.0
60,53,108,0.0
62,57,112,0.0
60,56,108,0.0
58,57,106,0.0
56,55,99,0.0
66,68,118,0.0
60,63,108,0.0
61,66,109,0.0
56,61,101,0.0
62,69,110,0.0
62,71,111,0.0
63,76,113,0.0
61,75,109,0.0
60,75,108,0.0
63,79,111,0.0
61,81,110,0.0
63,84,113,0.0
64,88,114,0.0
64,90,114,0.0
65,93,117,0.0
64,94,114,0.0
65,98,117,0.0
66,102,118,0.0
69,108,122,0.0
66,106,117,0.0
67,109,118,0.0
67,112,118,0.0
66,112,116,0.0
69,120,121,0.0
70,125,123,0.0
69,124,120,0.0
72,132,126,0.0
72,137,126,0.0
72,140,127,0.0
72,141,124,0.0
72,145,125,0.0
70,144,121,0.0
74,154,129,0.0
73,155,126,0.0
75,163,129,0.0
107,-305,65,0.0
105,-294,66,0.0
104,-289,68,0.0
100,-274,68,0.0
103,-279,71,0.0
102,-272,73,0.0
104,-274,76,0.0
102,-264,77,0.0
100,-256,79,0.0
103,-261,83,0.0
102,-254,84,0.0
106,-259,89,0.0
106,-255,90,0.0
106,-252,92,0.0
110,-259,98,0.0
106,-245,96,0.0
110,-252,102,0.0
110,-249,104,0.0
113,-252,109,0.0
116,-257,114,0.0
113,-246,112,0.0
119,-253,119,0.0
119,-251,121,0.0
116,-242,120,0.0
119,-246,126,0.0
124,-252,133,0.0
131,-263,142,0.0
137,-268,149,0.0
138,-267,154,0.0
143,-274,161,0.0
142,-269,162,0.0
137,-254,158,0.0
136,-247,157,0.0
129,-234,153,0.0
123,-218,146,0.0
125,-218,150,0.0
122,-211,148,0.0
108,-185,132,0.0
115,-192,142,0.0
103,-171,129,0.0
1052,-1706,1324,0.0
1088,-1740,1382,0.0
1068,-1679,1367,0.0
1105,-1711,1426,0.0
15572,-23741,20277,0.0
15531,-23306,20386,0.0
15498,-22886,20503,0.0
15442,-22439,20588,0.0
15403,-22018,20690,0.0
15345,-21577,20764,0.0
15320,-21185,20879,0.0
15256,-20743,20938,0.0
15225,-20349,21039,0.0
15177,-19937,21113,0.0
15137,-19540,21197,0.0
15101,-19150,21282,0.0
15069,-18768,21370,0.0
15023,-18373,21437,0.0
15005,-18015,21540,0.0
14964,-17632,21609,0.0
14932,-17263,21688,0.0
14780,-16760,21589,0.0
14874,-16538,21846,0.0
15113,-16472,22318,0.0
15447,-16497,22932,0.0
0,0,0,0.0
0,0,0,0.0
15553,-15596,23446,1.0
15469,-15178,23435,1.0
0,0,0,0.0
1070,-1003,1637,0.0
15507,-14216,23827,1.0
0,0,0,0.0
15404,-13463,23881,1.0
15456,-13179,24066,1.0
0,0,0,0.0
15450,-12517,24260,1.0
15414,-12162,24304,1.0
0,0,0,0.0
0,0,0,0.0
0,0,0,0.0
15299,-10780,24504,1.0
15338,-10484,24657,1.0
15264,-10114,24630,1.0
0,0,0,0.0
15353,-9529,24949,1.0
0,0,0,0.0
15325,-8868,25075,1.0
15230,-8494,25002,1.0
15294,-8209,25188,1.0
15300,-7892,25279,1.0
15280,-7562,25326,1.0
0,0,0,0.0
15298,-6930,25512,1.0
15261,-6593,25524,1.0
0,0,0,0.0
1115,-434,1876,0.0
15346,-5664,25887,1.0
15256,-5311,25808,1.0
15255,-4989,25873,1.0
15218,-4656,25878,1.0
0,0,0,0.0
15270,-4028,26100,1.0
15247,-3699,26126,1.0
15307,-3390,26291,1.0
15368,-3076,26459,1.0
15268,-2732,26349,1.0
1081,-170,1871,0.0
15262,-2080,26458,1.0
1148,-132,1996,0.0
14939,-1396,26009,0.0
14510,-1044,25315,0.0
14508,-731,25362,0.0
14537,-418,25466,0.0
14540,-103,25519,0.0
14573,213,25627,0.0
14568,531,25665,0.0
14614,853,25792,0.0
14625,1174,25858,0.0
14630,1497,25911,0.0
14652,1824,25994,0.0
14675,2153,26077,0.0
14686,2482,26137,0.0
14709,2815,26219,0.0
14725,3149,26289,0.0
14755,3488,26380,0.0
14758,3824,26422,0.0
14792,4170,26518,0.0
14823,4518,26609,0.0
14841,4865,26675,0.0
14869,5218,26760,0.0
14908,5579,26861,0.0
14937,5938,26946,0.0
26,10,48,0.0
24,11,45,0.0
27,12,50,0.0
30,14,55,0.0
37,19,69,0.0
35,19,64,0.0
39,21,72,0.0
39,23,72,0.0
37,23,70,0.0
41,26,76,0.0
44,29,81,0.0
53,36,98,0.0
48,34,88,0.0
54,40,100,0.0
53,41,99,0.0
53,41,97,0.0
59,48,109,0.0
57,49,106,0.0
61,53,113,0.0
60,54,110,0.0
61,56,113,0.0
64,61,118,0.0
57,56,105,0.0
68,70,127,0.0
59,61,109,0.0
64,68,119,0.0
63,69,116,0.0
58,66,107,0.0
58,66,105,0.0
61,73,113,0.0
58,71,107,0.0
59,73,108,0.0
61,78,112,0.0
61,79,112,0.0
58,78,107,0.0
62,84,112,0.0
63,89,115,0.0
64,92,118,0.0
61,90,113,0.0
63,94,114,0.0
64,98,116,0.0
62,98,114,0.0
64,103,117,0.0
63,103,115,0.0
64,108,117,0.0
65,111,119,0.0
64,112,117,0.0
65,116,117,0.0
68,124,124,0.0
65,121,118,0.0
66,125,119,0.0
69,133,124,0.0
69,138,125,0.0
68,136,122,0.0
68,140,123,0.0
70,147,125,0.0
71,152,127,0.0
70,151,124,0.0
71,158,126,0.0
100,-291,63,0.0
100,-290,66,0.0
96,-273,65,0.0
97,-271,68,0.0
97,-270,71,0.0
95,-258,71,0.0
97,-262,75,0.0
96,-256,76,0.0
99,-260,80,0.0
100,-257,82,0.0
96,-245,82,0.0
103,-257,89,0.0
100,-246,88,0.0
102,-249,92,0.0
102,-247,95,0.0
106,-253,101,0.0
106,-249,101,0.0
105,-245,103,0.0
109,-251,109,0.0
108,-245,110,0.0
108,-240,111,0.0
112,-246,117,0.0
112,-243,119,0.0
114,-244,123,0.0
116,-242,126,0.0
116,-241,129,0.0
120,-247,135,0.0
133,-267,151,0.0
133,-265,153,0.0
138,-270,160,0.0
132,-256,155,0.0
131,-248,155,0.0
122,-230,147,0.0
124,-230,151,0.0
114,-208,140,0.0
117,-211,145,0.0
113,-200,142,0.0
102,-179,130,0.0
99,-171,127,0.0
99,-167,128,0.0
1046,-1737,1356,0.0
1029,-1681,1345,0.0
1057,-1701,1394,0.0
1049,-1661,1394,0.0
15168,-23654,20324,0.0
15110,-23192,20407,0.0
15063,-22752,20502,0.0
15016,-22316,20593,0.0
14980,-21902,20697,0.0
14944,-21490,20796,0.0
14889,-21057,20867,0.0
14854,-20655,20963,0.0
14820,-20258,21056,0.0
14769,-19842,21122,0.0
14746,-19466,21225,0.0
14710,-19077,21309,0.0
14674,-18690,21386,0.0
14635,-18303,21460,0.0
14614,-17942,21556,0.0
14579,-17567,21630,0.0
14548,-17199,21707,0.0
14511,-16828,21774,0.0
14474,-16457,21835,0.0
14713,-16398,22315,0.0
15080,-16472,22995,0.0
15245,-16311,23364,1.0
0,0,0,0.0
0,0,0,0.0
0,0,0,0.0
15070,-14790,23551,1.0
15113,-14501,23729,1.0
0,0,0,0.0
0,0,0,0.0
15046,-13449,23942,1.0
0,0,0,0.0
15044,-12794,24146,1.0
14994,-12427,24164,1.0
14956,-12073,24202,1.0
14931,-11729,24257,1.0
14960,-11430,24399,1.0
14961,-11108,24493,1.0
14935,-10768,24543,1.0
14892,-10418,24564,1.0
14942,-10131,24734,1.0
14884,-9774,24727,1.0
0,0,0,0.0
14959,-9182,25024,1.0
14933,-8847,25063,1.0
0,0,0,0.0
0,0,0,0.0
0,0,0,0.0
1076,-545,1829,0.0
0,0,0,0.0
0,0,0,0.0
14934,-6613,25620,1.0
14905,-6282,25645,1.0
1079,-430,1862,0.0
14887,-5636,25756,1.0
14899,-5322,25847,1.0
14909,-5005,25935,1.0
14839,-4662,25881,1.0
0,0,0,0.0
14887,-4036,26097,1.0
14829,-3701,26059,1.0
14880,-3392,26211,1.0
14853,-3065,26228,1.0
0,0,0,0.0
1037,-169,1841,0.0
15014,-2119,26693,1.0
14968,-1785,26670,1.0
14694,-1430,26238,0.0
14137,-1066,25295,0.0
14156,-757,25382,0.0
14180,-445,25476,0.0
14189,-131,25541,0.0
14203,183,25616,0.0
14206,499,25668,0.0
14223,817,25747,0.0
14252,1138,25844,0.0
14268,1461,25918,0.0
14281,1785,25987,0.0
14298,2110,26060,0.0
14313,2438,26130,0.0
14327,2769,26196,0.0
14358,3104,26293,0.0
14368,3437,26350,0.0
14407,3780,26458,0.0
14415,4117,26509,0.0
14450,4465,26613,0.0
14464,4809,26672,0.0
14484,5158,26744,0.0
14501,5508,26807,0.0
29,12,56,0.0
27,11,50,0.0
27,12,53,0.0
31,14,59,0.0
25,12,49,0.0
36,19,68,0.0
31,17,58,0.0
40,22,74,0.0
36,21,66,0.0
40,25,77,0.0
43,27,82,0.0
45,31,86,0.0
44,31,83,0.0
47,35,91,0.0
49,36,92,0.0
50,39,94,0.0
51,41,96,0.0
50,42,96,0.0
54,47,104,0.0
52,47,100,0.0
56,51,106,0.0
55,52,105,0.0
57,55,108,0.0
59,59,113,0.0
58,59,109,0.0
59,62,112,0.0
54,59,102,0.0
55,61,105,0.0
52,59,99,0.0
57,67,108,0.0
52,64,101,0.0
57,71,110,0.0
57,72,107,0.0
57,75,109,0.0
58,78,111,0.0
54,75,103,0.0
58,81,111,0.0
56,81,108,0.0
58,86,111,0.0
59,88,112,0.0
59,90,111,0.0
58,92,110,0.0
59,95,111,0.0
60,99,114,0.0
58,98,110,0.0
61,105,115,0.0
64,111,120,0.0
65,115,121,0.0
63,115,118,0.0
63,117,117,0.0
61,118,116,0.0
64,125,121,0.0
64,125,118,0.0
67,136,125,0.0
65,133,119,0.0
65,136,120,0.0
66,141,121,0.0
67,148,124,0.0
65,147,121,0.0
66,151,122,0.0
99,-296,66,0.0
97,-288,67,0.0
95,-279,68,0.0
96,-276,70,0.0
93,-266,71,0.0
95,-265,74,0.0
94,-259,75,0.0
95,-260,78,0.0
95,-256,80,0.0
94,-250,81,0.0
97,-254,86,0.0
98,-254,89,0.0
100,-256,92,0.0
100,-251,94,0.0
101,-249,97,0.0
104,-253,101,0.0
101,-242,100,0.0
103,-246,105,0.0
108,-251,111,0.0
107,-248,112,0.0
108,-247,115,0.0
108,-242,116,0.0
114,-251,124,0.0
113,-248,126,0.0
113,-243,127,0.0
117,-250,134,0.0
126,-263,145,0.0
129,-268,152,0.0
137,-278,163,0.0
129,-258,155,0.0
130,-257,157,0.0
127,-248,156,0.0
124,-237,153,0.0
115,-217,143,0.0
121,-225,153,0.0
115,-211,147,0.0
97,-177,126,0.0
103,-185,136,0.0
105,-185,139,0.0
1023,-1765,1354,0.0
1033,-1756,1380,0.0
1021,-1708,1375,0.0
1042,-1716,1414,0.0
1014,-1646,1389,0.0
14743,-23529,20337,0.0
14703,-23095,20440,0.0
14658,-22657,20533,0.0
14611,-22219,20619,0.0
14580,-21813,20725,0.0
14546,-21405,20825,0.0
14512,-20999,20920,0.0
14459,-20571,20986,0.0
14415,-20162,21063,0.0
14380,-19766,21148,0.0
14352,-19383,21240,0.0
14327,-19010,21337,0.0
14288,-18619,21408,0.0
14263,-18250,21497,0.0
14208,-17847,21542,0.0
14201,-17506,21653,0.0
14156,-17121,21707,0.0
14125,-16757,21778,0.0
14101,-16403,21859,0.0
14386,-16405,22419,0.0
14682,-16406,22998,0.0
0,0,0,0.0
14789,-15853,23400,1.0
14829,-15559,23579,1.0
0,0,0,0.0
14813,-14874,23775,1.0
14778,-14507,23828,1.0
0,0,0,0.0
0,0,0,0.0
14664,-13412,23958,1.0
14695,-13115,24114,1.0
0,0,0,0.0
14561,-12349,24090,1.0
14605,-12064,24261,1.0
0,0,0,0.0
14527,-11360,24322,1.0
14518,-11034,24398,1.0
14518,-10715,24489,1.0
14510,-10390,24564,1.0
1048,-727,1783,0.0
0,0,0,0.0
14541,-9459,24880,1.0
0,0,0,0.0
14512,-8806,24997,1.0
0,0,0,0.0
0,0,0,0.0
1069,-579,1861,0.0
0,0,0,0.0
14446,-7189,25279,1.0
14537,-6918,25513,1.0
1066,-483,1877,0.0
14543,-6285,25674,1.0
14586,-5985,25820,1.0
1036,-403,1841,0.0
14451,-5299,25723,1.0
14539,-5011,25948,1.0
0,0,0,0.0
0,0,0,0.0
14607,-4073,26269,1.0
14505,-3725,26151,1.0
14497,-3403,26201,1.0
14447,-3072,26172,1.0
14462,-2755,26261,1.0
14431,-2429,26264,1.0
1047,-153,1909,0.0
14595,-1807,26679,1.0
14348,-1456,26283,0.0
13786,-1090,25308,0.0
13799,-781,25383,0.0
13817,-471,25468,0.0
13820,-159,25522,0.0
13843,153,25613,0.0
13852,468,25679,0.0
13864,784,25748,0.0
13876,1103,25817,0.0
13878,1422,25866,0.0
13922,1747,25993,0.0
13924,2069,26038,0.0
13949,2397,26128,0.0
13959,2724,26188,0.0
13990,3058,26289,0.0
14005,3391,26355,0.0
14023,3727,26429,0.0
14053,4069,26523,0.0
14074,4410,26598,0.0
14084,4751,26654,0.0
23,8,45,0.0
24,9,48,0.0
23,9,44,0.0
24,9,47,0.0
24,10,47,0.0
27,12,52,0.0
31,15,59,0.0
32,17,62,0.0
33,18,63,0.0
36,21,71,0.0
37,23,74,0.0
39,25,77,0.0
43,28,83,0.0
40,27,78,0.0
44,31,86,0.0
42,31,82,0.0
50,38,97,0.0
48,37,92,0.0
44,36,88,0.0
53,45,103,0.0
52,45,102,0.0
53,49,105,0.0
51,48,100,0.0
56,54,109,0.0
56,55,109,0.0
54,55,105,0.0
53,55,103,0.0
49,53,95,0.0
52,59,103,0.0
55,63,107,0.0
54,63,105,0.0
54,65,106,0.0
51,63,100,0.0
55,69,107,0.0
54,70,106,0.0
56,74,109,0.0
54,74,106,0.0
56,79,111,0.0
55,78,107,0.0
55,81,108,0.0
57,85,111,0.0
58,90,114,0.0
55,86,107,0.0
54,88,106,0.0
56,91,108,0.0
57,96,111,0.0
59,100,114,0.0
59,103,114,0.0
60,108,117,0.0
58,106,112,0.0
60,111,116,0.0
61,116,117,0.0
61,118,117,0.0
61,121,118,0.0
62,126,119,0.0
63,130,120,0.0
61,129,117,0.0
64,137,121,0.0
64,141,122,0.0
65,144,123,0.0
63,143,119,0.0
64,151,122,0.0
92,-284,64,0.0
93,-284,67,0.0
94,-280,69,0.0
89,-263,68,0.0
88,-259,70,0.0
90,-258,73,0.0
91,-260,77,0.0
94,-264,80,0.0
88,-245,78,0.0
94,-256,84,0.0
91,-243,83,0.0
93,-247,87,0.0
98,-256,94,0.0
94,-243,92,0.0
95,-241,95,0.0
100,-250,101,0.0
99,-247,103,0.0
100,-244,104,0.0
104,-249,111,0.0
103,-245,112,0.0
106,-249,117,0.0
106,-244,118,0.0
109,-248,124,0.0
110,-246,127,0.0
108,-238,126,0.0
114,-248,134,0.0
122,-264,147,0.0
128,-270,154,0.0
127,-265,156,0.0
123,-252,152,0.0
125,-253,157,0.0
121,-241,153,0.0
113,-222,145,0.0
116,-225,150,0.0
110,-211,144,0.0
107,-201,141,0.0
101,-187,135,0.0
100,-183,134,0.0
104,-187,141,0.0
89,-159,123,0.0
994,-1730,1368,0.0
970,-1663,1347,0.0
996,-1681,1394,0.0
14352,-23826,20227,0.0
14336,-23426,20362,0.0
14281,-22968,20441,0.0
14249,-22549,20548,0.0
14204,-22115,20633,0.0
14177,-21713,20741,0.0
14137,-21295,20828,0.0
14099,-20885,20915,0.0
14061,-20479,20999,0.0
14025,-20079,21082,0.0
13984,-19676,21155,0.0
13965,-19305,21258,0.0
13930,-18918,21335,0.0
13885,-18520,21396,0.0
13861,-18154,21484,0.0
13836,-17790,21570,0.0
13801,-17414,21636,0.0
13766,-17042,21701,0.0
13747,-16692,21787,0.0
13741,-16361,21895,0.0
14116,-16475,22610,0.0
14311,-16368,23039,1.0
14465,-16207,23405,1.0
0,0,0,0.0
14413,-15479,23546,1.0
0,0,0,0.0
14364,-14763,23685,1.0
0,0,0,0.0
14351,-14092,23878,1.0
0,0,0,0.0
14220,-13315,23866,1.0
14236,-13006,23991,1.0
14174,-12627,23985,1.0
14189,-12320,24108,1.0
14200,-12009,24223,1.0
14125,-11628,24190,1.0
14194,-11365,24401,1.0
14172,-11029,24454,1.0
14116,-10669,24448,1.0
14110,-10349,24527,1.0
14105,-10029,24605,1.0
14102,-9711,24684,1.0
14174,-9444,24897,1.0
14127,-9097,24897,1.0
0,0,0,0.0
14149,-8481,25101,1.0
14138,-8159,25161,1.0
0,0,0,0.0
14155,-7537,25346,1.0
14126,-7208,25372,1.0
0,0,0,0.0
14116,-6573,25502,1.0
14194,-6293,25717,1.0
0,0,0,0.0
14140,-5639,25762,1.0
14198,-5344,25937,1.0
14129,-5002,25878,1.0
0,0,0,0.0
14185,-4387,26117,1.0
14174,-4065,26163,1.0
14166,-3743,26210,1.0
0,0,0,0.0
14140,-3099,26289,1.0
14166,-2785,26398,1.0
14140,-2459,26410,1.0
1056,-160,1978,0.0
14317,-1839,26859,1.0
13958,-1475,26243,0.0
13426,-1112,25295,0.0
13439,-805,25371,0.0
13453,-496,25448,0.0
13477,-186,25545,0.0
13483,124,25606,0.0
13482,437,25653,0.0
13501,753,25737,0.0
13528,1070,25835,0.0
13529,1388,25881,0.0
13554,1709,25973,0.0
13583,2034,26076,0.0
13601,2359,26152,0.0
13593,2682,26178,0.0
13625,3014,26281,0.0
13643,3346,26357,0.0
13660,3680,26429,0.0
13680,4017,26505,0.0
13717,4363,26615,0.0
13718,4700,26655,0.0
24,9,49,0.0
16,6,32,0.0
24,10,49,0.0
18,8,36,0.0
28,13,55,0.0
24,12,46,0.0
18,8,35,0.0
26,14,54,0.0
28,15,55,0.0
37,22,74,0.0
32,19,63,0.0
31,20,62,0.0
44,29,88,0.0
36,25,71,0.0
39,28,78,0.0
43,32,87,0.0
43,34,85,0.0
49,39,98,0.0
51,43,103,0.0
47,40,93,0.0
52,47,105,0.0
52,48,105,0.0
53,51,106,0.0
52,52,106,0.0
50,51,102,0.0
52,55,106,0.0
51,55,102,0.0
51,57,103,0.0
59,67,119,0.0
51,59,101,0.0
51,60,102,0.0
44,54,90,0.0
49,61,97,0.0
54,69,107,0.0
52,69,104,0.0
52,70,103,0.0
52,72,104,0.0
52,75,105,0.0
53,78,107,0.0
53,79,105,0.0
51,79,104,0.0
55,87,111,0.0
56,89,112,0.0
52,88,106,0.0
54,91,109,0.0
56,96,113,0.0
55,96,109,0.0
56,101,112,0.0
57,104,114,0.0
56,105,112,0.0
59,112,117,0.0
58,113,116,0.0
57,115,114,0.0
58,119,116,0.0
60,126,120,0.0
60,126,118,0.0
58,126,115,0.0
59,129,116,0.0
60,137,119,0.0
61,140,120,0.0
61,145,121,0.0
60,144,118,0.0
93,-295,67,0.0
93,-293,70,0.0
89,-276,69,0.0
90,-274,72,0.0
88,-264,72,0.0
91,-269,77,0.0
89,-259,76,0.0
92,-263,81,0.0
91,-257,83,0.0
93,-260,87,0.0
95,-261,90,0.0
97,-264,95,0.0
96,-257,95,0.0
98,-258,99,0.0
97,-253,100,0.0
101,-260,106,0.0
101,-256,108,0.0
104,-262,114,0.0
103,-253,113,0.0
105,-253,117,0.0
106,-254,121,0.0
108,-254,124,0.0
108,-253,128,0.0
110,-254,131,0.0
111,-250,133,0.0
113,-251,137,0.0
119,-261,146,0.0
124,-270,156,0.0
124,-266,158,0.0
126,-264,161,0.0
121,-250,156,0.0
120,-246,157,0.0
117,-237,154,0.0
115,-229,153,0.0
110,-216,148,0.0
112,-215,152,0.0
102,-195,141,0.0
104,-194,143,0.0
89,-166,126,0.0
968,-1752,1361,0.0
984,-1755,1396,0.0
991,-1742,1418,0.0
956,-1652,1378,0.0
13964,-23750,20276,0.0
13951,-23355,20414,0.0
13898,-22896,20489,0.0
13856,-22461,20578,0.0
13820,-22040,20672,0.0
13776,-21613,20753,0.0
13748,-21212,20853,0.0
13713,-20806,20941,0.0
13686,-20415,21038,0.0
13649,-20013,21117,0.0
13626,-19634,21212,0.0
13589,-19240,21286,0.0
13546,-18839,21347,0.0
13530,-18483,21450,0.0
13500,-18107,21526,0.0
13467,-17731,21594,0.0
13432,-17356,21658,0.0
13405,-16994,21732,0.0
13390,-16650,21824,0.0
13423,-16367,21993,0.0
13802,-16496,22730,0.0
13936,-16321,23065,1.0
0,0,0,0.0
0,0,0,0.0
0,0,0,0.0
13961,-15024,23553,1.0
13983,-14718,23698,1.0
14003,-14410,23839,1.0
13888,-13967,23746,1.0
13895,-13649,23860,1.0
13910,-13340,23989,1.0
13826,-12938,23942,1.0
13826,-12617,24039,1.0
13822,-12294,24129,1.0
13809,-11963,24201,1.0
0,0,0,0.0
13817,-11334,24400,1.0
0,0,0,0.0
13776,-10667,24507,1.0
13798,-10367,24633,1.0
0,0,0,0.0
976,-689,1756,0.0
13758,-9394,24819,1.0
0,0,0,0.0
13747,-8761,24963,1.0
1012,-621,1845,0.0
13756,-8139,25138,1.0
13708,-7799,25130,1.0
13718,-7492,25224,1.0
1056,-552,1951,0.0
13825,-6921,25571,1.0
0,0,0,0.0
13815,-6287,25700,1.0
0,0,0,0.0
13776,-5641,25769,1.0
13770,-5325,25829,1.0
0,0,0,0.0
13806,-4707,26031,1.0
13781,-4382,26051,1.0
13815,-4076,26180,1.0
13765,-3746,26149,1.0
13741,-3423,26166,1.0
13769,-3113,26283,1.0
13787,-2797,26377,1.0
13815,-2484,26491,1.0
13787,-2159,26497,1.0
1036,-139,1997,0.0
13634,-1501,26316,0.0
13079,-1134,25299,0.0
13077,-827,25348,0.0
13089,-521,25423,0.0
13106,-212,25505,0.0
13119,96,25580,0.0
13138,408,25667,0.0
13144,721,25727,0.0
13155,1036,25793,0.0
13180,1353,25891,0.0
13177,1670,25930,0.0
13205,1993,26028,0.0
13219,2316,26102,0.0
13243,2642,26190,0.0
13262,2970,26269,0.0
13266,3297,26320,0.0
13282,3629,26391,0.0
13311,3967,26487,0.0
13329,4305,26563,0.0
13351,4647,26644,0.0
13371,4990,26720,0.0
23,8,47,0.0
31,12,63,0.0
19,8,40,0.0
31,14,64,0.0
31,15,63,0.0
39,20,78,0.0
31,17,64,0.0
33,19,70,0.0
32,19,66,0.0
39,24,81,0.0
41,27,85,0.0
36,25,74,0.0
39,28,81,0.0
49,36,100,0.0
45,35,93,0.0
48,38,99,0.0
45,37,93,0.0
46,40,96,0.0
51,45,106,0.0
50,46,104,0.0
52,49,108,0.0
50,49,104,0.0
55,55,114,0.0
56,58,116,0.0
53,56,108,0.0
57,63,120,0.0
55,62,114,0.0
57,66,117,0.0
52,62,107,0.0
52,63,106,0.0
50,63,105,0.0
52,68,108,0.0
54,70,111,0.0
53,72,110,0.0
52,73,108,0.0
51,72,104,0.0
51,76,107,0.0
54,80,111,0.0
51,78,106,0.0
52,81,107,0.0
51,82,105,0.0
54,88,111,0.0
53,90,110,0.0
53,91,109,0.0
54,96,112,0.0
53,95,110,0.0
54,100,113,0.0
57,107,117,0.0
56,107,115,0.0
57,112,117,0.0
56,112,115,0.0
55,112,112,0.0
56,116,115,0.0
58,124,119,0.0
59,128,121,0.0
57,127,117,0.0
60,136,122,0.0
60,139,123,0.0
63,147,127,0.0
59,143,121,0.0
59,145,120,0.0
85,-279,65,0.0
84,-271,66,0.0
84,-268,68,0.0
82,-257,68,0.0
86,-266,74,0.0
84,-259,75,0.0
84,-252,76,0.0
87,-256,80,0.0
84,-243,79,0.0
89,-257,86,0.0
92,-259,91,0.0
91,-257,92,0.0
89,-247,93,0.0
92,-250,97,0.0
94,-252,101,0.0
96,-253,104,0.0
97,-254,108,0.0
99,-254,111,0.0
98,-250,113,0.0
100,-251,117,0.0
104,-255,122,0.0
101,-246,122,0.0
107,-254,129,0.0
106,-251,130,0.0
106,-249,133,0.0
114,-262,144,0.0
113,-256,145,0.0
115,-258,149,0.0
117,-257,153,0.0
118,-255,156,0.0
122,-260,163,0.0
113,-237,152,0.0
112,-232,154,0.0
106,-217,147,0.0
100,-201,139,0.0
102,-201,143,0.0
99,-191,140,0.0
91,-174,129,0.0
83,-156,119,0.0
82,-152,119,0.0
946,-1729,1383,0.0
920,-1655,1356,0.0
969,-1717,1439,0.0
13568,-23654,20306,0.0
13541,-23234,20419,0.0
13497,-22791,20505,0.0
13442,-22334,20570,0.0
13414,-21928,20673,0.0
13393,-21535,20783,0.0
13352,-21113,20859,0.0
13318,-20708,20944,0.0
13286,-20309,21029,0.0
13261,-19925,21123,0.0
13223,-19526,21194,0.0
13200,-19151,21285,0.0
13187,-18792,21390,0.0
13156,-18414,21465,0.0
13110,-18016,21511,0.0
13094,-17664,21605,0.0
13069,-17302,21683,0.0
13035,-16932,21743,0.0
13004,-16567,21804,0.0
13162,-16442,22183,0.0
13485,-16513,22841,0.0
0,0,0,0.0
0,0,0,0.0
13635,-15694,23435,1.0
13588,-15312,23465,1.0
0,0,0,0.0
13594,-14661,23688,1.0
13586,-14324,23778,1.0
13563,-13975,23841,1.0
13500,-13587,23830,1.0
13504,-13269,23937,1.0
0,0,0,0.0
13491,-12616,24111,1.0
0,0,0,0.0
0,0,0,0.0
13426,-11602,24274,1.0
0,0,0,0.0
13362,-10919,24337,1.0
13411,-10643,24513,1.0
13455,-10363,24682,1.0
13354,-9974,24585,1.0
13322,-9638,24607,1.0
0,0,0,0.0
0,0,0,0.0
0,0,0,0.0
13334,-8403,24955,1.0
13383,-8122,25125,1.0
13385,-7812,25206,1.0
13381,-7498,25275,1.0
13403,-7198,25392,1.0
13391,-6881,25444,1.0
13372,-6559,25481,1.0
13383,-6253,25573,1.0
1054,-467,2020,0.0
13374,-5626,25697,1.0
13400,-5324,25815,1.0
13481,-5041,26040,1.0
13426,-4707,26001,1.0
0,0,0,0.0
0,0,0,0.0
1005,-281,1961,0.0
0,0,0,0.0
13448,-3135,26365,1.0
963,-202,1894,0.0
1003,-186,1976,0.0
13355,-2165,26361,1.0
961,-133,1902,0.0
13266,-1520,26301,0.0
12735,-1155,25302,0.0
12728,-850,25339,0.0
12746,-545,25427,0.0
12770,-238,25528,0.0
12775,69,25588,0.0
12784,379,25654,0.0
12802,691,25738,0.0
12812,1004,25805,0.0
12820,1319,25869,0.0
12830,1635,25934,0.0
12858,1957,26038,0.0
12886,2281,26138,0.0
12883,2601,26175,0.0
12900,2927,26253,0.0
12915,3255,26325,0.0
12943,3588,26422,0.0
12944,3918,26466,0.0
12965,4255,26547,0.0
12986,4594,26629,0.0
13018,4940,26731,0.0
13,5,28,0.0
13,5,28,0.0
17,8,36,0.0
19,9,41,0.0
28,15,61,0.0
23,12,50,0.0
31,18,66,0.0
23,13,49,0.0
30,18,63,0.0
31,20,66,0.0
34,23,74,0.0
33,23,70,0.0
38,28,80,0.0
34,26,73,0.0
37,28,77,0.0
39,32,84,0.0
37,32,80,0.0
41,35,87,0.0
49,44,104,0.0
47,44,99,0.0
45,44,97,0.0
49,48,104,0.0
47,48,100,0.0
49,51,103,0.0
48,53,102,0.0
49,55,104,0.0
47,54,100,0.0
52,61,110,0.0
48,59,104,0.0
46,58,98,0.0
46,59,97,0.0
46,61,98,0.0
46,62,98,0.0
46,65,99,0.0
47,68,102,0.0
47,69,99,0.0
47,70,100,0.0
47,72,101,0.0
46,72,97,0.0
46,76,100,0.0
46,77,100,0.0
49,82,104,0.0
48,83,102,0.0
49,87,105,0.0
47,86,101,0.0
50,92,107,0.0
52,97,110,0.0
52,101,111,0.0
51,101,109,0.0
53,108,115,0.0
53,109,113,0.0
52,109,110,0.0
54,115,113,0.0
52,113,110,0.0
54,121,114,0.0
55,124,116,0.0
54,125,113,0.0
56,131,116,0.0
54,132,114,0.0
55,137,116,0.0
57,143,118,0.0
85,-288,68,0.0
86,-287,71,0.0
85,-279,72,0.0
82,-267,72,0.0
84,-267,75,0.0
86,-269,79,0.0
85,-263,81,0.0
86,-264,84,0.0
90,-269,88,0.0
87,-259,88,0.0
89,-261,92,0.0
90,-258,95,0.0
92,-263,100,0.0
95,-265,104,0.0
97,-267,109,0.0
97,-262,110,0.0
98,-263,113,0.0
100,-263,116,0.0
100,-259,119,0.0
99,-256,120,0.0
103,-260,125,0.0
104,-260,129,0.0
106,-259,133,0.0
103,-251,133,0.0
107,-258,139,0.0
111,-262,145,0.0
116,-271,154,0.0
120,-275,161,0.0
115,-262,157,0.0
124,-273,169,0.0
122,-268,169,0.0
112,-241,156,0.0
106,-225,149,0.0
109,-228,155,0.0
106,-219,153,0.0
102,-207,148,0.0
100,-200,147,0.0
91,-180,135,0.0
92,-178,137,0.0
941,-1794,1409,0.0
936,-1756,1412,0.0
936,-1728,1423,0.0
947,-1721,1451,0.0
13177,-23562,20336,0.0
13145,-23133,20437,0.0
13102,-22690,20520,0.0
13083,-22293,20637,0.0
13036,-21852,20706,0.0
12994,-21425,20780,0.0
12964,-21021,20870,0.0
12952,-20650,20986,0.0
12917,-20245,21061,0.0
12892,-19860,21153,0.0
12859,-19467,21227,0.0
12836,-19094,21317,0.0
12794,-18694,21371,0.0
12791,-18353,21486,0.0
12767,-17987,21567,0.0
12732,-17608,21627,0.0
12710,-17249,21705,0.0
12642,-16833,21705,0.0
12670,-16547,21865,0.0
12827,-16426,22248,0.0
13143,-16498,22909,0.0
13245,-16292,23199,1.0
13233,-15945,23290,1.0
13241,-15625,23415,1.0
0,0,0,0.0
0,0,0,0.0
0,0,0,0.0
0,0,0,0.0
908,-958,1641,0.0
13097,-13513,23777,1.0
13160,-13257,23990,1.0
0,0,0,0.0
13143,-12601,24153,1.0
13140,-12278,24239,1.0
13107,-11931,24272,1.0
13099,-11607,24348,1.0
13126,-11314,24488,1.0
13039,-10926,24417,1.0
0,0,0,0.0
0,0,0,0.0
13059,-10003,24710,1.0
0,0,0,0.0
13029,-9357,24820,1.0
13036,-9052,24917,1.0
0,0,0,0.0
1016,-657,1955,0.0
978,-608,1889,0.0
958,-573,1854,0.0
12998,-7476,25230,1.0
0,0,0,0.0
13020,-6869,25421,1.0
13104,-6601,25662,1.0
961,-461,1888,0.0
13014,-5936,25626,1.0
12989,-5615,25645,1.0
12998,-5309,25732,1.0
0,0,0,0.0
972,-351,1937,0.0
13033,-4388,26002,1.0
13034,-4075,26068,1.0
13042,-3765,26149,1.0
947,-250,1904,0.0
1009,-243,2034,0.0
975,-211,1969,0.0
13056,-2509,26422,1.0
12942,-2174,26249,1.0
957,-138,1947,0.0
12882,-1536,26243,0.0
12411,-1177,25338,0.0
12328,-868,25220,0.0
12398,-568,25415,0.0
12420,-263,25511,0.0
12434,43,25590,0.0
12441,351,25655,0.0
12441,661,25704,0.0
12444,972,25760,0.0
12485,1287,25891,0.0
12492,1602,25953,0.0
12500,1920,26014,0.0
12522,2241,26104,0.0
12532,2562,26170,0.0
12543,2885,26237,0.0
12561,3212,26316,0.0
12572,3540,26380,0.0
12585,3871,26450,0.0
12606,4206,26535,0.0
12638,4548,26642,0.0
19,7,41,0.0
31,12,68,0.0
23,10,51,0.0
19,9,42,0.0
29,14,64,0.0
29,15,64,0.0
26,14,58,0.0
31,18,69,0.0
30,18,65,0.0
32,21,70,0.0
40,26,88,0.0
44,30,97,0.0
37,27,81,0.0
40,29,87,0.0
44,34,96,0.0
43,34,93,0.0
45,37,97,0.0
49,42,107,0.0
49,43,107,0.0
49,46,108,0.0
51,48,112,0.0
53,53,117,0.0
49,50,106,0.0
51,53,111,0.0
53,57,115,0.0
52,58,115,0.0
48,55,105,0.0
56,66,122,0.0
50,60,109,0.0
55,69,120,0.0
48,62,106,0.0
49,65,107,0.0
51,70,114,0.0
47,66,104,0.0
50,72,111,0.0
50,73,110,0.0
46,68,101,0.0
44,68,98,0.0
49,77,108,0.0
48,77,106,0.0
47,78,104,0.0
49,82,107,0.0
49,85,109,0.0
51,90,113,0.0
50,91,111,0.0
50,92,110,0.0
51,97,112,0.0
50,96,109,0.0
51,100,110,0.0
53,108,117,0.0
53,108,115,0.0
53,111,116,0.0
52,112,114,0.0
53,118,117,0.0
54,121,118,0.0
55,126,119,0.0
53,125,116,0.0
54,128,117,0.0
56,136,122,0.0
55,139,121,0.0
55,139,119,0.0
56,146,122,0.0
80,-277,66,0.0
79,-269,67,0.0
76,-257,68,0.0
80,-265,72,0.0
79,-261,75,0.0
80,-258,76,0.0
84,-265,82,0.0
81,-255,82,0.0
81,-250,83,0.0
85,-260,89,0.0
86,-259,92,0.0
86,-256,95,0.0
86,-251,96,0.0
87,-253,99,0.0
91,-259,105,0.0
94,-263,110,0.0
93,-257,111,0.0
93,-252,112,0.0
94,-253,116,0.0
95,-251,119,0.0
93,-243,119,0.0
95,-245,122,0.0
100,-252,130,0.0
98,-243,129,0.0
98,-241,131,0.0
105,-255,143,0.0
112,-266,153,0.0
114,-268,158,0.0
111,-258,155,0.0
111,-256,158,0.0
107,-242,154,0.0
105,-233,151,0.0
100,-218,146,0.0
106,-229,157,0.0
96,-202,141,0.0
103,-215,154,0.0
92,-190,140,0.0
84,-169,128,0.0
893,-1772,1367,0.0
905,-1769,1398,0.0
918,-1766,1429,0.0
900,-1705,1412,0.0
12802,-23871,20233,0.0
12773,-23442,20337,0.0
12751,-23030,20452,0.0
12725,-22615,20555,0.0
12689,-22187,20641,0.0
12656,-21767,20727,0.0
12620,-21349,20806,0.0
12602,-20964,20912,0.0
12580,-20577,21010,0.0
12553,-20185,21096,0.0
12500,-19755,21135,0.0
12484,-19388,21236,0.0
12465,-19018,21326,0.0
12431,-18631,21391,0.0
12408,-18264,21473,0.0
12376,-17886,21535,0.0
12350,-17519,21607,0.0
12342,-17181,21707,0.0
12193,-16652,21556,0.0
12309,-16488,21872,0.0
12479,-16390,22283,0.0
12772,-16443,22918,0.0
12908,-16284,23274,1.0
12906,-15949,23381,1.0
12940,-15660,23551,1.0
0,0,0,0.0
12812,-14852,23528,1.0
12789,-14501,23589,1.0
12792,-14181,23695,1.0
12752,-13816,23722,1.0
12811,-13559,23931,1.0
0,0,0,0.0
12712,-12818,23937,1.0
12731,-12520,24067,1.0
12776,-12247,24245,1.0
12756,-11912,24299,1.0
12711,-11555,24305,1.0
12752,-11278,24471,1.0
12711,-10928,24480,1.0
12709,-10614,24561,1.0
12716,-10308,24663,1.0
12698,-9981,24711,1.0
0,0,0,0.0
12674,-9342,24829,1.0
891,-634,1751,0.0
12703,-8743,25045,1.0
920,-610,1820,0.0
12695,-8117,25185,1.0
0,0,0,0.0
12667,-7482,25280,1.0
12634,-7155,25288,1.0
12742,-6906,25579,1.0
12724,-6585,25617,1.0
12683,-6255,25605,1.0
12723,-5965,25757,1.0
12726,-5656,25831,1.0
12644,-5310,25733,1.0
12686,-5019,25887,1.0
908,-338,1859,0.0
898,-312,1843,0.0
12718,-4096,26148,1.0
921,-274,1900,0.0
1034,-282,2137,0.0
981,-244,2034,0.0
974,-218,2024,0.0
12675,-2520,26372,1.0
957,-166,1997,0.0
12656,-1887,26448,1.0
12547,-1558,26277,0.0
12104,-1201,25405,0.0
12011,-891,25263,0.0
12060,-591,25417,0.0
12078,-287,25508,0.0
12093,17,25588,0.0
12112,324,25678,0.0
12110,633,25724,0.0
12128,943,25810,0.0
12132,1255,25867,0.0
12153,1570,25959,0.0
12164,1887,26032,0.0
12175,2204,26099,0.0
12183,2524,26162,0.0
12198,2846,26236,0.0
12211,3171,26309,0.0
12224,3498,26379,0.0
12250,3831,26476,0.0
12268,4164,26558,0.0
20,7,45,0.0
20,8,45,0.0
16,6,35,0.0
23,10,51,0.0
20,9,45,0.0
30,15,69,0.0
23,12,52,0.0
34,19,75,0.0
29,17,64,0.0
32,19,70,0.0
34,22,76,0.0
34,23,78,0.0
32,22,72,0.0
34,25,76,0.0
40,31,91,0.0
41,32,93,0.0
46,38,103,0.0
44,37,98,0.0
38,33,84,0.0
46,41,102,0.0
44,41,97,0.0
46,45,104,0.0
44,46,101,0.0
46,47,103,0.0
45,48,100,0.0
47,52,106,0.0
49,56,111,0.0
46,54,104,0.0
49,60,111,0.0
51,63,115,0.0
50,64,114,0.0
47,62,108,0.0
46,62,104,0.0
49,69,113,0.0
46,66,105,0.0
40,60,93,0.0
46,68,105,0.0
48,73,110,0.0
43,69,99,0.0
43,71,100,0.0
47,77,106,0.0
43,72,97,0.0
44,76,101,0.0
40,72,92,0.0
46,84,105,0.0
44,83,102,0.0
44,82,99,0.0
