//X,Y,Z,Classification
-16457,24258,30996,0.0
-16620,23957,31334,0.0
-16640,23448,31401,0.0
-16823,23169,31772,0.0
0,0,0,0.0
0,0,0,0.0
-15900,20408,30096,0.0
-15869,19883,30056,0.0
-16120,19709,30548,0.0
-15880,18939,30108,0.0
-16340,19001,30994,0.0
-17832,20210,33836,0.0
-17797,19652,33781,0.0
-17704,19035,33612,0.0
-17643,18465,33505,0.0
-17570,17889,33372,0.0
-17471,17295,33186,0.0
-17428,16765,33106,0.0
-17418,16273,33088,0.0
0,0,0,0.0
-17346,15255,32947,0.0
0,0,0,0.0
0,0,0,0.0
-17125,13679,32507,0.0
-17067,13180,32386,0.0
0,0,0,0.0
0,0,0,0.0
-17009,11803,32239,0.0
-16836,11249,31895,0.0
-16474,10585,31192,0.0
-16566,10224,31348,0.0
-16661,9861,31509,0.0
0,0,0,0.0
0,0,0,0.0
-17123,8853,32315,0.0
-17427,8579,32860,0.0
-13599,6361,25620,0.0
-13587,6024,25575,0.0
-13573,5688,25522,0.0
-13529,5343,25415,0.0
-13528,5018,25388,0.0
-13486,4680,25281,0.0
-13468,4354,25218,0.0
-13426,4023,25110,0.0
-13415,3704,25059,0.0
-13415,3388,25026,0.0
-13388,3070,24945,0.0
-13368,2754,24873,0.0
-13348,2440,24801,0.0
-13310,2127,24695,0.0
-13291,1819,24622,0.0
-13274,1512,24554,0.0
-13261,1208,24490,0.0
-13261,906,24451,0.0
-13235,605,24363,0.0
-13229,305,24308,0.0
-13218,7,24246,0.0
-13196,-288,24161,0.0
-13167,-581,24063,0.0
-13173,-876,24028,0.0
-13550,-1203,24665,0.0
-13935,-1547,25316,0.0
-14573,-1940,26420,2.0
-14665,-2277,26531,2.0
-14675,-2602,26493,2.0
-15000,-2990,27019,2.0
-15099,-3341,27135,2.0
-15161,-3689,27186,2.0
-15193,-4029,27176,2.0
-15235,-4373,27188,2.0
0,0,0,0.0
-15325,-5068,27212,2.0
-15296,-5391,27088,2.0
-15297,-5725,27021,2.0
-15393,-6096,27116,2.0
-15386,-6427,27031,2.0
-15410,-6772,26996,2.0
-15430,-7114,26953,2.0
-15512,-7489,27019,2.0
-15586,-7863,27066,2.0
-15585,-8200,26983,2.0
-15660,-8579,27029,2.0
-15630,-8901,26891,2.0
-15691,-9276,26910,2.0
-15620,-9574,26700,2.0
-15616,-9909,26603,2.0
-15599,-10238,26483,2.0
-15492,-10503,26208,2.0
-15645,-10947,26375,2.0
-15620,-11270,26237,2.0
-15622,-11612,26144,2.0
-15659,-11980,26106,2.0
-15709,-12361,26088,2.0
-15699,-12697,25971,2.0
-15668,-13014,25814,2.0
-15648,-13340,25676,2.0
-15551,-13600,25412,2.0
-15623,-14007,25423,2.0
-15553,-14287,25198,2.0
-15471,-14553,24955,2.0
-15439,-14864,24790,2.0
-15360,-15129,24550,2.0
-15322,-15432,24374,2.0
-15307,-15758,24232,2.0
-15238,-16029,24006,2.0
-15249,-16381,23904,2.0
-15066,-16524,23497,2.0
-14735,-16492,22861,0.0
-14270,-16297,22023,0.0
-14105,-16428,21650,0.0
-13728,-16303,20956,0.0
-13573,-16428,20602,0.0
-13541,-16702,20436,0.0
-13647,-17146,20474,0.0
-13682,-17506,20402,0.0
-13683,-17826,20279,0.0
-13775,-18267,20287,0.0
-13784,-18601,20168,0.0
-13837,-19000,20115,0.0
-13854,-19351,20003,0.0
-13902,-19749,19936,0.0
-13966,-20174,19887,0.0
-13997,-20555,19788,0.0
-14036,-20951,19698,0.0
-14101,-21392,19642,0.0
-14114,-21756,19507,0.0
-14180,-22205,19445,0.0
-14216,-22614,19337,0.0
-14266,-23049,19246,0.0
-14321,-23494,19155,0.0
0,0,0,0.0
0,0,0,0.0
0,0,0,0.0
0,0,0,0.0
0,0,0,0.0
0,0,0,0.0
0,0,0,0.0
0,0,0,0.0
0,0,0,0.0
0,0,0,0.0
0,0,0,0.0
0,0,0,0.0
0,0,0,0.0
0,0,0,0.0
0,0,0,0.0
0,0,0,0.0
0,0,0,0.0
-912,-1939,1001,0.0
0,0,0,0.0
0,0,0,0.0
0,0,0,0.0
0,0,0,0.0
0,0,0,0.0
-79,-183,80,0.0
-84,-200,83,0.0
-87,-207,84,0.0
-101,-245,96,0.0
-111,-272,103,0.0
-138,-339,125,0.0
-143,-358,127,0.0
-138,-351,120,0.0
-135,-347,115,0.0
-132,-344,109,0.0
-129,-340,105,0.0
-129,-345,102,0.0
-127,-344,98,0.0
-122,-336,90,0.0
-124,-348,90,0.0
-122,-346,86,0.0
-120,-344,81,0.0
-120,-348,78,0.0
-116,-342,73,0.0
-20551,46687,38501,0.0
-20655,46027,38796,0.0
-20567,44950,38725,0.0
-20270,43444,38255,0.0
0,0,0,0.0
0,0,0,0.0
0,0,0,0.0
0,0,0,0.0
0,0,0,0.0
0,0,0,0.0
-17135,31935,32790,0.0
-17015,31067,32611,0.0
-16826,30094,32300,0.0
-16620,29113,31950,0.0
-16565,28415,31890,0.0
-16464,27651,31737,0.0
-16547,27204,31936,0.0
-16124,25943,31156,0.0
-16176,25466,31291,0.0
-16135,24850,31243,0.0
-15804,23805,30632,0.0
-15928,23458,30900,0.0
-15933,22938,30935,0.0
-15748,22157,30599,0.0
-15683,21558,30494,0.0
-15621,20971,30392,0.0
0,0,0,0.0
-15809,20227,30793,0.0
-15706,19606,30605,0.0
-15834,19278,30868,0.0
-15842,18805,30894,0.0
-15855,18343,30930,0.0
-17245,19434,33648,0.0
-17205,18878,33577,0.0
-17073,18232,33323,0.0
-17082,17745,33345,0.0
-17020,17189,33226,0.0
-16982,16663,33149,0.0
-16949,16151,33085,0.0
-16896,15623,32975,0.0
-16781,15049,32746,0.0
0,0,0,0.0
0,0,0,0.0
0,0,0,0.0
-16622,13084,32399,0.0
-16565,12593,32275,0.0
0,0,0,0.0
-16510,11673,32139,0.0
-16431,11184,31969,0.0
0,0,0,0.0
-16310,10250,31694,0.0
0,0,0,0.0
0,0,0,0.0
-16311,8995,31628,0.0
-16722,8796,32398,0.0
-17117,8572,33135,0.0
-13243,6301,25613,0.0
-13198,5950,25502,0.0
-13178,5614,25439,0.0
-13199,5298,25453,0.0
-13135,4950,25303,0.0
-13139,4630,25283,0.0
-13126,4307,25227,0.0
-13100,3982,25148,0.0
-13080,3661,25076,0.0
-13032,3335,24952,0.0
-13010,3020,24877,0.0
-12998,2708,24821,0.0
-12996,2400,24782,0.0
-12965,2088,24686,0.0
-12939,1780,24600,0.0
-12920,1476,24525,0.0
-12930,1176,24506,0.0
-12915,874,24436,0.0
-12896,575,24360,0.0
-12870,277,24269,0.0
-12861,-18,24206,0.0
-12840,-312,24122,0.0
-12844,-605,24087,0.0
-12786,-895,23931,0.0
-13309,-1234,24860,0.0
-13711,-1582,25561,0.0
-14279,-1971,26564,2.0
-14414,-2315,26759,2.0
-14565,-2667,26982,2.0
-14761,-3035,27283,2.0
-14808,-3377,27309,2.0
-14755,-3696,27149,2.0
-14863,-4055,27282,2.0
-14884,-4393,27255,2.0
-14869,-4720,27161,2.0
-14961,-5082,27260,2.0
0,0,0,0.0
-15033,-5775,27251,2.0
-15117,-6144,27331,2.0
-15101,-6472,27226,2.0
-15155,-6832,27248,2.0
-15186,-7181,27224,2.0
-15173,-7511,27123,2.0
-15268,-7896,27214,2.0
-15280,-8241,27153,2.0
-15306,-8593,27113,2.0
-15328,-8945,27070,2.0
-15303,-9270,26939,2.0
-15353,-9641,26939,2.0
-15323,-9960,26797,2.0
-15315,-10295,26693,2.0
-15349,-10659,26659,2.0
-15299,-10964,26478,2.0
-15356,-11346,26481,2.0
-15378,-11704,26423,2.0
-15366,-12037,26303,2.0
-15452,-12450,26350,2.0
-15459,-12801,26260,2.0
-15413,-13107,26078,2.0
-15388,-13431,25931,2.0
-15306,-13703,25687,2.0
-15268,-14013,25516,2.0
-15212,-14303,25313,2.0
0,0,0,0.0
-15124,-14906,24947,2.0
-15104,-15227,24799,2.0
-15042,-15508,24583,2.0
-14963,-15768,24339,2.0
-14945,-16090,24191,2.0
-14888,-16371,23982,2.0
-14809,-16625,23735,2.0
-14398,-16496,22958,0.0
-13992,-16355,22194,0.0
-13783,-16430,21744,0.0
-13434,-16329,21081,0.0
-13242,-16405,20663,0.0
-13169,-16625,20433,0.0
-13283,-17082,20490,0.0
-13331,-17460,20442,0.0
-13334,-17781,20322,0.0
-13374,-18154,20257,0.0
-13423,-18543,20204,0.0
-13457,-18916,20124,0.0
-13503,-19307,20059,0.0
-13546,-19699,19987,0.0
-13590,-20096,19914,0.0
-13595,-20439,19780,0.0
-13674,-20897,19753,0.0
-13687,-21258,19624,0.0
-13732,-21672,19541,0.0
-13804,-22132,19490,0.0
-13824,-22516,19364,0.0
-13897,-22990,19308,0.0
-13943,-23425,19212,0.0
-13835,-23602,18901,0.0
0,0,0,0.0
0,0,0,0.0
0,0,0,0.0
0,0,0,0.0
0,0,0,0.0
0,0,0,0.0
0,0,0,0.0
0,0,0,0.0
0,0,0,0.0
0,0,0,0.0
0,0,0,0.0
0,0,0,0.0
0,0,0,0.0
0,0,0,0.0
-907,-1922,1057,0.0
-917,-1971,1055,0.0
0,0,0,0.0
0,0,0,0.0
0,0,0,0.0
0,0,0,0.0
0,0,0,0.0
0,0,0,0.0
0,0,0,0.0
-79,-192,81,0.0
-81,-198,82,0.0
-96,-239,95,0.0
-107,-269,104,0.0
-129,-326,122,0.0
-141,-361,130,0.0
-133,-347,121,0.0
-135,-357,119,0.0
-128,-344,111,0.0
-129,-349,109,0.0
-128,-352,105,0.0
-125,-349,100,0.0
-121,-342,94,0.0
-122,-348,92,0.0
-117,-340,86,0.0
-119,-351,84,0.0
-117,-346,80,0.0
-115,-348,76,0.0
0,0,0,0.0
0,0,0,0.0
0,0,0,0.0
0,0,0,0.0
0,0,0,0.0
0,0,0,0.0
0,0,0,0.0
0,0,0,0.0
-16653,33095,32746,0.0
0,0,0,0.0
-16434,31355,32419,0.0
-16621,31065,32837,0.0
-16208,29669,32065,0.0
-16132,28918,31957,0.0
-16014,28108,31764,0.0
0,0,0,0.0
-16215,27271,32238,0.0
-15645,25749,31137,0.0
-15685,25256,31248,0.0
-15617,24596,31139,0.0
-15743,24246,31415,0.0
-15622,23524,31198,0.0
-15800,23254,31577,0.0
-15209,21873,30415,0.0
-15191,21343,30398,0.0
0,0,0,0.0
-15273,20458,30594,0.0
-15108,19751,30278,0.0
-15301,19514,30675,0.0
-15298,19027,30678,0.0
-15446,18729,30983,0.0
-16816,19869,33740,0.0
-16804,19340,33721,0.0
-16703,18715,33521,0.0
-16653,18158,33423,0.0
-16598,17602,33312,0.0
-16543,17053,33200,0.0
-16481,16507,33074,0.0
-16459,16006,33026,0.0
-16363,15440,32827,0.0
-16314,14927,32721,0.0
0,0,0,0.0
0,0,0,0.0
-16149,13411,32360,0.0
-16200,13004,32449,0.0
-16124,12498,32281,0.0
0,0,0,0.0
0,0,0,0.0
-15947,11062,31874,0.0
0,0,0,0.0
0,0,0,0.0
0,0,0,0.0
-15861,9320,31614,0.0
0,0,0,0.0
-16371,8768,32578,0.0
0,0,0,0.0
-12903,6247,25629,0.0
-12850,5895,25502,0.0
-12811,5550,25396,0.0
-12837,5239,25421,0.0
-12811,4906,25342,0.0
-12770,4572,25232,0.0
-12760,4252,25182,0.0
-12719,3924,25070,0.0
-12718,3610,25037,0.0
-12720,3299,25007,0.0
-12698,2984,24930,0.0
-12654,2667,24809,0.0
-12649,2360,24763,0.0
-12625,2052,24679,0.0
-12592,1745,24577,0.0
-12588,1444,24531,0.0
-12572,1142,24460,0.0
-12570,844,24416,0.0
-12556,546,24347,0.0
-12545,250,24284,0.0
-12510,-43,24173,0.0
-12525,-337,24156,0.0
-12492,-627,24049,0.0
-12472,-917,23964,0.0
-12944,-1253,24820,0.0
-13382,-1605,25609,0.0
-13967,-1998,26674,2.0
-14078,-2339,26829,2.0
-14287,-2702,27170,2.0
-14460,-3067,27437,2.0
-14486,-3404,27424,2.0
-14557,-3754,27495,2.0
-14564,-4089,27445,2.0
-14579,-4425,27406,2.0
-14568,-4754,27317,2.0
-14639,-5111,27383,2.0
-14764,-5490,27546,2.0
-14748,-5819,27445,2.0
-14816,-6182,27499,2.0
-14894,-6552,27568,2.0
-14893,-6888,27490,2.0
-14944,-7250,27508,2.0
-14923,-7578,27389,2.0
-14922,-7915,27307,2.0
-14884,-8231,27156,2.0
-14979,-8623,27247,2.0
-15028,-8990,27251,2.0
-15060,-9351,27222,2.0
-15040,-9679,27098,2.0
-15008,-9999,26953,2.0
-15029,-10353,26900,2.0
-15011,-10682,26777,2.0
-15024,-11031,26706,2.0
-15047,-11390,26651,2.0
-15047,-11733,26553,2.0
-15114,-12129,26574,2.0
-15110,-12471,26468,2.0
-15131,-12834,26403,2.0
-15062,-13120,26180,2.0
-15060,-13464,26072,2.0
-14963,-13720,25799,2.0
-14964,-14065,25693,2.0
-14951,-14398,25564,2.0
0,0,0,0.0
0,0,0,0.0
0,0,0,0.0
-14726,-15548,24737,2.0
-14572,-15725,24362,2.0
0,0,0,0.0
-14624,-16467,24214,2.0
-14467,-16631,23836,2.0
-14108,-16553,23128,0.0
-13663,-16355,22284,0.0
-13441,-16408,21806,0.0
-13107,-16313,21149,0.0
-12870,-16327,20653,0.0
-12896,-16672,20580,0.0
-12902,-16991,20471,0.0
-12914,-17321,20371,0.0
-12997,-17749,20378,0.0
-13035,-18120,20314,0.0
-13053,-18468,20216,0.0
-13057,-18797,20094,0.0
-13113,-19204,20049,0.0
-13142,-19575,19961,0.0
-13179,-19962,19880,0.0
-13255,-20412,19856,0.0
-13262,-20760,19725,0.0
-13315,-21183,19660,0.0
-13345,-21574,19558,0.0
-13369,-21960,19444,0.0
-13442,-22430,19397,0.0
-13470,-22829,19283,0.0
-13519,-23271,19196,0.0
-13531,-23649,19050,0.0
0,0,0,0.0
0,0,0,0.0
0,0,0,0.0
0,0,0,0.0
0,0,0,0.0
0,0,0,0.0
0,0,0,0.0
0,0,0,0.0
0,0,0,0.0
0,0,0,0.0
0,0,0,0.0
0,0,0,0.0
0,0,0,0.0
0,0,0,0.0
0,0,0,0.0
0,0,0,0.0
0,0,0,0.0
0,0,0,0.0
0,0,0,0.0
0,0,0,0.0
0,0,0,0.0
0,0,0,0.0
0,0,0,0.0
-76,-190,82,0.0
-81,-204,84,0.0
-86,-219,88,0.0
-95,-245,95,0.0
-112,-293,110,0.0
-131,-347,126,0.0
-129,-347,122,0.0
-127,-345,117,0.0
-124,-341,111,0.0
-121,-337,107,0.0
-122,-344,104,0.0
-116,-332,96,0.0
-117,-340,95,0.0
-115,-337,90,0.0
-117,-348,89,0.0
-116,-350,85,0.0
-113,-347,81,0.0
-109,-337,74,0.0
-19458,46486,38888,0.0
-19384,45410,38826,0.0
0,0,0,0.0
0,0,0,0.0
0,0,0,0.0
0,0,0,0.0
0,0,0,0.0
-16113,33487,32637,0.0
0,0,0,0.0
0,0,0,0.0
0,0,0,0.0
-16112,30845,32827,0.0
-15645,29330,31915,0.0
-15654,28737,31972,0.0
-15668,28160,32039,0.0
-15719,27653,32175,0.0
-15661,26962,32088,0.0
-15164,25543,31098,0.0
-15244,25122,31289,0.0
-15068,24286,30953,0.0
-15129,23844,31102,0.0
-15236,23473,31343,0.0
-15203,22890,31292,0.0
0,0,0,0.0
0,0,0,0.0
-14669,20583,30239,0.0
-14555,19936,30015,0.0
-14664,19598,30248,0.0
-14612,19052,30151,0.0
-14920,18969,30793,0.0
-15026,18621,31018,0.0
-16312,19696,33676,0.0
-16289,19157,33632,0.0
-16224,18574,33499,0.0
-16206,18052,33461,0.0
-16116,17459,33273,0.0
-16087,16938,33208,0.0
-16020,16387,33066,0.0
-15982,15871,32980,0.0
0,0,0,0.0
-15915,14866,32824,0.0
0,0,0,0.0
-15765,13813,32492,0.0
0,0,0,0.0
0,0,0,0.0
-15693,12412,32298,0.0
0,0,0,0.0
0,0,0,0.0
-15483,10954,31809,0.0
0,0,0,0.0
0,0,0,0.0
0,0,0,0.0
-15416,9232,31578,0.0
-15589,8919,31903,0.0
-15982,8720,32678,0.0
-12567,6526,25674,0.0
-12548,6186,25609,0.0
-12488,5831,25461,0.0
-12511,5517,25480,0.0
-12494,5187,25419,0.0
-12454,4851,25306,0.0
-12439,4528,25250,0.0
-12395,4197,25129,0.0
-12376,3878,25057,0.0
-12357,3561,24987,0.0
-12341,3247,24922,0.0
-12342,2940,24889,0.0
-12309,2627,24789,0.0
-12304,2322,24742,0.0
-12293,2016,24681,0.0
-12253,1710,24564,0.0
-12252,1411,24523,0.0
-12258,1113,24493,0.0
-12235,815,24406,0.0
-12201,518,24298,0.0
-12217,224,24287,0.0
-12180,-69,24170,0.0
-12180,-360,24126,0.0
-12171,-650,24063,0.0
-12162,-939,23998,0.0
-12672,-1279,24955,0.0
-13182,-1643,25907,0.0
-13669,-2027,26808,2.0
-13815,-2374,27036,2.0
-14087,-2752,27509,2.0
-14096,-3085,27466,2.0
-14163,-3431,27535,2.0
-14201,-3773,27546,2.0
-14319,-4138,27710,2.0
-14360,-4485,27724,2.0
-14353,-4817,27643,2.0
-14435,-5180,27731,2.0
-14454,-5523,27695,2.0
-14511,-5882,27734,2.0
-14511,-6218,27660,2.0
-14603,-6596,27761,2.0
-14671,-6966,27814,2.0
-14636,-7288,27672,2.0
-14699,-7659,27710,2.0
0,0,0,0.0
-14713,-8348,27575,2.0
-14663,-8659,27398,2.0
-14651,-8990,27291,2.0
-14750,-9392,27389,2.0
-14751,-9735,27304,2.0
-14748,-10074,27209,2.0
-14735,-10407,27095,2.0
-14712,-10732,26961,2.0
-14693,-11059,26834,2.0
-14715,-11418,26779,2.0
-14731,-11773,26712,2.0
-14843,-12209,26818,2.0
-14826,-12540,26687,2.0
-14784,-12850,26510,2.0
-14781,-13194,26404,2.0
-14754,-13516,26251,2.0
-14698,-13810,26048,2.0
-14648,-14107,25851,2.0
0,0,0,0.0
-14586,-14738,25526,2.0
-14594,-15092,25430,2.0
-14524,-15365,25196,2.0
-14433,-15613,24926,2.0
-14422,-15946,24792,2.0
-14358,-16220,24567,2.0
-14287,-16482,24328,2.0
-14149,-16665,23976,2.0
-13751,-16531,23187,0.0
-13362,-16387,22415,0.0
-13051,-16324,21781,0.0
-12761,-16273,21182,0.0
-12521,-16276,20673,0.0
-12538,-16607,20586,0.0
-12549,-16933,20489,0.0
-12611,-17332,20473,0.0
-12627,-17669,20377,0.0
-12642,-18008,20279,0.0
-12661,-18357,20186,0.0
-12714,-18756,20144,0.0
-12749,-19132,20069,0.0
-12764,-19483,19962,0.0
-12817,-19895,19911,0.0
-12847,-20276,19822,0.0
-12866,-20641,19711,0.0
-12947,-21110,19694,0.0
-12975,-21501,19594,0.0
-13001,-21888,19484,0.0
-13046,-22315,19403,0.0
-13105,-22768,19337,0.0
-13123,-23157,19209,0.0
-13192,-23639,19151,0.0
0,0,0,0.0
0,0,0,0.0
0,0,0,0.0
0,0,0,0.0
0,0,0,0.0
0,0,0,0.0
0,0,0,0.0
0,0,0,0.0
0,0,0,0.0
0,0,0,0.0
0,0,0,0.0
0,0,0,0.0
0,0,0,0.0
0,0,0,0.0
0,0,0,0.0
0,0,0,0.0
-882,-2021,1070,0.0
0,0,0,0.0
0,0,0,0.0
0,0,0,0.0
0,0,0,0.0
0,0,0,0.0
0,0,0,0.0
-76,-193,83,0.0
-77,-200,83,0.0
-84,-218,89,0.0
-92,-242,95,0.0
-103,-275,105,0.0
-122,-332,122,0.0
-125,-343,122,0.0
-123,-344,118,0.0
-120,-340,113,0.0
-117,-336,107,0.0
-117,-340,104,0.0
-115,-337,99,0.0
-111,-333,94,0.0
-114,-343,93,0.0
-110,-337,88,0.0
-109,-340,84,0.0
-107,-339,81,0.0
-103,-333,75,0.0
-18754,46006,38753,0.0
-18671,44902,38656,0.0
-18575,43792,38530,0.0
0,0,0,0.0
0,0,0,0.0
0,0,0,0.0
-15912,34617,33232,0.0
-15625,33306,32680,0.0
0,0,0,0.0
-15666,32048,32854,0.0
-15575,31209,32706,0.0
-15288,30000,32141,0.0
-15219,29244,32032,0.0
-15148,28499,31918,0.0
-15053,27722,31748,0.0
-15147,27300,31975,0.0
-14693,25914,31044,0.0
-14783,25507,31258,0.0
-14732,24863,31172,0.0
-14479,23899,30659,0.0
-14917,24071,31606,0.0
-14720,23217,31203,0.0
-14426,22235,30596,0.0
0,0,0,0.0
-14336,21083,30432,0.0
-14230,20433,30217,0.0
-14378,20151,30541,0.0
-14388,19676,30569,0.0
-14169,18898,30106,0.0
-14553,18926,30927,0.0
-14591,18494,31010,0.0
-15866,19593,33723,0.0
-15861,19073,33710,0.0
-15753,18440,33481,0.0
-15703,17883,33372,0.0
-15728,17416,33419,0.0
-15613,16802,33167,0.0
-15566,16272,33061,0.0
0,0,0,0.0
0,0,0,0.0
-15393,14690,32662,0.0
0,0,0,0.0
-15340,13728,32521,0.0
-15300,13243,32422,0.0
-15281,12781,32363,0.0
-15280,12338,32343,0.0
0,0,0,0.0
0,0,0,0.0
-15023,10847,31738,0.0
0,0,0,0.0
0,0,0,0.0
0,0,0,0.0
-14968,9142,31521,0.0
-15287,8918,32164,0.0
-15547,8648,32681,0.0
-12225,6469,25672,0.0
-12196,6127,25587,0.0
-12182,5794,25529,0.0
-12161,5461,25457,0.0
-12105,5116,25312,0.0
-12111,4802,25295,0.0
-12097,4480,25236,0.0
-12055,4150,25114,0.0
-12043,3835,25059,0.0
-12046,3526,25031,0.0
-12006,3207,24913,0.0
-12011,2902,24891,0.0
-11985,2591,24799,0.0
-11978,2287,24749,0.0
-11948,1981,24649,0.0
-11950,1681,24614,0.0
-11929,1380,24531,0.0
-11921,1082,24476,0.0
-11902,785,24395,0.0
-11872,490,24291,0.0
-11878,198,24261,0.0
-11878,-93,24217,0.0
-11858,-382,24131,0.0
-11829,-671,24028,0.0
-11831,-959,23984,0.0
-12362,-1302,25012,0.0
-12834,-1662,25914,0.0
-13330,-2049,26861,2.0
-13533,-2405,27210,2.0
-13679,-2761,27446,2.0
-13824,-3123,27675,2.0
-13809,-3450,27582,2.0
-13934,-3814,27770,2.0
-14010,-4169,27855,2.0
-14144,-4547,28055,2.0
-14148,-4885,27995,2.0
-14151,-5223,27931,2.0
-14158,-5562,27876,2.0
-14208,-5919,27902,2.0
-14223,-6261,27856,2.0
-14290,-6630,27915,2.0
-14324,-6985,27902,2.0
-14365,-7345,27907,2.0
-14423,-7715,27941,2.0
-14432,-8062,27876,2.0
-14455,-8417,27839,2.0
-14486,-8777,27815,2.0
-14463,-9107,27688,2.0
-14441,-9434,27558,2.0
-14494,-9812,27572,2.0
-14492,-10154,27479,2.0
-14417,-10443,27246,2.0
-14397,-10771,27119,2.0
-14442,-11148,27111,2.0
-14451,-11499,27033,2.0
0,0,0,0.0
-14575,-12293,27071,2.0
-14533,-12605,26895,2.0
-14503,-12925,26737,2.0
-14432,-13208,26505,2.0
-14423,-13546,26386,2.0
-14439,-13909,26312,2.0
-14375,-14193,26088,2.0
-14345,-14510,25927,2.0
-14274,-14785,25691,2.0
-14227,-15082,25497,2.0
-14196,-15395,25331,2.0
-14103,-15639,25053,2.0
-14084,-15963,24905,2.0
-14034,-16250,24701,2.0
-13989,-16543,24506,2.0
-13781,-16639,24027,2.0
-13483,-16614,23391,0.0
-13086,-16450,22589,0.0
-12718,-16307,21842,0.0
-12444,-16268,21260,0.0
-12201,-16258,20735,0.0
-12202,-16570,20624,0.0
-12209,-16889,20522,0.0
-12232,-17234,20444,0.0
-12275,-17609,20397,0.0
-12299,-17961,20315,0.0
-12323,-18317,20234,0.0
-12362,-18697,20173,0.0
-12390,-19064,20090,0.0
-12399,-19405,19976,0.0
-12461,-19834,19946,0.0
-12491,-20214,19858,0.0
-12507,-20576,19748,0.0
-12550,-20985,19675,0.0
-12572,-21365,19569,0.0
-12621,-21794,19502,0.0
-12667,-22220,19424,0.0
-12705,-22640,19331,0.0
-12728,-23036,19214,0.0
-12805,-23536,19174,0.0
0,0,0,0.0
0,0,0,0.0
0,0,0,0.0
0,0,0,0.0
0,0,0,0.0
0,0,0,0.0
0,0,0,0.0
0,0,0,0.0
0,0,0,0.0
0,0,0,0.0
0,0,0,0.0
0,0,0,0.0
0,0,0,0.0
0,0,0,0.0
0,0,0,0.0
0,0,0,0.0
0,0,0,0.0
0,0,0,0.0
0,0,0,0.0
-819,-2013,988,0.0
-840,-2094,999,0.0
0,0,0,0.0
0,0,0,0.0
-69,-179,78,0.0
-79,-210,89,0.0
-82,-219,90,0.0
-89,-242,96,0.0
-100,-277,106,0.0
-118,-331,124,0.0
-123,-349,125,0.0
-118,-340,118,0.0
-116,-337,113,0.0
-112,-331,107,0.0
-113,-337,104,0.0
-112,-341,101,0.0
-109,-334,96,0.0
-106,-332,91,0.0
-106,-335,88,0.0
-105,-337,85,0.0
-102,-332,80,0.0
-102,-339,78,0.0
-18116,45667,38727,0.0
0,0,0,0.0
0,0,0,0.0
-17725,42071,38084,0.0
0,0,0,0.0
0,0,0,0.0
-15389,34369,33212,0.0
-15097,33033,32625,0.0
-15113,32391,32699,0.0
-14958,31401,32402,0.0
-15020,30882,32574,0.0
-14670,29534,31847,0.0
-14719,29013,31984,0.0
-14622,28214,31803,0.0
-14745,27844,32094,0.0
-14695,27156,32010,0.0
-14291,25841,31155,0.0
-14323,25333,31244,0.0
-14290,24719,31191,0.0
-14368,24302,31377,0.0
-14233,23535,31099,0.0
-14153,22872,30938,0.0
0,0,0,0.0
-13941,21502,30495,0.0
0,0,0,0.0
-13728,20186,30045,0.0
-13803,19808,30214,0.0
-13957,19541,30556,0.0
-14093,19243,30855,0.0
-14113,18787,30901,0.0
-14151,18359,30984,0.0
-15410,19473,33737,0.0
-15336,18870,33571,0.0
0,0,0,0.0
-15251,17767,33375,0.0
-15182,17196,33217,0.0
-15137,16663,33110,0.0
-15111,16154,33043,0.0
0,0,0,0.0
0,0,0,0.0
0,0,0,0.0
0,0,0,0.0
0,0,0,0.0
0,0,0,0.0
0,0,0,0.0
0,0,0,0.0
0,0,0,0.0
0,0,0,0.0
0,0,0,0.0
0,0,0,0.0
-14553,9895,31579,0.0
-14532,9467,31506,0.0
-14576,9085,31573,0.0
-14900,8869,32245,0.0
0,0,0,0.0
-11861,6402,25619,0.0
-11838,6063,25541,0.0
-11796,5719,25423,0.0
-11819,5408,25441,0.0
-11779,5072,25328,0.0
-11775,4754,25289,0.0
-11760,4433,25223,0.0
-11715,4104,25096,0.0
-11709,3792,25051,0.0
-11702,3481,24999,0.0
-11674,3167,24906,0.0
-11650,2856,24819,0.0
-11630,2549,24741,0.0
-11631,2248,24706,0.0
-11635,1949,24676,0.0
-11608,1647,24578,0.0
-11589,1348,24499,0.0
-11561,1050,24400,0.0
-11566,757,24367,0.0
-11563,464,24319,0.0
-11555,173,24260,0.0
-11518,-116,24140,0.0
-11519,-405,24095,0.0
-11418,-686,23838,0.0
-11500,-977,23962,0.0
-12021,-1320,24997,0.0
-12521,-1685,25987,0.0
-13109,-2088,27152,2.0
-13176,-2425,27231,2.0
-13317,-2778,27463,2.0
-13450,-3136,27677,2.0
-13554,-3492,27830,2.0
-13590,-3834,27838,2.0
-13670,-4191,27936,2.0
-13817,-4573,28170,2.0
-13819,-4911,28107,2.0
-13868,-5266,28135,2.0
-13914,-5621,28159,2.0
-13946,-5973,28153,2.0
-13964,-6320,28114,2.0
-13972,-6662,28056,2.0
-14063,-7046,28162,2.0
-14076,-7393,28111,2.0
-14121,-7758,28121,2.0
-14177,-8132,28151,2.0
-14165,-8469,28047,2.0
-14273,-8880,28176,2.0
-14217,-9189,27980,2.0
-14161,-9496,27784,2.0
-14203,-9869,27780,2.0
-14166,-10187,27620,2.0
-14177,-10539,27551,2.0
-14121,-10841,27353,2.0
-14163,-11217,27339,2.0
-14124,-11531,27170,2.0
-14205,-11944,27232,2.0
-14224,-12307,27171,2.0
-14202,-12636,27031,2.0
-14208,-12990,26942,2.0
-14184,-13316,26797,2.0
-14112,-13596,26557,2.0
-14107,-13938,26443,2.0
-14075,-14254,26278,2.0
0,0,0,0.0
-14009,-14883,25942,2.0
-13910,-15124,25651,2.0
-13902,-15463,25525,2.0
-13853,-15756,25325,2.0
-13753,-15988,25030,2.0
-13714,-16287,24843,2.0
-13635,-16537,24585,2.0
-13466,-16675,24166,2.0
-13171,-16645,23522,0.0
-12802,-16508,22752,0.0
-12400,-16306,21926,0.0
-12206,-16367,21473,0.0
-11901,-16267,20827,0.0
-11834,-16482,20599,0.0
-11784,-16720,20400,0.0
-11872,-17156,20437,0.0
-11919,-17540,20403,0.0
-11941,-17889,20321,0.0
-11970,-18252,20251,0.0
-11981,-18590,20147,0.0
-12026,-18984,20098,0.0
-12059,-19362,20024,0.0
-12105,-19767,19971,0.0
-12118,-20120,19859,0.0
-12161,-20527,19796,0.0
-12191,-20917,19709,0.0
-12222,-21314,19620,0.0
-12260,-21724,19537,0.0
-12308,-22159,19469,0.0
-12337,-22563,19367,0.0
-12366,-22971,19262,0.0
-12393,-23381,19151,0.0
-12385,-23726,18982,0.0
0,0,0,0.0
0,0,0,0.0
0,0,0,0.0
-885,-1801,1310,0.0
0,0,0,0.0
0,0,0,0.0
0,0,0,0.0
0,0,0,0.0
0,0,0,0.0
0,0,0,0.0
-887,-2001,1224,0.0
0,0,0,0.0
0,0,0,0.0
0,0,0,0.0
0,0,0,0.0
0,0,0,0.0
0,0,0,0.0
0,0,0,0.0
0,0,0,0.0
0,0,0,0.0
0,0,0,0.0
0,0,0,0.0
-65,-176,77,0.0
-69,-187,80,0.0
-74,-205,85,0.0
-82,-229,92,0.0
-93,-264,102,0.0
-110,-318,119,0.0
-118,-344,124,0.0
-118,-348,122,0.0
-112,-337,114,0.0
-112,-341,111,0.0
-109,-337,106,0.0
-109,-341,103,0.0
-106,-336,98,0.0
-106,-339,95,0.0
-105,-341,91,0.0
-102,-339,86,0.0
-102,-340,83,0.0
-100,-341,80,0.0
0,0,0,0.0
0,0,0,0.0
0,0,0,0.0
0,0,0,0.0
0,0,0,0.0
0,0,0,0.0
-14593,33489,32570,0.0
0,0,0,0.0
-14451,31817,32324,0.0
-14680,31652,32868,0.0
-14701,31037,32946,0.0
-14255,29466,31974,0.0
-14264,28862,32020,0.0
-14130,27985,31743,0.0
-14286,27689,32115,0.0
-14321,27159,32215,0.0
-13802,25604,31063,0.0
-13880,25184,31255,0.0
-13794,24475,31077,0.0
-13684,23738,30843,0.0
-13873,23523,31278,0.0
-14023,23238,31629,0.0
-13467,21800,30380,0.0
-13517,21372,30500,0.0
0,0,0,0.0
0,0,0,0.0
-13390,19691,30224,0.0
-13631,19555,30770,0.0
-13605,19031,30708,0.0
-13739,18735,31010,0.0
-14972,19893,33789,0.0
-14929,19320,33685,0.0
-14852,18713,33506,0.0
-14825,18179,33440,0.0
-14788,17637,33346,0.0
-14739,17089,33223,0.0
-14710,16571,33147,0.0
-14604,15976,32896,0.0
0,0,0,0.0
0,0,0,0.0
0,0,0,0.0
0,0,0,0.0
0,0,0,0.0
-14384,13009,32298,0.0
-14328,12519,32150,0.0
0,0,0,0.0
-14364,11680,32186,0.0
-14223,11138,31846,0.0
0,0,0,0.0
-14215,10289,31775,0.0
-14185,9852,31680,0.0
-14108,9387,31477,0.0
-14206,9042,31669,0.0
-14487,8804,32264,0.0
-14702,8514,32706,0.0
-11526,6348,25614,0.0
-11529,6025,25593,0.0
-11486,5680,25467,0.0
-11483,5359,25432,0.0
-11449,5026,25326,0.0
-11447,4709,25291,0.0
-11417,4383,25192,0.0
-11405,4068,25133,0.0
-11375,3749,25031,0.0
-11377,3442,25003,0.0
-11354,3131,24916,0.0
-11330,2821,24828,0.0
-11326,2519,24783,0.0
-11322,2217,24736,0.0
-11296,1914,24638,0.0
-11270,1614,24543,0.0
-11249,1316,24459,0.0
-11265,1024,24450,0.0
-11231,729,24337,0.0
-11247,440,24328,0.0
-11233,149,24252,0.0
-11208,-139,24155,0.0
-11217,-427,24129,0.0
-10904,-694,23412,0.0
-11157,-994,23908,0.0
-11684,-1337,24986,0.0
-12247,-1713,26139,0.0
-12771,-2110,27202,2.0
-12836,-2444,27280,2.0
-13007,-2805,27584,2.0
-13066,-3146,27649,2.0
-13199,-3509,27868,2.0
-13294,-3867,28005,2.0
-13372,-4225,28103,2.0
-13462,-4589,28227,2.0
-13502,-4940,28241,2.0
-13554,-5296,28280,2.0
-13584,-5647,28271,2.0
-13620,-6001,28276,2.0
-13655,-6356,28275,2.0
-13663,-6698,28216,2.0
-13773,-7094,28367,2.0
-13776,-7437,28296,2.0
-13807,-7796,28281,2.0
-13856,-8168,28302,2.0
-13865,-8516,28236,2.0
-13930,-8902,28285,2.0
-13923,-9243,28186,2.0
-13904,-9576,28063,2.0
-13882,-9905,27930,2.0
-13882,-10251,27843,2.0
-13860,-10579,27709,2.0
-13801,-10878,27501,2.0
-13827,-11243,27460,2.0
-13859,-11616,27432,2.0
-13941,-12032,27498,2.0
-13907,-12352,27335,2.0
-13845,-12643,27115,2.0
-13861,-13006,27046,2.0
-13818,-13314,26864,2.0
-13822,-13667,26769,2.0
0,0,0,0.0
-13803,-14347,26524,2.0
-13707,-14595,26235,2.0
-13671,-14905,26059,2.0
-13593,-15167,25802,2.0
0,0,0,0.0
-13510,-15768,25425,2.0
-13471,-16070,25242,2.0
-13378,-16306,24956,2.0
-13309,-16567,24715,2.0
-13188,-16759,24374,2.0
-12849,-16665,23634,0.0
-12471,-16503,22830,0.0
-12110,-16345,22059,0.0
-11921,-16404,21604,0.0
-11641,-16329,20988,0.0
-11498,-16437,20622,0.0
-11203,-16316,19985,0.0
-11538,-17115,20470,0.0
-11569,-17474,20409,0.0
-11582,-17810,20317,0.0
-11622,-18191,20268,0.0
-11649,-18554,20195,0.0
-11670,-18911,20108,0.0
-11709,-19300,20049,0.0
-11741,-19684,19978,0.0
-11761,-20050,19882,0.0
-11784,-20423,19788,0.0
-11828,-20837,19726,0.0
-11849,-21218,19626,0.0
-11885,-21627,19546,0.0
-11932,-22059,19480,0.0
-11948,-22440,19361,0.0
-11991,-22876,19282,0.0
-12018,-23288,19175,0.0
-12040,-23694,19057,0.0
0,0,0,0.0
0,0,0,0.0
-861,-1775,1330,0.0
0,0,0,0.0
0,0,0,0.0
0,0,0,0.0
0,0,0,0.0
0,0,0,0.0
0,0,0,0.0
0,0,0,0.0
0,0,0,0.0
0,0,0,0.0
0,0,0,0.0
0,0,0,0.0
0,0,0,0.0
0,0,0,0.0
0,0,0,0.0
0,0,0,0.0
0,0,0,0.0
0,0,0,0.0
0,0,0,0.0
0,0,0,0.0
-813,-2232,992,0.0
-69,-192,83,0.0
-72,-205,85,0.0
-80,-232,93,0.0
-89,-262,103,0.0
-97,-289,110,0.0
-111,-335,123,0.0
-110,-337,119,0.0
-108,-333,114,0.0
-108,-339,111,0.0
-105,-333,106,0.0
-103,-330,101,0.0
-102,-332,98,0.0
-101,-337,95,0.0
-101,-340,92,0.0
-98,-335,86,0.0
-98,-337,84,0.0
-97,-341,81,0.0
0,0,0,0.0
-16734,43769,38427,0.0
0,0,0,0.0
0,0,0,0.0
0,0,0,0.0
0,0,0,0.0
-14110,33301,32590,0.0
-14183,32784,32790,0.0
-14193,32125,32841,0.0
-14188,31445,32855,0.0
-13882,30121,32172,0.0
-13774,29257,31944,0.0
-13753,28593,31917,0.0
-13553,27574,31470,0.0
-13816,27505,32098,0.0
-13921,27113,32358,0.0
-13416,25559,31198,0.0
-13423,25008,31227,0.0
-13332,24284,31023,0.0
-13577,24176,31603,0.0
-13478,23456,31380,0.0
-13665,23236,31822,0.0
0,0,0,0.0
-13083,21222,30473,0.0
0,0,0,0.0
-12882,19911,30006,0.0
-13029,19648,30345,0.0
-12891,18963,30023,0.0
-13242,18991,30835,0.0
-13307,18602,30982,0.0
-14484,19727,33715,0.0
-14442,19156,33609,0.0
-14411,18608,33527,0.0
-14358,18039,33393,0.0
-14355,17540,33373,0.0
-14285,16967,33196,0.0
-14264,16459,33133,0.0
-14179,15886,32921,0.0
-14154,15389,32845,0.0
0,0,0,0.0
0,0,0,0.0
0,0,0,0.0
0,0,0,0.0
-14014,12971,32418,0.0
-13962,12482,32275,0.0
-13959,12044,32245,0.0
-13768,11452,31778,0.0
-13778,11036,31773,0.0
-13735,10582,31648,0.0
-13702,10140,31543,0.0
-13736,9752,31592,0.0
0,0,0,0.0
-13795,8972,31666,0.0
-13959,8667,32007,0.0
0,0,0,0.0
-11183,6290,25586,0.0
-11186,5968,25566,0.0
-11148,5627,25447,0.0
-11141,5305,25400,0.0
-11104,4972,25283,0.0
-11109,4661,25265,0.0
-11086,4339,25180,0.0
-11054,4018,25073,0.0
-11051,3710,25032,0.0
-11040,3401,24970,0.0
-11011,3088,24868,0.0
-10981,2779,24764,0.0
-10994,2482,24755,0.0
-10981,2181,24688,0.0
-10959,1880,24600,0.0
-10948,1584,24536,0.0
-10943,1290,24483,0.0
-10942,996,24439,0.0
-10924,704,24355,0.0
-10909,414,24280,0.0
-10912,126,24241,0.0
-10881,-161,24128,0.0
-10880,-446,24082,0.0
-10510,-707,23218,0.0
-10885,-1016,23998,0.0
-11335,-1354,24942,0.0
-11911,-1732,26155,0.0
-12379,-2121,27126,2.0
-12576,-2480,27499,2.0
-12631,-2816,27560,2.0
-12764,-3175,27790,2.0
-12869,-3532,27955,2.0
-12966,-3891,28103,2.0
-13106,-4269,28339,2.0
-13097,-4601,28253,2.0
-13182,-4968,28367,2.0
-13254,-5333,28453,2.0
-13319,-5700,28524,2.0
-13344,-6050,28504,2.0
-13370,-6403,28486,2.0
-13364,-6739,28398,2.0
-13447,-7123,28497,2.0
-13507,-7498,28548,2.0
-13520,-7849,28497,2.0
-13499,-8180,28373,2.0
-13598,-8585,28498,2.0
0,0,0,0.0
-13595,-9275,28325,2.0
-13587,-9615,28222,2.0
-13590,-9964,28143,2.0
-13575,-10299,28024,2.0
-13573,-10644,27930,2.0
-13500,-10930,27689,2.0
-13534,-11305,27670,2.0
-13598,-11706,27705,2.0
-13607,-12062,27629,2.0
-13619,-12423,27558,2.0
-13566,-12723,27353,2.0
-13532,-13041,27188,2.0
-13528,-13385,27077,2.0
-13508,-13716,26938,2.0
-13480,-14037,26780,2.0
-13427,-14331,26571,2.0
-13391,-14642,26396,2.0
-13358,-14956,26227,2.0
-13295,-15233,25993,2.0
-13265,-15548,25827,2.0
-13165,-15777,25523,2.0
-13128,-16082,25342,2.0
-13059,-16343,25095,2.0
-12979,-16591,24832,2.0
-12750,-16637,24280,2.0
-12501,-16649,23695,0.0
-12182,-16553,22981,0.0
-11811,-16370,22173,0.0
-11626,-16429,21716,0.0
-11337,-16332,21071,0.0
-11133,-16344,20584,0.0
-11175,-16714,20552,0.0
-11197,-17059,20483,0.0
-11220,-17407,20414,0.0
-11253,-17775,20359,0.0
-11273,-18123,20277,0.0
-11305,-18497,20218,0.0
-11327,-18857,20136,0.0
-11348,-19215,20049,0.0
-11380,-19600,19981,0.0
-11410,-19983,19906,0.0
-11441,-20373,19829,0.0
-11471,-20764,19748,0.0
-11490,-21140,19647,0.0
-11528,-21555,19575,0.0
-11568,-21978,19502,0.0
-11585,-22363,19389,0.0
-11618,-22782,19300,0.0
-11649,-23201,19202,0.0
-11694,-23655,19125,0.0
-11657,-23945,18911,0.0
0,0,0,0.0
0,0,0,0.0
0,0,0,0.0
0,0,0,0.0
0,0,0,0.0
0,0,0,0.0
0,0,0,0.0
0,0,0,0.0
-808,-1899,1208,0.0
-817,-1949,1209,0.0
0,0,0,0.0
0,0,0,0.0
0,0,0,0.0
0,0,0,0.0
0,0,0,0.0
0,0,0,0.0
0,0,0,0.0
0,0,0,0.0
0,0,0,0.0
0,0,0,0.0
-60,-167,77,0.0
-65,-186,83,0.0
-65,-190,82,0.0
-72,-210,88,0.0
-76,-227,93,0.0
-86,-261,103,0.0
-95,-291,112,0.0
-109,-337,124,0.0
-110,-345,123,0.0
-109,-351,121,0.0
-107,-344,115,0.0
-104,-341,110,0.0
-104,-345,107,0.0
-101,-342,102,0.0
-101,-346,99,0.0
-98,-342,94,0.0
-97,-343,90,0.0
-97,-346,87,0.0
-94,-341,82,0.0
-16230,44652,38599,0.0
-6088,16411,14498,0.0
0,0,0,0.0
0,0,0,0.0
0,0,0,0.0
-13835,34325,33069,0.0
-13661,33191,32680,0.0
-13685,32556,32760,0.0
-13472,31380,32274,0.0
-13586,30982,32568,0.0
-13261,29601,31806,0.0
-13323,29107,31972,0.0
-13291,28416,31909,0.0
0,0,0,0.0
-13214,27044,31750,0.0
-12898,25821,31001,0.0
-12980,25414,31207,0.0
-7492,14345,18019,0.0
-7549,14130,18159,0.0
-12951,23693,31156,0.0
-12864,22996,30949,0.0
-13263,23161,31909,0.0
-12651,21579,30437,0.0
0,0,0,0.0
-12525,20363,30130,0.0
0,0,0,0.0
-12674,19616,30479,0.0
0,0,0,0.0
-12807,18848,30786,0.0
-12789,18340,30732,0.0
-14052,19633,33757,0.0
-13997,19044,33615,0.0
-13966,18495,33528,0.0
-13904,17913,33362,0.0
-13881,17390,33292,0.0
-13832,16843,33159,0.0
-13800,16324,33067,0.0
-13797,15844,33040,0.0
0,0,0,0.0
0,0,0,0.0
0,0,0,0.0
0,0,0,0.0
-13561,13298,32366,0.0
-13495,12792,32185,0.0
-13574,12427,32347,0.0
-13494,11919,32127,0.0
-13440,11443,31972,0.0
-13361,10954,31755,0.0
-13349,10524,31697,0.0
-13314,10082,31584,0.0
-13337,9687,31606,0.0
-13280,9238,31440,0.0
-13452,8948,31813,0.0
-13622,8648,32180,0.0
-10828,6548,25551,0.0
-10854,6240,25583,0.0
-10849,5915,25540,0.0
-10822,5580,25444,0.0
-10797,5251,25355,0.0
-10780,4928,25281,0.0
-10743,4600,25162,0.0
-10754,4295,25155,0.0
-10728,3976,25057,0.0
-10743,3676,25058,0.0
-10707,3359,24940,0.0
-10680,3049,24838,0.0
-10685,2750,24813,0.0
-10686,2451,24775,0.0
-10648,2146,24648,0.0
-10659,1852,24635,0.0
-10621,1553,24507,0.0
-10618,1260,24457,0.0
-10616,970,24413,0.0
-10615,679,24366,0.0
-10604,390,24297,0.0
-10587,102,24213,0.0
-10571,-181,24132,0.0
-10562,-466,24068,0.0
-10244,-727,23297,0.0
-10641,-1041,24152,0.0
-10998,-1369,24912,0.0
-11518,-1741,26038,0.0
-12125,-2154,27350,2.0
-12227,-2497,27524,2.0
-12325,-2843,27685,2.0
-12365,-3179,27715,2.0
-12572,-3563,28115,2.0
-12642,-3915,28209,2.0
-12760,-4287,28405,2.0
-12773,-4626,28366,2.0
-12852,-4992,28474,2.0
-12935,-5363,28588,2.0
-13008,-5733,28678,2.0
-13068,-6101,28737,2.0
-13038,-6427,28600,2.0
-13023,-6760,28491,2.0
-13160,-7174,28717,2.0
-13181,-7528,28683,2.0
-13228,-7900,28707,2.0
-13273,-8273,28723,2.0
-13260,-8610,28614,2.0
-13307,-8988,28632,2.0
-13319,-9344,28575,2.0
-13283,-9665,28410,2.0
-13294,-10019,28348,2.0
-13255,-10338,28179,2.0
-13294,-10716,28173,2.0
-13141,-10936,27759,2.0
-13198,-11330,27789,2.0
-13230,-11706,27766,2.0
-13234,-12056,27676,2.0
-13265,-12435,27648,2.0
-13259,-12780,27540,2.0
-13216,-13088,27352,2.0
-13191,-13413,27202,2.0
-13163,-13734,27045,2.0
-13195,-14119,27009,2.0
-13081,-14346,26672,2.0
-13043,-14655,26493,2.0
-13030,-14989,26361,2.0
-12986,-15288,26165,2.0
-12947,-15592,25980,2.0
-12834,-15804,25646,2.0
-12797,-16108,25463,2.0
-12731,-16373,25222,2.0
-12618,-16572,24886,2.0
-12401,-16629,24349,2.0
-12158,-16640,23762,0.0
-11839,-16530,23028,0.0
-11508,-16390,22279,0.0
-11301,-16412,21772,0.0
-11028,-16325,21139,0.0
-10834,-16345,20662,0.0
-10838,-16660,20564,0.0
-10868,-17017,20512,0.0
-10881,-17349,20425,0.0
-10899,-17692,20346,0.0
-10911,-18029,20254,0.0
-10933,-18386,20179,0.0
-10968,-18768,20125,0.0
-10991,-19132,20046,0.0
-11016,-19504,19969,0.0
-11050,-19895,19905,0.0
-11088,-20299,19847,0.0
-11098,-20654,19734,0.0
-11121,-21039,19643,0.0
-11150,-21437,19559,0.0
-11202,-21886,19513,0.0
-11228,-22288,19418,0.0
-11266,-22720,19341,0.0
-11286,-23120,19231,0.0
-11319,-23552,19139,0.0
-11236,-23744,18850,0.0
0,0,0,0.0
0,0,0,0.0
0,0,0,0.0
0,0,0,0.0
0,0,0,0.0
-809,-1872,1289,0.0
0,0,0,0.0
0,0,0,0.0
0,0,0,0.0
0,0,0,0.0
0,0,0,0.0
0,0,0,0.0
0,0,0,0.0
0,0,0,0.0
0,0,0,0.0
-776,-2077,1110,0.0
-762,-2071,1077,0.0
0,0,0,0.0
0,0,0,0.0
0,0,0,0.0
0,0,0,0.0
-62,-184,83,0.0
-63,-190,83,0.0
-71,-214,91,0.0
-74,-225,93,0.0
-79,-248,99,0.0
-90,-284,110,0.0
-103,-328,123,0.0
-105,-340,123,0.0
-100,-330,116,0.0
-100,-334,112,0.0
-100,-337,110,0.0
-97,-334,104,0.0
-97,-338,102,0.0
-94,-333,96,0.0
-94,-336,93,0.0
-93,-341,90,0.0
-93,-344,87,0.0
-90,-338,82,0.0
-6060,17202,14961,0.0
-6049,16817,14946,0.0
-6060,16501,14987,0.0
-6081,16217,15051,0.0
-6060,15825,15008,0.0
-6006,15358,14885,0.0
-6113,15307,15160,0.0
-6139,15050,15234,0.0
0,0,0,0.0
-13210,31026,32807,0.0
-12799,29421,31799,0.0
-12883,28978,32016,0.0
-12768,28101,31740,0.0
-6976,15022,17348,0.0
-7004,14752,17419,0.0
-6985,14389,17376,0.0
-12557,25292,31239,0.0
-7292,14360,18142,0.0
-7363,14173,18320,0.0
-12449,23418,30973,0.0
-12510,22991,31123,0.0
-12218,21934,30393,0.0
-12254,21483,30479,0.0
0,0,0,0.0
-12196,20374,30322,0.0
-12205,19895,30337,0.0
-12313,19577,30596,0.0
-12378,19192,30749,0.0
-12441,18802,30892,0.0
-12417,18287,30823,0.0
-13579,19478,33691,0.0
-13556,18933,33619,0.0
-13511,18365,33491,0.0
-13485,17831,33410,0.0
-13410,17241,33205,0.0
-13392,16731,33139,0.0
-13341,16190,32995,0.0
-13354,15731,33004,0.0
-13297,15195,32840,0.0
0,0,0,0.0
-13214,14182,32586,0.0
0,0,0,0.0
0,0,0,0.0
-13143,12768,32332,0.0
0,0,0,0.0
-13039,11803,32022,0.0
-12991,11332,31873,0.0
-13053,10961,31993,0.0
-12967,10470,31751,0.0
-12945,10038,31666,0.0
0,0,0,0.0
-12913,9195,31518,0.0
-13057,8889,31834,0.0
-13428,8723,32702,0.0
-10494,6492,25525,0.0
-10528,6191,25579,0.0
-10507,5857,25495,0.0
-10486,5528,25414,0.0
-10482,5210,25369,0.0
-10446,4879,25249,0.0
-10446,4568,25214,0.0
-10424,4250,25127,0.0
-10423,3942,25089,0.0
-10404,3631,25005,0.0
-10408,3329,24979,0.0
-10372,3016,24853,0.0
-10378,2719,24832,0.0
-10350,2415,24725,0.0
-10347,2118,24677,0.0
-10328,1821,24591,0.0
-10334,1529,24566,0.0
-10310,1235,24466,0.0
-10313,945,24431,0.0
-10293,654,24339,0.0
-10278,367,24261,0.0
-10274,80,24206,0.0
-10260,-202,24130,0.0
-10233,-485,24017,0.0
-9982,-748,23386,0.0
-10287,-1053,24052,0.0
-10665,-1385,24884,0.0
-11214,-1762,26111,0.0
-11815,-2178,27455,2.0
-11907,-2519,27609,2.0
-11927,-2847,27597,2.0
-12042,-3201,27800,2.0
-12195,-3571,28091,2.0
-12264,-3922,28186,2.0
-12350,-4282,28318,2.0
-12459,-4656,28502,2.0
-12488,-5002,28500,2.0
-12515,-5349,28492,2.0
-12636,-5739,28697,2.0
-12689,-6103,28743,2.0
-12703,-6451,28704,2.0
-12709,-6793,28641,2.0
-12812,-7191,28798,2.0
-12857,-7559,28822,2.0
-12913,-7937,28869,2.0
-12962,-8314,28898,2.0
-12989,-8679,28875,2.0
-13046,-9067,28919,2.0
-13017,-9396,28773,2.0
-12985,-9720,28617,2.0
-12994,-10075,28550,2.0
-12979,-10412,28433,2.0
-12966,-10749,28314,2.0
-12798,-10954,27858,2.0
-12828,-11326,27833,2.0
-12890,-11728,27876,2.0
-12947,-12129,27905,2.0
-12937,-12471,27791,2.0
-12921,-12805,27659,2.0
-12891,-13127,27502,2.0
-12905,-13493,27432,2.0
-12872,-13809,27262,2.0
0,0,0,0.0
0,0,0,0.0
-12757,-14736,26714,2.0
-12709,-15033,26511,2.0
-12650,-15312,26281,2.0
-12578,-15575,26027,2.0
-12551,-15891,25864,2.0
-12445,-16105,25538,2.0
-12348,-16328,25232,2.0
-12278,-16581,24980,2.0
-12060,-16627,24426,2.0
-11877,-16713,23947,0.0
-11557,-16594,23196,0.0
-11215,-16425,22403,0.0
-10941,-16339,21750,0.0
-10733,-16339,21233,0.0
-10491,-16275,20650,0.0
-10508,-16610,20579,0.0
-10498,-16906,20455,0.0
-10554,-17307,20454,0.0
-10567,-17644,20370,0.0
-10562,-17953,20248,0.0
-10593,-18325,20192,0.0
-10619,-18692,20125,0.0
-10653,-19076,20071,0.0
-10679,-19453,20000,0.0
-10708,-19835,19929,0.0
-10729,-20209,19844,0.0
-10752,-20592,19761,0.0
-10784,-20994,19689,0.0
-10792,-21353,19571,0.0
-10830,-21777,19507,0.0
-10850,-22169,19405,0.0
-10897,-22620,19349,0.0
-10913,-23013,19236,0.0
-10954,-23463,19163,0.0
-10927,-23772,18967,0.0
0,0,0,0.0
0,0,0,0.0
0,0,0,0.0
0,0,0,0.0
-762,-1790,1269,0.0
0,0,0,0.0
0,0,0,0.0
0,0,0,0.0
0,0,0,0.0
0,0,0,0.0
0,0,0,0.0
0,0,0,0.0
0,0,0,0.0
0,0,0,0.0
0,0,0,0.0
0,0,0,0.0
0,0,0,0.0
0,0,0,0.0
0,0,0,0.0
0,0,0,0.0
0,0,0,0.0
0,0,0,0.0
-61,-187,82,0.0
-67,-208,89,0.0
-72,-228,94,0.0
-76,-247,99,0.0
-82,-269,105,0.0
-96,-316,119,0.0
-100,-334,122,0.0
-99,-335,119,0.0
-96,-331,112,0.0
-96,-336,110,0.0
-94,-334,106,0.0
-91,-329,100,0.0
-90,-331,97,0.0
-90,-335,95,0.0
-90,-340,91,0.0
-87,-333,86,0.0
-89,-345,85,0.0
-6081,17832,15600,0.0
-6085,17474,15621,0.0
-6088,17118,15638,0.0
-6087,16758,15644,0.0
-6111,16469,15711,0.0
-6059,15988,15585,0.0
0,0,0,0.0
-6000,15170,15445,0.0
-6121,15148,15762,0.0
-6903,16717,17778,0.0
-6874,16288,17704,0.0
-6928,16063,17848,0.0
-6954,15774,17918,0.0
-12559,27862,32360,0.0
-6710,14559,17290,0.0
-6842,14516,17628,0.0
-6944,14404,17892,0.0
-12049,24429,31040,0.0
-7174,14217,18481,0.0
-12158,23541,31312,0.0
-12206,23086,31429,0.0
0,0,0,0.0
-11819,21317,30415,0.0
-11836,20840,30451,0.0
-11650,20017,29960,0.0
-11715,19638,30117,0.0
-11937,19514,30672,0.0
-11924,19007,30627,0.0
-12059,18735,30959,0.0
-12035,18217,30882,0.0
-13128,19352,33666,0.0
-13081,18774,33530,0.0
-13087,18276,33523,0.0
-12994,17650,33264,0.0
-12992,17154,33234,0.0
-12965,16636,33145,0.0
-12901,16074,32956,0.0
-12923,15629,32988,0.0
0,0,0,0.0
0,0,0,0.0
0,0,0,0.0
0,0,0,0.0
-12726,13124,32349,0.0
-12696,12653,32242,0.0
-12684,12207,32182,0.0
0,0,0,0.0
-12578,11251,31851,0.0
-12550,10805,31745,0.0
-12511,10356,31612,0.0
-12551,9976,31680,0.0
0,0,0,0.0
-12543,9152,31589,0.0
-12676,8839,31882,0.0
-12734,8473,31992,0.0
-10210,6469,25621,0.0
-10181,6129,25515,0.0
-10192,5816,25509,0.0
-10176,5490,25437,0.0
-10181,5177,25411,0.0
-10159,4852,25321,0.0
-10106,4518,25157,0.0
-10114,4214,25139,0.0
-10089,3898,25041,0.0
-10074,3590,24967,0.0
-10066,3285,24910,0.0
-10064,2985,24864,0.0
-10062,2686,24819,0.0
-10044,2385,24735,0.0
-10011,2083,24614,0.0
-10006,1790,24562,0.0
-9999,1498,24502,0.0
-10001,1208,24465,0.0
-9994,918,24405,0.0
-10003,632,24383,0.0
-9985,345,24294,0.0
-9964,59,24196,0.0
-9956,-223,24132,0.0
-9945,-504,24061,0.0
-9787,-773,23633,0.0
-9956,-1067,23994,0.0
-10359,-1402,24912,0.0
-10950,-1788,26278,0.0
-11491,-2199,27518,2.0
-11559,-2534,27624,2.0
-11590,-2864,27637,2.0
-11604,-3190,27610,2.0
-11760,-3560,27919,2.0
-11897,-3931,28182,2.0
-11982,-4290,28318,2.0
-12086,-4661,28498,2.0
-12183,-5035,28657,2.0
-12199,-5378,28625,2.0
-12255,-5740,28687,2.0
-12296,-6097,28710,2.0
-12237,-6405,28502,2.0
-12265,-6756,28491,2.0
-12415,-7179,28764,2.0
-12548,-7601,28998,2.0
-12583,-7967,28998,2.0
-12637,-8348,29042,2.0
-12636,-8695,28958,2.0
-12709,-9094,29044,2.0
-12723,-9454,28993,2.0
-12657,-9753,28758,2.0
0,0,0,0.0
-12692,-10480,28665,2.0
-12597,-10750,28363,2.0
-12477,-10992,28005,2.0
-12412,-11278,27769,2.0
-12563,-11764,28019,2.0
-12636,-12182,28086,2.0
-12601,-12499,27915,2.0
-12608,-12859,27838,2.0
0,0,0,0.0
-12510,-13458,27428,2.0
-12504,-13802,27315,2.0
-12473,-14119,27150,2.0
-12469,-14467,27040,2.0
-12386,-14721,26759,2.0
-12362,-15044,26605,2.0
-12305,-15325,26379,2.0
-12262,-15623,26183,2.0
-12214,-15912,25974,2.0
-12041,-16034,25500,2.0
-12006,-16335,25321,2.0
-11936,-16586,25065,2.0
-11773,-16702,24615,2.0
-11534,-16703,24009,0.0
-11261,-16639,23335,0.0
-10926,-16466,22535,0.0
-10619,-16320,21800,0.0
-10397,-16289,21241,0.0
-10168,-16235,20670,0.0
-10175,-16553,20582,0.0
-10138,-16802,20404,0.0
-10202,-17220,20426,0.0
-10212,-17551,20338,0.0
-10234,-17904,20270,0.0
-10272,-18290,20233,0.0
-10290,-18645,20155,0.0
-10312,-19011,20082,0.0
-10325,-19363,19989,0.0
-10351,-19744,19920,0.0
-10390,-20152,19872,0.0
-10408,-20526,19782,0.0
-10425,-20899,19686,0.0
-10448,-21290,19600,0.0
-10486,-21718,19541,0.0
-10506,-22113,19445,0.0
-10531,-22521,19353,0.0
-10540,-22897,19229,0.0
-10577,-23343,19156,0.0
-10559,-23671,18979,0.0
0,0,0,0.0
0,0,0,0.0
-753,-1769,1322,0.0
0,0,0,0.0
0,0,0,0.0
0,0,0,0.0
0,0,0,0.0
-731,-1852,1229,0.0
0,0,0,0.0
0,0,0,0.0
0,0,0,0.0
0,0,0,0.0
0,0,0,0.0
0,0,0,0.0
0,0,0,0.0
0,0,0,0.0
0,0,0,0.0
0,0,0,0.0
0,0,0,0.0
-688,-2082,1011,0.0
0,0,0,0.0
-59,-185,85,0.0
-54,-173,78,0.0
-67,-216,93,0.0
-73,-240,100,0.0
-72,-239,97,0.0
-81,-274,108,0.0
-88,-304,116,0.0
-97,-334,123,0.0
-94,-333,118,0.0
-92,-330,113,0.0
-92,-333,111,0.0
-89,-331,105,0.0
-90,-335,103,0.0
-87,-330,98,0.0
-89,-342,97,0.0
-86,-337,92,0.0
-85,-340,88,0.0
-85,-344,86,0.0
-5968,18102,15928,0.0
-6018,17868,16065,0.0
-6092,17707,16268,0.0
-6078,17293,16235,0.0
-6074,16918,16231,0.0
-6084,16584,16258,0.0
-6048,16137,16166,0.0
-5974,15597,15968,0.0
-5977,15269,15976,0.0
-5974,14932,15969,0.0
-5978,14621,15982,0.0
-11952,28591,31946,0.0
-12008,28094,32092,0.0
-6937,15875,18540,0.0
-6508,14562,17389,0.0
-6632,14508,17717,0.0
-6745,14423,18013,0.0
-6883,14384,18378,0.0
-6943,14178,18531,0.0
-11754,23448,31362,0.0
-11601,22603,30941,0.0
0,0,0,0.0
-11385,21149,30343,0.0
0,0,0,0.0
-11471,20291,30539,0.0
-11401,19673,30338,0.0
-11366,19126,30228,0.0
-11584,19002,30791,0.0
-11659,18638,30971,0.0
-12706,19787,33731,0.0
-12670,19212,33611,0.0
-12624,18634,33469,0.0
-12606,18102,33393,0.0
-12566,17551,33266,0.0
-12548,17035,33192,0.0
-12505,16493,33050,0.0
-12478,15979,32950,0.0
-12464,15490,32885,0.0
0,0,0,0.0
0,0,0,0.0
0,0,0,0.0
0,0,0,0.0
-12293,13018,32282,0.0
0,0,0,0.0
-12298,12150,32232,0.0
-12223,11647,32001,0.0
-12277,11271,32108,0.0
-12241,10815,31978,0.0
-12110,10284,31597,0.0
-12162,9916,31699,0.0
-12171,9513,31683,0.0
-12145,9087,31577,0.0
-12346,8827,32060,0.0
-12678,8647,32881,0.0
-9895,6425,25630,0.0
-9874,6090,25543,0.0
-9857,5761,25465,0.0
-9837,5434,25376,0.0
-9841,5123,25352,0.0
-9840,4810,25311,0.0
-9810,4488,25198,0.0
-9780,4168,25084,0.0
-9769,3859,25020,0.0
-9763,3555,24964,0.0
-9749,3250,24891,0.0
-9754,2952,24864,0.0
-9742,2653,24793,0.0
-9738,2356,24741,0.0
-9710,2057,24631,0.0
-9704,1764,24574,0.0
-9702,1473,24526,0.0
-9693,1183,24461,0.0
-9676,894,24372,0.0
-9688,608,24359,0.0
-9663,323,24253,0.0
-9659,39,24196,0.0
-9646,-242,24118,0.0
-9635,-523,24044,0.0
-9346,-779,23274,0.0
-9734,-1093,24194,0.0
-10071,-1421,24981,0.0
-10666,-1813,26401,0.0
-11107,-2207,27436,2.0
-11199,-2546,27605,2.0
-11222,-2873,27602,2.0
-11330,-3224,27806,2.0
-11458,-3587,28057,2.0
-11522,-3935,28149,2.0
-11596,-4289,28264,2.0
-11732,-4673,28530,2.0
-11774,-5023,28564,2.0
-11852,-5392,28686,2.0
-11872,-5737,28662,2.0
-11831,-6051,28491,2.0
-11759,-6347,28249,2.0
-11846,-6729,28385,2.0
-12051,-7185,28801,2.0
-12098,-7554,28838,2.0
-12220,-7974,29049,2.0
-12276,-8357,29103,2.0
-12339,-8749,29171,2.0
-12427,-9162,29297,2.0
-12431,-9516,29221,2.0
-12380,-9828,29019,2.0
-12332,-10139,28821,2.0
-12225,-10397,28485,2.0
-12190,-10714,28320,2.0
-12107,-10985,28038,2.0
-11962,-11194,27616,2.0
-12141,-11708,27939,2.0
-12225,-12137,28040,2.0
-12278,-12542,28069,2.0
-12249,-12864,27912,2.0
-12230,-13194,27772,2.0
-12192,-13505,27590,2.0
-12174,-13838,27452,2.0
0,0,0,0.0
-12096,-14451,27079,2.0
-12034,-14726,26839,2.0
-12022,-15064,26712,2.0
-12012,-15404,26588,2.0
-11910,-15624,26259,2.0
-11834,-15876,25989,2.0
-11675,-16007,25533,2.0
-11590,-16236,25243,2.0
-11567,-16550,25086,2.0
-11431,-16701,24689,2.0
-11208,-16713,24101,0.0
-10935,-16637,23408,0.0
-10639,-16514,22674,0.0
-10304,-16308,21856,0.0
-10138,-16358,21403,0.0
-9915,-16306,20833,0.0
-9849,-16505,20592,0.0
-9821,-16765,20433,0.0
-9875,-17169,20439,0.0
-9887,-17506,20360,0.0
-9920,-17879,20319,0.0
-9934,-18225,20237,0.0
-9959,-18592,20175,0.0
-9971,-18941,20088,0.0
-10008,-19339,20045,0.0
-10015,-19685,19941,0.0
-10032,-20053,19855,0.0
-10044,-20415,19758,0.0
-10086,-20840,19714,0.0
-10111,-21240,19639,0.0
-10130,-21628,19545,0.0
-10153,-22029,19457,0.0
-10156,-22392,19331,0.0
-10198,-22845,19274,0.0
-10217,-23252,19170,0.0
-10239,-23671,19070,0.0
0,0,0,0.0
0,0,0,0.0
0,0,0,0.0
0,0,0,0.0
0,0,0,0.0
0,0,0,0.0
-733,-1888,1290,0.0
0,0,0,0.0
-687,-1825,1188,0.0
0,0,0,0.0
0,0,0,0.0
0,0,0,0.0
0,0,0,0.0
0,0,0,0.0
0,0,0,0.0
0,0,0,0.0
0,0,0,0.0
0,0,0,0.0
0,0,0,0.0
0,0,0,0.0
-664,-2107,1002,0.0
-58,-187,86,0.0
-60,-199,89,0.0
-62,-208,90,0.0
-68,-230,97,0.0
-74,-255,104,0.0
-79,-275,109,0.0
-85,-303,117,0.0
-95,-340,126,0.0
-95,-347,124,0.0
-93,-344,119,0.0
-93,-349,117,0.0
-90,-347,112,0.0
-90,-350,109,0.0
-87,-345,103,0.0
-87,-348,100,0.0
-86,-351,97,0.0
-83,-346,91,0.0
-84,-350,88,0.0
-5774,18135,16047,0.0
-5856,18003,16277,0.0
-5935,17856,16497,0.0
-5912,17407,16433,0.0
-5884,16956,16356,0.0
-5348,15080,14865,0.0
-5826,16073,16191,0.0
-5663,15287,15737,0.0
-5773,15245,16038,0.0
-5764,14892,16012,0.0
-6842,17288,19000,0.0
-6828,16873,18956,0.0
-6804,16443,18885,0.0
-6778,16015,18804,0.0
-6755,15603,18733,0.0
-6702,15133,18580,0.0
-6555,14466,18165,0.0
-6665,14372,18461,0.0
-6692,14097,18526,0.0
-11250,23149,31129,0.0
-11511,23131,31834,0.0
-11010,21599,30429,0.0
-11005,21074,30396,0.0
-10926,20419,30164,0.0
-10874,19824,29998,0.0
-11026,19606,30399,0.0
-11082,19212,30530,0.0
-11142,18828,30676,0.0
-11249,18521,30945,0.0
-12266,19670,33716,0.0
-12243,19116,33628,0.0
-12207,18550,33500,0.0
-12171,17992,33374,0.0
-12176,17501,33356,0.0
-12112,16920,33151,0.0
-12108,16432,33114,0.0
-10932,14403,29868,0.0
-10935,13980,29848,0.0
-10915,13530,29762,0.0
-11984,14398,32646,0.0
-11019,12820,29987,0.0
-11052,12442,30042,0.0
-11903,12958,32323,0.0
-11870,12485,32198,0.0
0,0,0,0.0
0,0,0,0.0
0,0,0,0.0
-11831,10736,31942,0.0
-11693,10198,31531,0.0
-11670,9769,31431,0.0
-11680,9372,31418,0.0
-11743,9017,31547,0.0
-12016,8816,32237,0.0
-12331,8629,33040,0.0
-9567,6373,25601,0.0
-9562,6048,25550,0.0
-9549,5722,25479,0.0
-9536,5400,25408,0.0
-9528,5083,25352,0.0
-9515,4766,25279,0.0
-9496,4449,25192,0.0
-9481,4136,25113,0.0
-9480,3832,25072,0.0
-9454,3521,24962,0.0
-9439,3216,24883,0.0
-9446,2921,24859,0.0
-9428,2620,24770,0.0
-9426,2326,24725,0.0
-9409,2029,24638,0.0
-9409,1739,24595,0.0
-9394,1446,24513,0.0
-9382,1157,24437,0.0
-9375,871,24374,0.0
-9365,585,24304,0.0
-9369,302,24271,0.0
-9369,19,24226,0.0
-9342,-261,24107,0.0
-9335,-540,24042,0.0
-9053,-795,23272,0.0
-9454,-1111,24253,0.0
-9746,-1435,24951,0.0
-10363,-1833,26477,0.0
-10790,-2227,27508,2.0
-10850,-2559,27600,2.0
-10906,-2893,27684,2.0
-10964,-3230,27770,2.0
-11108,-3598,28074,2.0
-11173,-3946,28172,2.0
-11270,-4310,28351,2.0
-11335,-4666,28451,2.0
-11401,-5025,28548,2.0
-11453,-5381,28611,2.0
-11441,-5709,28510,2.0
-11361,-5998,28239,2.0
-11346,-6321,28133,2.0
-11433,-6701,28277,2.0
-11572,-7118,28545,2.0
-11698,-7534,28781,2.0
-11828,-7962,29024,2.0
-11884,-8344,29083,2.0
