//X,Y,Z,Classification
7.0,42.0,109.0,0.0
7.0,42.0,107.0,0.0
7.0,44.0,108.0,0.0
7.0,46.0,109.0,0.0
6.0,46.0,107.0,0.0
7.0,45.0,100.0,0.0
6.0,47.0,103.0,0.0
6.0,49.0,102.0,0.0
6.0,47.0,97.0,0.0
5.0,51.0,100.0,0.0
5.0,48.0,94.0,0.0
6.0,52.0,99.0,0.0
5.0,47.0,86.0,0.0
5.0,54.0,96.0,0.0
5.0,57.0,99.0,0.0
5.0,52.0,89.0,0.0
5.0,57.0,96.0,0.0
4.0,57.0,92.0,0.0
4.0,60.0,93.0,0.0
4.0,67.0,102.0,0.0
4.0,65.0,98.0,0.0
4.0,64.0,94.0,0.0
3.0,70.0,101.0,0.0
3.0,67.0,95.0,0.0
3.0,77.0,106.0,0.0
3.0,78.0,105.0,0.0
4.0,79.0,104.0,0.0
3.0,83.0,107.0,0.0
2.0,83.0,104.0,0.0
3.0,90.0,110.0,0.0
3.0,93.0,112.0,0.0
2.0,91.0,107.0,0.0
2.0,94.0,108.0,0.0
2.0,100.0,113.0,0.0
2.0,105.0,115.0,0.0
2.0,105.0,114.0,0.0
1.0,112.0,117.0,0.0
0.0,111.0,114.0,0.0
0.0,118.0,120.0,0.0
0.0,119.0,117.0,0.0
0.0,118.0,114.0,0.0
-3.0,-304.0,95.0,0.0
-3.0,-298.0,98.0,0.0
-2.0,-305.0,102.0,0.0
-1.0,-304.0,106.0,0.0
-1.0,-281.0,101.0,0.0
-1.0,-287.0,107.0,0.0
0.0,-283.0,110.0,0.0
0.0,-288.0,115.0,0.0
0.0,-280.0,115.0,0.0
1.0,-284.0,121.0,0.0
1.0,-282.0,123.0,0.0
2.0,-284.0,128.0,0.0
2.0,-279.0,129.0,0.0
3.0,-284.0,135.0,0.0
3.0,-277.0,135.0,0.0
4.0,-281.0,141.0,0.0
5.0,-277.0,142.0,0.0
5.0,-274.0,145.0,0.0
6.0,-285.0,154.0,0.0
6.0,-300.0,167.0,0.0
7.0,-294.0,168.0,0.0
8.0,-286.0,167.0,0.0
8.0,-285.0,171.0,0.0
9.0,-265.0,163.0,0.0
9.0,-247.0,155.0,0.0
9.0,-244.0,157.0,0.0
8.0,-226.0,150.0,0.0
9.0,-227.0,153.0,0.0
9.0,-209.0,145.0,0.0
8.0,-200.0,142.0,0.0
9.0,-186.0,134.0,0.0
8.0,-181.0,134.0,0.0
9.0,-171.0,130.0,0.0
9.0,-160.0,124.0,0.0
8.0,-156.0,124.0,0.0
8.0,-143.0,115.0,0.0
8.0,-142.0,117.0,0.0
8.0,-138.0,116.0,0.0
7.0,-120.0,103.0,0.0
8.0,-122.0,108.0,0.0
7.0,-104.0,94.0,0.0
8.0,-108.0,101.0,0.0
7.0,-97.0,92.0,0.0
7.0,-100.0,97.0,0.0
6.0,-75.0,74.0,0.0
1770.0,-21787.0,21961.0,0.0
1793.0,-21390.0,22033.0,0.0
1817.0,-21003.0,22109.0,0.0
1839.0,-20621.0,22184.0,0.0
1734.0,-18872.0,20748.0,0.0
1751.0,-18509.0,20799.0,0.0
1779.0,-18254.0,20964.0,0.0
1841.0,-18356.0,21550.0,0.0
1909.0,-18493.0,22194.0,0.0
1982.0,-18664.0,22900.0,0.0
2053.0,-18800.0,23587.0,0.0
2882.0,-25657.0,32915.0,1.0
2897.0,-25090.0,32919.0,1.0
2885.0,-24304.0,32614.0,1.0
2860.0,-23444.0,32186.0,1.0
2851.0,-22747.0,31951.0,1.0
2835.0,-22014.0,31643.0,1.0
2821.0,-21314.0,31358.0,1.0
2809.0,-20653.0,31108.0,1.0
2788.0,-19960.0,30786.0,1.0
2781.0,-19373.0,30603.0,1.0
2755.0,-18685.0,30238.0,1.0
2736.0,-18059.0,29949.0,1.0
2719.0,-17467.0,29691.0,1.0
2718.0,-16988.0,29611.0,1.0
2724.0,-16564.0,29613.0,1.0
2756.0,-16312.0,29922.0,1.0
2783.0,-16024.0,30169.0,1.0
2811.0,-15737.0,30422.0,1.0
2821.0,-15356.0,30495.0,1.0
2822.0,-14930.0,30470.0,1.0
2818.0,-14493.0,30410.0,1.0
2826.0,-14112.0,30460.0,1.0
2834.0,-13745.0,30534.0,1.0
2841.0,-13378.0,30607.0,1.0
2850.0,-13018.0,30690.0,1.0
2854.0,-12650.0,30747.0,1.0
2850.0,-12243.0,30704.0,1.0
2848.0,-11850.0,30685.0,1.0
2859.0,-11516.0,30818.0,1.0
2857.0,-11135.0,30818.0,1.0
2867.0,-10804.0,30949.0,1.0
2877.0,-10477.0,31098.0,1.0
2876.0,-10108.0,31117.0,1.0
2871.0,-9728.0,31101.0,1.0
2872.0,-9376.0,31160.0,1.0
2871.0,-9016.0,31192.0,1.0
2862.0,-8637.0,31147.0,1.0
2854.0,-8263.0,31111.0,1.0
2844.0,-7891.0,31073.0,1.0
2837.0,-7528.0,31059.0,1.0
203.0,-513.0,2227.0,0.0
2614.0,-6311.0,28755.0,0.0
2635.0,-6048.0,29068.0,0.0
2630.0,-5722.0,29084.0,0.0
2654.0,-5458.0,29431.0,0.0
2641.0,-5118.0,29380.0,0.0
2655.0,-4829.0,29630.0,0.0
2687.0,-4569.0,30093.0,0.0
2737.0,-4330.0,30771.0,0.0
2749.0,-4020.0,31019.0,0.0
2792.0,-3748.0,31625.0,1.0
4.0,-4.0,45.0,0.0
5.0,-4.0,49.0,0.0
4.0,-4.0,42.0,0.0
5.0,-3.0,49.0,0.0
6.0,-4.0,67.0,0.0
6.0,-3.0,72.0,0.0
7.0,-3.0,76.0,0.0
4.0,-2.0,51.0,0.0
5.0,-1.0,62.0,0.0
4.0,0.0,57.0,0.0
5.0,0.0,61.0,0.0
4.0,0.0,46.0,0.0
4.0,1.0,49.0,0.0
5.0,1.0,65.0,0.0
6.0,3.0,74.0,0.0
5.0,3.0,69.0,0.0
7.0,6.0,91.0,0.0
8.0,7.0,91.0,0.0
6.0,6.0,72.0,0.0
7.0,8.0,90.0,0.0
8.0,10.0,97.0,0.0
7.0,11.0,92.0,0.0
8.0,13.0,101.0,0.0
7.0,12.0,84.0,0.0
7.0,15.0,104.0,0.0
5.0,12.0,76.0,0.0
8.0,19.0,106.0,0.0
8.0,21.0,114.0,0.0
8.0,22.0,108.0,0.0
9.0,27.0,127.0,0.0
8.0,24.0,111.0,0.0
8.0,28.0,121.0,0.0
9.0,30.0,128.0,0.0
8.0,30.0,117.0,0.0
8.0,31.0,117.0,0.0
9.0,36.0,130.0,0.0
7.0,33.0,114.0,0.0
7.0,37.0,125.0,0.0
8.0,38.0,121.0,0.0
8.0,40.0,123.0,0.0
7.0,40.0,121.0,0.0
8.0,44.0,127.0,0.0
8.0,44.0,123.0,0.0
7.0,47.0,125.0,0.0
7.0,48.0,124.0,0.0
7.0,48.0,121.0,0.0
6.0,46.0,111.0,0.0
7.0,51.0,121.0,0.0
6.0,50.0,115.0,0.0
6.0,54.0,119.0,0.0
5.0,47.0,101.0,0.0
6.0,52.0,109.0,0.0
5.0,55.0,112.0,0.0
4.0,47.0,94.0,0.0
4.0,50.0,96.0,0.0
4.0,56.0,105.0,0.0
4.0,59.0,109.0,0.0
4.0,54.0,99.0,0.0
4.0,61.0,106.0,0.0
4.0,61.0,104.0,0.0
4.0,63.0,104.0,0.0
3.0,67.0,108.0,0.0
3.0,63.0,100.0,0.0
3.0,67.0,103.0,0.0
3.0,64.0,97.0,0.0
3.0,72.0,106.0,0.0
3.0,72.0,103.0,0.0
2.0,75.0,106.0,0.0
2.0,77.0,105.0,0.0
2.0,82.0,110.0,0.0
2.0,87.0,114.0,0.0
1.0,84.0,108.0,0.0
1.0,91.0,114.0,0.0
1.0,95.0,117.0,0.0
1.0,98.0,118.0,0.0
1.0,100.0,117.0,0.0
1.0,102.0,118.0,0.0
0.0,107.0,120.0,0.0
0.0,107.0,117.0,0.0
0.0,110.0,119.0,0.0
0.0,110.0,116.0,0.0
0.0,121.0,125.0,0.0
0.0,124.0,126.0,0.0
-1.0,117.0,116.0,0.0
-1.0,120.0,117.0,0.0
-9.0,-314.0,99.0,0.0
-9.0,-316.0,104.0,0.0
-8.0,-303.0,103.0,0.0
-7.0,-296.0,105.0,0.0
-7.0,-291.0,106.0,0.0
-6.0,-285.0,107.0,0.0
-5.0,-283.0,110.0,0.0
-5.0,-282.0,113.0,0.0
-4.0,-279.0,115.0,0.0
-3.0,-278.0,118.0,0.0
-4.0,-272.0,119.0,0.0
-2.0,-279.0,126.0,0.0
-2.0,-271.0,126.0,0.0
-2.0,-262.0,125.0,0.0
-2.0,-268.0,132.0,0.0
-1.0,-262.0,132.0,0.0
0.0,-268.0,139.0,0.0
0.0,-275.0,146.0,0.0
0.0,-291.0,158.0,0.0
0.0,-303.0,170.0,0.0
1.0,-287.0,165.0,0.0
1.0,-294.0,173.0,0.0
2.0,-271.0,164.0,0.0
3.0,-270.0,167.0,0.0
2.0,-250.0,158.0,0.0
3.0,-238.0,154.0,0.0
3.0,-226.0,150.0,0.0
3.0,-220.0,149.0,0.0
4.0,-205.0,143.0,0.0
4.0,-196.0,139.0,0.0
4.0,-181.0,131.0,0.0
4.0,-180.0,134.0,0.0
4.0,-156.0,119.0,0.0
4.0,-158.0,122.0,0.0
4.0,-151.0,121.0,0.0
4.0,-145.0,118.0,0.0
4.0,-131.0,109.0,0.0
4.0,-129.0,110.0,0.0
5.0,-119.0,102.0,0.0
4.0,-113.0,101.0,0.0
4.0,-116.0,105.0,0.0
4.0,-99.0,92.0,0.0
4.0,-95.0,90.0,0.0
4.0,-82.0,80.0,0.0
1103.0,-22148.0,21910.0,0.0
1130.0,-21761.0,21999.0,0.0
1157.0,-21362.0,22068.0,0.0
1183.0,-20970.0,22136.0,0.0
1206.0,-20561.0,22181.0,0.0
1148.0,-18837.0,20767.0,0.0
1175.0,-18566.0,20918.0,0.0
1196.0,-18223.0,20986.0,0.0
1250.0,-18369.0,21623.0,0.0
1305.0,-18527.0,22292.0,0.0
1360.0,-18649.0,22942.0,0.0
1419.0,-18799.0,23645.0,0.0
1991.0,-25529.0,32832.0,1.0
1996.0,-24761.0,32567.0,1.0
1999.0,-23996.0,32281.0,1.0
1994.0,-23182.0,31901.0,1.0
1988.0,-22388.0,31522.0,1.0
1984.0,-21654.0,31198.0,1.0
1980.0,-20949.0,30892.0,1.0
1979.0,-20310.0,30659.0,1.0
1975.0,-19656.0,30383.0,1.0
1975.0,-19071.0,30191.0,1.0
1984.0,-18590.0,30148.0,1.0
1989.0,-18084.0,30054.0,1.0
2016.0,-17782.0,30289.0,1.0
2037.0,-17439.0,30457.0,1.0
2052.0,-17052.0,30546.0,1.0
2064.0,-16642.0,30585.0,1.0
2086.0,-16326.0,30795.0,1.0
2109.0,-16018.0,31024.0,1.0
2116.0,-15590.0,31014.0,1.0
2114.0,-15119.0,30909.0,1.0
2116.0,-14680.0,30854.0,1.0
2120.0,-14267.0,30845.0,1.0
2122.0,-13840.0,30794.0,1.0
2123.0,-13419.0,30746.0,1.0
2133.0,-13069.0,30855.0,1.0
2145.0,-12728.0,30981.0,1.0
2161.0,-12415.0,31179.0,1.0
2165.0,-12038.0,31212.0,1.0
2172.0,-11681.0,31294.0,1.0
2178.0,-11324.0,31378.0,1.0
2186.0,-10981.0,31492.0,1.0
2188.0,-10606.0,31514.0,1.0
2182.0,-10206.0,31450.0,1.0
2173.0,-9791.0,31325.0,1.0
2170.0,-9417.0,31319.0,1.0
2168.0,-9047.0,31320.0,1.0
2165.0,-8679.0,31316.0,1.0
2162.0,-8315.0,31320.0,1.0
2156.0,-7945.0,31297.0,1.0
2153.0,-7588.0,31311.0,1.0
2149.0,-7231.0,31317.0,1.0
2148.0,-6888.0,31386.0,1.0
2148.0,-6551.0,31474.0,1.0
2145.0,-6206.0,31531.0,1.0
2150.0,-5880.0,31691.0,1.0
2146.0,-5535.0,31746.0,1.0
2150.0,-5209.0,31926.0,1.0
2150.0,-4872.0,32043.0,1.0
2155.0,-4542.0,32229.0,1.0
2151.0,-4198.0,32319.0,1.0
2.0,-3.0,23.0,0.0
4.0,-6.0,57.0,0.0
4.0,-6.0,62.0,0.0
4.0,-4.0,54.0,0.0
4.0,-5.0,61.0,0.0
2.0,-3.0,37.0,0.0
3.0,-3.0,56.0,0.0
4.0,-2.0,54.0,0.0
3.0,-2.0,55.0,0.0
3.0,-1.0,39.0,0.0
4.0,0.0,63.0,0.0
3.0,0.0,53.0,0.0
4.0,0.0,77.0,0.0
4.0,1.0,67.0,0.0
4.0,1.0,67.0,0.0
4.0,2.0,68.0,0.0
4.0,3.0,63.0,0.0
4.0,4.0,72.0,0.0
4.0,5.0,73.0,0.0
4.0,6.0,73.0,0.0
4.0,7.0,77.0,0.0
5.0,10.0,97.0,0.0
4.0,9.0,79.0,0.0
5.0,12.0,97.0,0.0
6.0,15.0,109.0,0.0
6.0,17.0,112.0,0.0
6.0,18.0,112.0,0.0
5.0,18.0,105.0,0.0
5.0,17.0,95.0,0.0
5.0,20.0,104.0,0.0
5.0,22.0,109.0,0.0
5.0,24.0,108.0,0.0
5.0,24.0,103.0,0.0
5.0,28.0,118.0,0.0
6.0,29.0,116.0,0.0
5.0,28.0,109.0,0.0
5.0,31.0,115.0,0.0
5.0,35.0,122.0,0.0
5.0,36.0,121.0,0.0
5.0,38.0,124.0,0.0
5.0,39.0,119.0,0.0
4.0,39.0,116.0,0.0
4.0,42.0,121.0,0.0
5.0,43.0,120.0,0.0
4.0,39.0,107.0,0.0
4.0,43.0,112.0,0.0
4.0,46.0,117.0,0.0
4.0,44.0,108.0,0.0
3.0,49.0,115.0,0.0
3.0,46.0,106.0,0.0
3.0,50.0,112.0,0.0
3.0,51.0,112.0,0.0
3.0,54.0,115.0,0.0
3.0,52.0,108.0,0.0
2.0,54.0,108.0,0.0
2.0,57.0,110.0,0.0
2.0,54.0,102.0,0.0
2.0,59.0,107.0,0.0
2.0,58.0,104.0,0.0
1.0,50.0,89.0,0.0
2.0,58.0,100.0,0.0
1.0,60.0,101.0,0.0
1.0,61.0,100.0,0.0
1.0,62.0,98.0,0.0
1.0,65.0,101.0,0.0
1.0,67.0,101.0,0.0
1.0,69.0,103.0,0.0
0.0,73.0,105.0,0.0
0.0,77.0,108.0,0.0
0.0,77.0,107.0,0.0
0.0,83.0,112.0,0.0
0.0,81.0,107.0,0.0
0.0,84.0,108.0,0.0
0.0,88.0,110.0,0.0
0.0,87.0,106.0,0.0
-1.0,96.0,115.0,0.0
-1.0,91.0,106.0,0.0
-1.0,102.0,117.0,0.0
-1.0,98.0,111.0,0.0
-2.0,102.0,112.0,0.0
-2.0,108.0,116.0,0.0
-3.0,108.0,115.0,0.0
-3.0,111.0,115.0,0.0
-3.0,118.0,120.0,0.0
-3.0,117.0,117.0,0.0
-4.0,125.0,122.0,0.0
-12.0,-299.0,95.0,0.0
-12.0,-300.0,99.0,0.0
-11.0,-298.0,101.0,0.0
-10.0,-291.0,102.0,0.0
-10.0,-288.0,105.0,0.0
-9.0,-279.0,106.0,0.0
-8.0,-273.0,106.0,0.0
-7.0,-272.0,109.0,0.0
-7.0,-263.0,109.0,0.0
-7.0,-266.0,113.0,0.0
-6.0,-270.0,119.0,0.0
-5.0,-259.0,118.0,0.0
-5.0,-263.0,123.0,0.0
-4.0,-259.0,124.0,0.0
-4.0,-256.0,125.0,0.0
-3.0,-254.0,129.0,0.0
-3.0,-252.0,130.0,0.0
-2.0,-256.0,137.0,0.0
-2.0,-276.0,150.0,0.0
-2.0,-281.0,158.0,0.0
-2.0,-274.0,157.0,0.0
-1.0,-276.0,163.0,0.0
-1.0,-265.0,160.0,0.0
0.0,-248.0,153.0,0.0
0.0,-237.0,150.0,0.0
0.0,-230.0,149.0,0.0
0.0,-216.0,142.0,0.0
1.0,-214.0,145.0,0.0
1.0,-188.0,131.0,0.0
1.0,-182.0,130.0,0.0
2.0,-181.0,132.0,0.0
2.0,-170.0,127.0,0.0
2.0,-147.0,113.0,0.0
2.0,-151.0,118.0,0.0
2.0,-131.0,104.0,0.0
2.0,-137.0,112.0,0.0
3.0,-114.0,95.0,0.0
3.0,-120.0,103.0,0.0
3.0,-118.0,103.0,0.0
2.0,-93.0,82.0,0.0
2.0,-110.0,100.0,0.0
2.0,-87.0,81.0,0.0
3.0,-81.0,77.0,0.0
3.0,-72.0,70.0,0.0
781.0,-22117.0,21910.0,0.0
809.0,-21720.0,21986.0,0.0
838.0,-21320.0,22053.0,0.0
865.0,-20924.0,22116.0,0.0
890.0,-20526.0,22173.0,0.0
857.0,-18854.0,20812.0,0.0
880.0,-18499.0,20870.0,0.0
906.0,-18222.0,21011.0,0.0
952.0,-18357.0,21635.0,0.0
1000.0,-18510.0,22300.0,0.0
1049.0,-18629.0,22944.0,0.0
1100.0,-18780.0,23648.0,0.0
1549.0,-25451.0,32769.0,1.0
1558.0,-24658.0,32467.0,1.0
1564.0,-23853.0,32124.0,1.0
1568.0,-23058.0,31765.0,1.0
1570.0,-22282.0,31405.0,1.0
1575.0,-21581.0,31126.0,1.0
1574.0,-20831.0,30749.0,1.0
1577.0,-20173.0,30484.0,1.0
1597.0,-19760.0,30575.0,1.0
1622.0,-19412.0,30762.0,1.0
1631.0,-18888.0,30661.0,1.0
1626.0,-18218.0,30303.0,1.0
1654.0,-17951.0,30606.0,1.0
1675.0,-17593.0,30754.0,1.0
1695.0,-17244.0,30917.0,1.0
1709.0,-16835.0,30968.0,1.0
1727.0,-16491.0,31134.0,1.0
1743.0,-16118.0,31242.0,1.0
1751.0,-15689.0,31237.0,1.0
1753.0,-15208.0,31116.0,1.0
1758.0,-14780.0,31089.0,1.0
1767.0,-14382.0,31117.0,1.0
1769.0,-13939.0,31039.0,1.0
1774.0,-13541.0,31048.0,1.0
1785.0,-13178.0,31133.0,1.0
1800.0,-12860.0,31324.0,1.0
1809.0,-12506.0,31425.0,1.0
1812.0,-12113.0,31428.0,1.0
1820.0,-11755.0,31514.0,1.0
1827.0,-11398.0,31598.0,1.0
1832.0,-11038.0,31669.0,1.0
1835.0,-10664.0,31701.0,1.0
1834.0,-10272.0,31667.0,1.0
1820.0,-9820.0,31433.0,1.0
1820.0,-9456.0,31461.0,1.0
1821.0,-9093.0,31490.0,1.0
1820.0,-8730.0,31509.0,1.0
1818.0,-8365.0,31518.0,1.0
1815.0,-7999.0,31510.0,1.0
1810.0,-7632.0,31495.0,1.0
1810.0,-7283.0,31549.0,1.0
1805.0,-6924.0,31547.0,1.0
1806.0,-6588.0,31646.0,1.0
1807.0,-6253.0,31764.0,1.0
1811.0,-5927.0,31930.0,1.0
1815.0,-5602.0,32117.0,1.0
1817.0,-5273.0,32295.0,1.0
1818.0,-4937.0,32448.0,1.0
1808.0,-4571.0,32405.0,1.0
2.0,-6.0,41.0,0.0
1806.0,-3889.0,32683.0,1.0
1794.0,-3527.0,32652.0,1.0
3.0,-5.0,46.0,0.0
2.0,-2.0,27.0,0.0
1.0,-2.0,25.0,0.0
2.0,-1.0,31.0,0.0
2.0,-2.0,37.0,0.0
2.0,-2.0,43.0,0.0
2.0,-1.0,39.0,0.0
2.0,0.0,40.0,0.0
1.0,0.0,34.0,0.0
2.0,0.0,45.0,0.0
3.0,0.0,52.0,0.0
3.0,0.0,47.0,0.0
2.0,1.0,48.0,0.0
3.0,2.0,56.0,0.0
2.0,2.0,52.0,0.0
3.0,4.0,68.0,0.0
2.0,4.0,58.0,0.0
4.0,6.0,76.0,0.0
4.0,7.0,80.0,0.0
4.0,7.0,75.0,0.0
4.0,10.0,90.0,0.0
4.0,9.0,76.0,0.0
3.0,11.0,83.0,0.0
4.0,13.0,91.0,0.0
4.0,12.0,81.0,0.0
4.0,16.0,94.0,0.0
4.0,19.0,103.0,0.0
3.0,16.0,82.0,0.0
4.0,20.0,100.0,0.0
4.0,20.0,95.0,0.0
4.0,23.0,104.0,0.0
4.0,25.0,105.0,0.0
4.0,25.0,101.0,0.0
3.0,29.0,111.0,0.0
4.0,30.0,108.0,0.0
3.0,32.0,112.0,0.0
3.0,30.0,101.0,0.0
4.0,35.0,113.0,0.0
3.0,34.0,107.0,0.0
4.0,39.0,114.0,0.0
3.0,39.0,110.0,0.0
3.0,39.0,110.0,0.0
2.0,41.0,110.0,0.0
2.0,39.0,102.0,0.0
3.0,46.0,117.0,0.0
2.0,44.0,106.0,0.0
2.0,42.0,102.0,0.0
2.0,46.0,106.0,0.0
2.0,45.0,101.0,0.0
2.0,49.0,106.0,0.0
2.0,50.0,105.0,0.0
2.0,50.0,101.0,0.0
1.0,51.0,103.0,0.0
1.0,50.0,98.0,0.0
1.0,49.0,92.0,0.0
0.0,52.0,97.0,0.0
1.0,50.0,90.0,0.0
0.0,53.0,94.0,0.0
0.0,53.0,91.0,0.0
0.0,58.0,96.0,0.0
0.0,57.0,94.0,0.0
0.0,59.0,93.0,0.0
0.0,56.0,87.0,0.0
0.0,59.0,89.0,0.0
0.0,63.0,92.0,0.0
0.0,69.0,101.0,0.0
0.0,71.0,99.0,0.0
0.0,71.0,98.0,0.0
0.0,75.0,100.0,0.0
-1.0,72.0,94.0,0.0
-1.0,78.0,101.0,0.0
-1.0,80.0,100.0,0.0
-1.0,82.0,101.0,0.0
-2.0,79.0,95.0,0.0
-2.0,86.0,102.0,0.0
-2.0,91.0,104.0,0.0
-3.0,94.0,106.0,0.0
-2.0,90.0,100.0,0.0
-4.0,101.0,109.0,0.0
-4.0,106.0,113.0,0.0
-4.0,108.0,112.0,0.0
-4.0,111.0,112.0,0.0
-5.0,110.0,109.0,0.0
-5.0,113.0,110.0,0.0
-16.0,-312.0,99.0,0.0
-14.0,-299.0,98.0,0.0
-14.0,-310.0,106.0,0.0
-13.0,-297.0,105.0,0.0
-13.0,-288.0,105.0,0.0
-12.0,-292.0,110.0,0.0
-11.0,-280.0,109.0,0.0
-11.0,-277.0,111.0,0.0
-10.0,-270.0,112.0,0.0
-9.0,-268.0,115.0,0.0
-9.0,-271.0,119.0,0.0
-8.0,-275.0,125.0,0.0
-8.0,-261.0,121.0,0.0
-7.0,-262.0,125.0,0.0
-7.0,-268.0,132.0,0.0
-7.0,-269.0,136.0,0.0
-6.0,-263.0,137.0,0.0
-6.0,-263.0,140.0,0.0
-6.0,-289.0,158.0,0.0
-5.0,-293.0,164.0,0.0
-5.0,-288.0,166.0,0.0
-4.0,-272.0,160.0,0.0
-3.0,-262.0,159.0,0.0
-3.0,-250.0,155.0,0.0
-3.0,-233.0,147.0,0.0
-2.0,-224.0,146.0,0.0
-1.0,-207.0,139.0,0.0
-1.0,-199.0,135.0,0.0
-1.0,-195.0,136.0,0.0
0.0,-188.0,134.0,0.0
0.0,-185.0,136.0,0.0
0.0,-170.0,127.0,0.0
0.0,-156.0,120.0,0.0
0.0,-151.0,118.0,0.0
0.0,-134.0,106.0,0.0
1.0,-121.0,99.0,0.0
1.0,-129.0,108.0,0.0
0.0,-104.0,90.0,0.0
1.0,-110.0,96.0,0.0
1.0,-100.0,89.0,0.0
1.0,-101.0,92.0,0.0
1.0,-94.0,86.0,0.0
2.0,-80.0,76.0,0.0
2.0,-83.0,80.0,0.0
460.0,-22118.0,21938.0,0.0
490.0,-21704.0,21998.0,0.0
519.0,-21298.0,22058.0,0.0
549.0,-20917.0,22136.0,0.0
577.0,-20529.0,22201.0,0.0
564.0,-18826.0,20806.0,0.0
588.0,-18477.0,20869.0,0.0
615.0,-18214.0,21026.0,0.0
656.0,-18360.0,21662.0,0.0
698.0,-18537.0,22357.0,0.0
740.0,-18670.0,23019.0,0.0
783.0,-18795.0,23692.0,0.0
1110.0,-25432.0,32780.0,1.0
1121.0,-24527.0,32330.0,1.0
1138.0,-23784.0,32065.0,1.0
1147.0,-22954.0,31655.0,1.0
1158.0,-22218.0,31348.0,1.0
1168.0,-21500.0,31040.0,1.0
1174.0,-20763.0,30680.0,1.0
1197.0,-20351.0,30785.0,1.0
1222.0,-19986.0,30954.0,1.0
1248.0,-19633.0,31141.0,1.0
1270.0,-19250.0,31280.0,1.0
1268.0,-18523.0,30839.0,1.0
1290.0,-18175.0,31014.0,1.0
1310.0,-17796.0,31136.0,1.0
1328.0,-17426.0,31268.0,1.0
1342.0,-17001.0,31299.0,1.0
1365.0,-16704.0,31560.0,1.0
1375.0,-16241.0,31508.0,1.0
1382.0,-15775.0,31432.0,1.0
1389.0,-15325.0,31379.0,1.0
1399.0,-14919.0,31405.0,1.0
1409.0,-14523.0,31446.0,1.0
1418.0,-14124.0,31472.0,1.0
1429.0,-13742.0,31530.0,1.0
1435.0,-13342.0,31539.0,1.0
1448.0,-12998.0,31679.0,1.0
1452.0,-12604.0,31690.0,1.0
1458.0,-12212.0,31701.0,1.0
1466.0,-11850.0,31784.0,1.0
1472.0,-11484.0,31853.0,1.0
1475.0,-11102.0,31867.0,1.0
1477.0,-10712.0,31856.0,1.0
1479.0,-10332.0,31866.0,1.0
1472.0,-9900.0,31699.0,1.0
1470.0,-9511.0,31654.0,1.0
1470.0,-9140.0,31659.0,1.0
1470.0,-8776.0,31682.0,1.0
1467.0,-8399.0,31654.0,1.0
1468.0,-8046.0,31703.0,1.0
1464.0,-7673.0,31665.0,1.0
1462.0,-7319.0,31704.0,1.0
1462.0,-6973.0,31764.0,1.0
1464.0,-6640.0,31893.0,1.0
1466.0,-6309.0,32043.0,1.0
1467.0,-5974.0,32176.0,1.0
1467.0,-5638.0,32316.0,1.0
1470.0,-5312.0,32516.0,1.0
1467.0,-4966.0,32612.0,1.0
1464.0,-4618.0,32708.0,1.0
1460.0,-4267.0,32787.0,1.0
1457.0,-3923.0,32923.0,1.0
1449.0,-3566.0,32968.0,1.0
1.0,-2.0,24.0,0.0
2.0,-3.0,39.0,0.0
2.0,-3.0,39.0,0.0
1.0,-2.0,29.0,0.0
2.0,-1.0,30.0,0.0
1.0,-1.0,16.0,0.0
2.0,-1.0,35.0,0.0
2.0,-1.0,42.0,0.0
1.0,0.0,45.0,0.0
2.0,0.0,43.0,0.0
2.0,0.0,52.0,0.0
2.0,0.0,61.0,0.0
2.0,1.0,56.0,0.0
2.0,2.0,66.0,0.0
3.0,3.0,67.0,0.0
3.0,4.0,77.0,0.0
2.0,4.0,62.0,0.0
2.0,5.0,70.0,0.0
3.0,9.0,99.0,0.0
2.0,8.0,78.0,0.0
2.0,9.0,78.0,0.0
3.0,13.0,98.0,0.0
3.0,12.0,94.0,0.0
3.0,12.0,85.0,0.0
3.0,14.0,89.0,0.0
3.0,16.0,99.0,0.0
3.0,19.0,105.0,0.0
2.0,20.0,102.0,0.0
3.0,24.0,116.0,0.0
2.0,22.0,101.0,0.0
3.0,24.0,107.0,0.0
3.0,26.0,107.0,0.0
3.0,27.0,109.0,0.0
2.0,28.0,110.0,0.0
3.0,31.0,114.0,0.0
2.0,31.0,110.0,0.0
2.0,37.0,124.0,0.0
3.0,38.0,123.0,0.0
2.0,38.0,119.0,0.0
2.0,40.0,120.0,0.0
2.0,41.0,117.0,0.0
2.0,37.0,106.0,0.0
2.0,42.0,116.0,0.0
2.0,44.0,116.0,0.0
1.0,45.0,113.0,0.0
0.0,42.0,103.0,0.0
1.0,46.0,109.0,0.0
1.0,48.0,110.0,0.0
1.0,47.0,105.0,0.0
0.0,49.0,108.0,0.0
1.0,51.0,109.0,0.0
0.0,56.0,116.0,0.0
0.0,51.0,102.0,0.0
0.0,52.0,101.0,0.0
0.0,52.0,99.0,0.0
0.0,56.0,104.0,0.0
0.0,59.0,106.0,0.0
0.0,49.0,86.0,0.0
0.0,61.0,105.0,0.0
0.0,56.0,93.0,0.0
0.0,60.0,98.0,0.0
-1.0,60.0,95.0,0.0
-1.0,61.0,95.0,0.0
0.0,67.0,102.0,0.0
-1.0,65.0,96.0,0.0
-1.0,72.0,103.0,0.0
-2.0,69.0,97.0,0.0
-1.0,76.0,104.0,0.0
-2.0,73.0,98.0,0.0
-2.0,77.0,101.0,0.0
-3.0,81.0,104.0,0.0
-3.0,88.0,110.0,0.0
-3.0,90.0,112.0,0.0
-3.0,88.0,107.0,0.0
-3.0,87.0,104.0,0.0
-4.0,92.0,107.0,0.0
-5.0,99.0,112.0,0.0
-4.0,103.0,114.0,0.0
-5.0,100.0,108.0,0.0
-5.0,106.0,113.0,0.0
-6.0,110.0,114.0,0.0
-6.0,117.0,118.0,0.0
-6.0,116.0,115.0,0.0
-7.0,118.0,116.0,0.0
-22.0,-332.0,106.0,0.0
-22.0,-326.0,108.0,0.0
-21.0,-321.0,110.0,0.0
-20.0,-307.0,109.0,0.0
-19.0,-302.0,111.0,0.0
-18.0,-301.0,114.0,0.0
-17.0,-290.0,113.0,0.0
-17.0,-288.0,117.0,0.0
-16.0,-283.0,118.0,0.0
-16.0,-288.0,124.0,0.0
-15.0,-284.0,125.0,0.0
-15.0,-283.0,129.0,0.0
-14.0,-278.0,131.0,0.0
-13.0,-281.0,135.0,0.0
-13.0,-277.0,137.0,0.0
-13.0,-281.0,142.0,0.0
-12.0,-272.0,141.0,0.0
-12.0,-291.0,156.0,0.0
-14.0,-311.0,171.0,0.0
-12.0,-304.0,171.0,0.0
-11.0,-286.0,165.0,0.0
-10.0,-268.0,159.0,0.0
-10.0,-269.0,163.0,0.0
-9.0,-242.0,150.0,0.0
-8.0,-238.0,151.0,0.0
-7.0,-225.0,147.0,0.0
-6.0,-215.0,143.0,0.0
-6.0,-208.0,142.0,0.0
-5.0,-184.0,128.0,0.0
-4.0,-173.0,124.0,0.0
-4.0,-169.0,123.0,0.0
-4.0,-157.0,118.0,0.0
-3.0,-157.0,119.0,0.0
-3.0,-139.0,108.0,0.0
-2.0,-146.0,117.0,0.0
-2.0,-118.0,97.0,0.0
-2.0,-121.0,101.0,0.0
-1.0,-116.0,98.0,0.0
-1.0,-114.0,99.0,0.0
-1.0,-108.0,96.0,0.0
-329.0,-23749.0,21657.0,0.0
-1.0,-108.0,101.0,0.0
-253.0,-22918.0,21821.0,0.0
-217.0,-22497.0,21889.0,0.0
-182.0,-22098.0,21968.0,0.0
-147.0,-21663.0,22005.0,0.0
-115.0,-21281.0,22089.0,0.0
-82.0,-20880.0,22146.0,0.0
-52.0,-20505.0,22223.0,0.0
-20.0,-18837.0,20863.0,0.0
6.0,-18512.0,20952.0,0.0
33.0,-18240.0,21100.0,0.0
60.0,-18366.0,21713.0,0.0
88.0,-18531.0,22394.0,0.0
116.0,-18694.0,23094.0,0.0
199.0,-25677.0,32430.0,1.0
233.0,-25233.0,32586.0,1.0
263.0,-24455.0,32296.0,1.0
290.0,-23651.0,31944.0,1.0
316.0,-22845.0,31562.0,1.0
340.0,-22099.0,31236.0,1.0
363.0,-21425.0,30988.0,1.0
391.0,-21074.0,31194.0,1.0
417.0,-20664.0,31310.0,1.0
441.0,-20231.0,31386.0,1.0
467.0,-19899.0,31615.0,1.0
491.0,-19565.0,31843.0,1.0
515.0,-19202.0,32023.0,1.0
534.0,-18740.0,32030.0,1.0
553.0,-18280.0,32033.0,1.0
572.0,-17832.0,32046.0,1.0
591.0,-17442.0,32158.0,1.0
605.0,-16945.0,32063.0,1.0
618.0,-16465.0,31986.0,1.0
631.0,-16008.0,31941.0,1.0
646.0,-15598.0,31980.0,1.0
659.0,-15187.0,32012.0,1.0
673.0,-14799.0,32083.0,1.0
683.0,-14374.0,32071.0,1.0
695.0,-13998.0,32156.0,1.0
705.0,-13599.0,32184.0,1.0
716.0,-13220.0,32256.0,1.0
724.0,-12812.0,32247.0,1.0
730.0,-12389.0,32193.0,1.0
736.0,-11990.0,32193.0,1.0
743.0,-11614.0,32241.0,1.0
750.0,-11239.0,32290.0,1.0
753.0,-10832.0,32240.0,1.0
757.0,-10448.0,32246.0,1.0
759.0,-10050.0,32201.0,1.0
761.0,-9668.0,32195.0,1.0
765.0,-9304.0,32242.0,1.0
764.0,-8904.0,32158.0,1.0
763.0,-8515.0,32101.0,1.0
763.0,-8143.0,32094.0,1.0
764.0,-7801.0,32201.0,1.0
763.0,-7431.0,32190.0,1.0
763.0,-7082.0,32261.0,1.0
764.0,-6748.0,32409.0,1.0
764.0,-6416.0,32567.0,1.0
763.0,-6070.0,32671.0,1.0
762.0,-5727.0,32796.0,1.0
761.0,-5393.0,32988.0,1.0
758.0,-5048.0,33118.0,1.0
756.0,-4703.0,33267.0,1.0
751.0,-4351.0,33372.0,1.0
747.0,-4004.0,33533.0,1.0
741.0,-3644.0,33599.0,1.0
0.0,-2.0,26.0,0.0
0.0,-2.0,26.0,0.0
1.0,-4.0,51.0,0.0
1.0,-1.0,20.0,0.0
1.0,-1.0,36.0,0.0
0.0,-1.0,46.0,0.0
2.0,-2.0,70.0,0.0
1.0,-1.0,56.0,0.0
1.0,-1.0,55.0,0.0
1.0,0.0,54.0,0.0
1.0,0.0,62.0,0.0
1.0,1.0,68.0,0.0
1.0,1.0,69.0,0.0
1.0,2.0,70.0,0.0
1.0,3.0,75.0,0.0
1.0,4.0,72.0,0.0
1.0,6.0,89.0,0.0
1.0,6.0,89.0,0.0
1.0,8.0,89.0,0.0
1.0,9.0,87.0,0.0
1.0,12.0,104.0,0.0
1.0,12.0,96.0,0.0
0.0,13.0,97.0,0.0
1.0,15.0,101.0,0.0
1.0,18.0,116.0,0.0
1.0,18.0,108.0,0.0
1.0,22.0,124.0,0.0
1.0,22.0,112.0,0.0
1.0,22.0,107.0,0.0
1.0,25.0,116.0,0.0
1.0,27.0,121.0,0.0
0.0,30.0,126.0,0.0
1.0,31.0,125.0,0.0
0.0,30.0,113.0,0.0
0.0,35.0,127.0,0.0
0.0,38.0,133.0,0.0
0.0,38.0,128.0,0.0
0.0,41.0,134.0,0.0
0.0,42.0,132.0,0.0
0.0,48.0,146.0,0.0
0.0,46.0,135.0,0.0
0.0,50.0,140.0,0.0
0.0,51.0,137.0,0.0
0.0,46.0,121.0,0.0
0.0,49.0,126.0,0.0
-1.0,50.0,123.0,0.0
-1.0,53.0,127.0,0.0
-1.0,56.0,130.0,0.0
-1.0,54.0,122.0,0.0
-1.0,57.0,124.0,0.0
-1.0,55.0,116.0,0.0
-1.0,61.0,125.0,0.0
-2.0,58.0,118.0,0.0
-2.0,58.0,114.0,0.0
-2.0,64.0,123.0,0.0
-2.0,61.0,112.0,0.0
-2.0,62.0,113.0,0.0
-2.0,62.0,110.0,0.0
-3.0,66.0,113.0,0.0
-2.0,65.0,109.0,0.0
-3.0,72.0,119.0,0.0
-3.0,72.0,115.0,0.0
-3.0,70.0,108.0,0.0
-4.0,72.0,110.0,0.0
-4.0,74.0,110.0,0.0
-5.0,80.0,116.0,0.0
-4.0,78.0,110.0,0.0
-4.0,78.0,108.0,0.0
-5.0,85.0,116.0,0.0
-6.0,86.0,114.0,0.0
-6.0,88.0,114.0,0.0
-5.0,87.0,111.0,0.0
-6.0,94.0,117.0,0.0
-7.0,96.0,116.0,0.0
-6.0,95.0,113.0,0.0
-7.0,100.0,115.0,0.0
-8.0,107.0,121.0,0.0
-8.0,113.0,126.0,0.0
-9.0,110.0,120.0,0.0
-9.0,116.0,124.0,0.0
-9.0,117.0,122.0,0.0
-10.0,123.0,126.0,0.0
-10.0,120.0,120.0,0.0
-11.0,125.0,123.0,0.0
-26.0,-334.0,107.0,0.0
-24.0,-318.0,106.0,0.0
-24.0,-314.0,108.0,0.0
-22.0,-300.0,107.0,0.0
-22.0,-301.0,111.0,0.0
-22.0,-302.0,115.0,0.0
-20.0,-293.0,115.0,0.0
-20.0,-299.0,121.0,0.0
-19.0,-283.0,118.0,0.0
-18.0,-277.0,119.0,0.0
-18.0,-279.0,123.0,0.0
-17.0,-272.0,124.0,0.0
-16.0,-276.0,130.0,0.0
-17.0,-274.0,132.0,0.0
-16.0,-276.0,136.0,0.0
-16.0,-270.0,137.0,0.0
-15.0,-269.0,140.0,0.0
-16.0,-285.0,153.0,0.0
-16.0,-298.0,164.0,0.0
-15.0,-297.0,167.0,0.0
-14.0,-282.0,163.0,0.0
-13.0,-264.0,156.0,0.0
-13.0,-265.0,161.0,0.0
-10.0,-219.0,136.0,0.0
-10.0,-236.0,150.0,0.0
-10.0,-211.0,138.0,0.0
-8.0,-194.0,129.0,0.0
-7.0,-187.0,128.0,0.0
-7.0,-180.0,126.0,0.0
-7.0,-178.0,128.0,0.0
-6.0,-167.0,122.0,0.0
-4.0,-149.0,112.0,0.0
-4.0,-141.0,107.0,0.0
-4.0,-139.0,109.0,0.0
-4.0,-131.0,105.0,0.0
-4.0,-131.0,106.0,0.0
-3.0,-109.0,92.0,0.0
-2.0,-99.0,84.0,0.0
-2.0,-104.0,91.0,0.0
-3.0,-104.0,94.0,0.0
-658.0,-23728.0,21660.0,0.0
-618.0,-23320.0,21753.0,0.0
-578.0,-22893.0,21821.0,0.0
-541.0,-22495.0,21909.0,0.0
-502.0,-22034.0,21927.0,0.0
-467.0,-21647.0,22011.0,0.0
-433.0,-21270.0,22099.0,0.0
-399.0,-20875.0,22162.0,0.0
-366.0,-20492.0,22230.0,0.0
-312.0,-18810.0,20852.0,0.0
-285.0,-18486.0,20942.0,0.0
-259.0,-18267.0,21149.0,0.0
-238.0,-18386.0,21757.0,0.0
-216.0,-18522.0,22404.0,0.0
-195.0,-18681.0,23098.0,0.0
-236.0,-25596.0,32358.0,1.0
-199.0,-25044.0,32371.0,1.0
-164.0,-24339.0,32170.0,1.0
-128.0,-23586.0,31883.0,1.0
-96.0,-22802.0,31529.0,1.0
-65.0,-22040.0,31179.0,1.0
-36.0,-21466.0,31072.0,1.0
-8.0,-21149.0,31329.0,1.0
17.0,-20820.0,31572.0,1.0
43.0,-20391.0,31659.0,1.0
68.0,-20007.0,31812.0,1.0
92.0,-19716.0,32111.0,1.0
115.0,-19325.0,32251.0,1.0
137.0,-18879.0,32293.0,1.0
158.0,-18355.0,32185.0,1.0
178.0,-17916.0,32219.0,1.0
198.0,-17554.0,32386.0,1.0
215.0,-17074.0,32329.0,1.0
232.0,-16610.0,32288.0,1.0
248.0,-16151.0,32248.0,1.0
263.0,-15729.0,32270.0,1.0
277.0,-15291.0,32250.0,1.0
292.0,-14877.0,32271.0,1.0
305.0,-14502.0,32374.0,1.0
317.0,-14097.0,32401.0,1.0
329.0,-13717.0,32484.0,1.0
340.0,-13320.0,32515.0,1.0
349.0,-12906.0,32502.0,1.0
358.0,-12477.0,32435.0,1.0
366.0,-12071.0,32423.0,1.0
373.0,-11687.0,32457.0,1.0
380.0,-11322.0,32542.0,1.0
386.0,-10922.0,32519.0,1.0
390.0,-10521.0,32482.0,1.0
395.0,-10134.0,32480.0,1.0
399.0,-9752.0,32483.0,1.0
402.0,-9374.0,32495.0,1.0
403.0,-8987.0,32464.0,1.0
404.0,-8589.0,32379.0,1.0
405.0,-8207.0,32350.0,1.0
406.0,-7844.0,32380.0,1.0
407.0,-7493.0,32457.0,1.0
406.0,-7151.0,32572.0,1.0
406.0,-6799.0,32647.0,1.0
405.0,-6457.0,32776.0,1.0
403.0,-6111.0,32888.0,1.0
402.0,-5771.0,33042.0,1.0
399.0,-5435.0,33225.0,1.0
397.0,-5094.0,33395.0,1.0
393.0,-4740.0,33506.0,1.0
1.0,-7.0,53.0,0.0
382.0,-4036.0,33768.0,1.0
376.0,-3680.0,33887.0,1.0
367.0,-3311.0,33894.0,1.0
359.0,-2947.0,33953.0,1.0
0.0,-3.0,32.0,0.0
0.0,-2.0,28.0,0.0
1.0,-4.0,69.0,0.0
1.0,-5.0,101.0,0.0
0.0,-2.0,72.0,0.0
1.0,-2.0,74.0,0.0
0.0,-1.0,60.0,0.0
0.0,0.0,56.0,0.0
1.0,0.0,54.0,0.0
0.0,0.0,57.0,0.0
0.0,1.0,62.0,0.0
0.0,2.0,65.0,0.0
0.0,2.0,65.0,0.0
1.0,5.0,83.0,0.0
0.0,5.0,73.0,0.0
0.0,7.0,94.0,0.0
0.0,7.0,81.0,0.0
0.0,7.0,79.0,0.0
0.0,10.0,94.0,0.0
0.0,11.0,88.0,0.0
0.0,14.0,101.0,0.0
0.0,14.0,97.0,0.0
0.0,15.0,96.0,0.0
0.0,14.0,85.0,0.0
0.0,19.0,109.0,0.0
0.0,21.0,114.0,0.0
0.0,22.0,107.0,0.0
0.0,23.0,107.0,0.0
0.0,27.0,118.0,0.0
0.0,30.0,127.0,0.0
-1.0,30.0,120.0,0.0
0.0,33.0,129.0,0.0
0.0,37.0,135.0,0.0
0.0,34.0,119.0,0.0
0.0,38.0,127.0,0.0
-1.0,38.0,122.0,0.0
-1.0,41.0,127.0,0.0
-1.0,44.0,133.0,0.0
-1.0,46.0,133.0,0.0
-2.0,52.0,147.0,0.0
-1.0,46.0,125.0,0.0
-2.0,49.0,128.0,0.0
-1.0,49.0,126.0,0.0
-2.0,49.0,120.0,0.0
-2.0,55.0,132.0,0.0
-2.0,52.0,120.0,0.0
-2.0,49.0,112.0,0.0
-2.0,54.0,118.0,0.0
-3.0,55.0,118.0,0.0
-3.0,56.0,115.0,0.0
-3.0,52.0,104.0,0.0
-3.0,60.0,118.0,0.0
-3.0,53.0,101.0,0.0
-4.0,60.0,112.0,0.0
-4.0,62.0,112.0,0.0
-3.0,61.0,109.0,0.0
-4.0,64.0,111.0,0.0
-4.0,64.0,107.0,0.0
-4.0,67.0,110.0,0.0
-5.0,74.0,118.0,0.0
-4.0,66.0,102.0,0.0
-5.0,69.0,105.0,0.0
-5.0,73.0,108.0,0.0
-5.0,77.0,113.0,0.0
-5.0,74.0,106.0,0.0
-6.0,78.0,108.0,0.0
-6.0,81.0,111.0,0.0
-7.0,85.0,113.0,0.0
-8.0,89.0,115.0,0.0
-7.0,92.0,118.0,0.0
-8.0,93.0,116.0,0.0
-8.0,95.0,115.0,0.0
-9.0,99.0,116.0,0.0
-8.0,98.0,114.0,0.0
-9.0,103.0,116.0,0.0
-9.0,105.0,117.0,0.0
-9.0,106.0,116.0,0.0
-10.0,110.0,117.0,0.0
-10.0,113.0,118.0,0.0
-11.0,118.0,121.0,0.0
-11.0,115.0,115.0,0.0
-12.0,121.0,118.0,0.0
-32.0,-338.0,109.0,0.0
-31.0,-328.0,109.0,0.0
-30.0,-310.0,107.0,0.0
-28.0,-310.0,111.0,0.0
-28.0,-304.0,112.0,0.0
-27.0,-297.0,113.0,0.0
-26.0,-296.0,116.0,0.0
-25.0,-282.0,115.0,0.0
-24.0,-282.0,118.0,0.0
-24.0,-284.0,122.0,0.0
-24.0,-280.0,124.0,0.0
-23.0,-278.0,127.0,0.0
-22.0,-273.0,128.0,0.0
-22.0,-279.0,135.0,0.0
-22.0,-279.0,138.0,0.0
-20.0,-265.0,135.0,0.0
-21.0,-282.0,148.0,0.0
-24.0,-315.0,169.0,0.0
-22.0,-295.0,162.0,0.0
-22.0,-286.0,162.0,0.0
-19.0,-267.0,155.0,0.0
-18.0,-254.0,151.0,0.0
-17.0,-249.0,152.0,0.0
-15.0,-225.0,140.0,0.0
-14.0,-207.0,131.0,0.0
-13.0,-197.0,129.0,0.0
-12.0,-185.0,123.0,0.0
-13.0,-199.0,135.0,0.0
-11.0,-174.0,122.0,0.0
-10.0,-164.0,118.0,0.0
-9.0,-155.0,113.0,0.0
-8.0,-142.0,106.0,0.0
-7.0,-136.0,104.0,0.0
-8.0,-132.0,103.0,0.0
-7.0,-133.0,107.0,0.0
-6.0,-125.0,102.0,0.0
-1506.0,-25434.0,21327.0,0.0
-1459.0,-25044.0,21462.0,0.0
-1408.0,-24556.0,21506.0,0.0
-1363.0,-24158.0,21620.0,0.0
-1316.0,-23707.0,21682.0,0.0
-1272.0,-23280.0,21754.0,0.0
-1229.0,-22874.0,21841.0,0.0
-1184.0,-22410.0,21864.0,0.0
-1146.0,-22039.0,21969.0,0.0
-1106.0,-21619.0,22021.0,0.0
-1068.0,-21246.0,22112.0,0.0
-1030.0,-20829.0,22151.0,0.0
-994.0,-20447.0,22218.0,0.0
-899.0,-18791.0,20867.0,0.0
-867.0,-18433.0,20916.0,0.0
-845.0,-18258.0,21173.0,0.0
-836.0,-18369.0,21772.0,0.0
-829.0,-18528.0,22446.0,0.0
-821.0,-18687.0,23143.0,0.0
-1095.0,-25325.0,32062.0,1.0
-1050.0,-24679.0,31947.0,1.0
-1000.0,-23916.0,31658.0,1.0
-954.0,-23212.0,31424.0,1.0
-912.0,-22543.0,31216.0,1.0
-870.0,-21852.0,30956.0,1.0
-842.0,-21496.0,31160.0,1.0
-817.0,-21206.0,31459.0,1.0
-796.0,-20967.0,31838.0,1.0
-770.0,-20613.0,32048.0,1.0
-739.0,-20082.0,31972.0,1.0
-722.0,-19910.0,32469.0,1.0
-699.0,-19556.0,32679.0,1.0
-670.0,-19005.0,32548.0,1.0
-642.0,-18459.0,32410.0,1.0
-618.0,-18010.0,32428.0,1.0
-603.0,-17783.0,32846.0,1.0
-581.0,-17330.0,32851.0,1.0
-560.0,-16884.0,32860.0,1.0
-540.0,-16441.0,32863.0,1.0
-520.0,-15978.0,32816.0,1.0
-502.0,-15514.0,32753.0,1.0
-485.0,-15121.0,32834.0,1.0
-470.0,-14726.0,32903.0,1.0
-455.0,-14313.0,32929.0,1.0
-441.0,-13900.0,32943.0,1.0
-428.0,-13491.0,32961.0,1.0
-415.0,-13083.0,32974.0,1.0
-404.0,-12659.0,32937.0,1.0
-393.0,-12258.0,32950.0,1.0
-383.0,-11863.0,32967.0,1.0
-374.0,-11478.0,33011.0,1.0
-366.0,-11081.0,33013.0,1.0
-359.0,-10699.0,33051.0,1.0
-352.0,-10297.0,33019.0,1.0
-344.0,-9875.0,32911.0,1.0
-339.0,-9496.0,32932.0,1.0
-335.0,-9111.0,32921.0,1.0
-330.0,-8715.0,32862.0,1.0
-327.0,-8334.0,32854.0,1.0
-325.0,-7968.0,32896.0,1.0
-325.0,-7613.0,32976.0,1.0
-325.0,-7258.0,33057.0,1.0
-325.0,-6903.0,33142.0,1.0
-327.0,-6558.0,33274.0,1.0
-331.0,-6211.0,33410.0,1.0
-334.0,-5866.0,33558.0,1.0
-339.0,-5520.0,33722.0,1.0
-344.0,-5171.0,33874.0,1.0
-350.0,-4823.0,34050.0,1.0
0.0,-7.0,51.0,0.0
-363.0,-4109.0,34323.0,1.0
-372.0,-3750.0,34458.0,1.0
-378.0,-3367.0,34378.0,1.0
-387.0,-2998.0,34435.0,1.0
0.0,-3.0,38.0,0.0
0.0,-3.0,52.0,0.0
0.0,-2.0,49.0,0.0
0.0,-2.0,42.0,0.0
0.0,-2.0,62.0,0.0
0.0,-1.0,52.0,0.0
0.0,-1.0,46.0,0.0
0.0,0.0,58.0,0.0
0.0,0.0,55.0,0.0
0.0,0.0,66.0,0.0
0.0,2.0,69.0,0.0
0.0,2.0,69.0,0.0
-1.0,4.0,74.0,0.0
0.0,4.0,80.0,0.0
-1.0,4.0,63.0,0.0
0.0,6.0,73.0,0.0
-1.0,7.0,79.0,0.0
-1.0,9.0,91.0,0.0
-1.0,9.0,86.0,0.0
-1.0,11.0,91.0,0.0
-2.0,15.0,107.0,0.0
-1.0,14.0,93.0,0.0
-2.0,17.0,108.0,0.0
-1.0,15.0,95.0,0.0
-1.0,17.0,99.0,0.0
-2.0,22.0,114.0,0.0
-2.0,21.0,105.0,0.0
-2.0,23.0,110.0,0.0
-2.0,24.0,106.0,0.0
-2.0,29.0,121.0,0.0
-3.0,29.0,116.0,0.0
-3.0,35.0,135.0,0.0
-3.0,32.0,119.0,0.0
-3.0,32.0,115.0,0.0
-4.0,40.0,133.0,0.0
-3.0,37.0,119.0,0.0
-4.0,43.0,136.0,0.0
-4.0,42.0,129.0,0.0
-4.0,44.0,127.0,0.0
-5.0,47.0,132.0,0.0
-4.0,44.0,121.0,0.0
-4.0,49.0,131.0,0.0
-5.0,51.0,131.0,0.0
-5.0,51.0,127.0,0.0
-6.0,56.0,135.0,0.0
-5.0,54.0,125.0,0.0
-5.0,52.0,116.0,0.0
-5.0,55.0,120.0,0.0
-5.0,58.0,124.0,0.0
-6.0,60.0,124.0,0.0
-6.0,57.0,115.0,0.0
-6.0,56.0,110.0,0.0
-6.0,62.0,119.0,0.0
-6.0,63.0,118.0,0.0
-6.0,62.0,113.0,0.0
-7.0,66.0,117.0,0.0
-6.0,66.0,115.0,0.0
-7.0,62.0,104.0,0.0
-7.0,66.0,107.0,0.0
-7.0,70.0,112.0,0.0
-8.0,73.0,113.0,0.0
-7.0,71.0,108.0,0.0
-8.0,76.0,114.0,0.0
-8.0,75.0,110.0,0.0
-9.0,79.0,112.0,0.0
-9.0,83.0,115.0,0.0
-8.0,78.0,105.0,0.0
-10.0,88.0,117.0,0.0
-10.0,91.0,118.0,0.0
-10.0,88.0,112.0,0.0
-10.0,92.0,114.0,0.0
-11.0,96.0,116.0,0.0
-11.0,94.0,112.0,0.0
-11.0,97.0,114.0,0.0
-11.0,101.0,115.0,0.0
-12.0,104.0,116.0,0.0
-12.0,108.0,117.0,0.0
-13.0,105.0,111.0,0.0
-14.0,114.0,119.0,0.0
-14.0,117.0,120.0,0.0
-15.0,118.0,118.0,0.0
-15.0,120.0,117.0,0.0
-36.0,-347.0,112.0,0.0
-36.0,-342.0,114.0,0.0
-36.0,-343.0,118.0,0.0
-33.0,-320.0,115.0,0.0
-32.0,-319.0,118.0,0.0
-31.0,-311.0,119.0,0.0
-31.0,-314.0,123.0,0.0
-30.0,-302.0,122.0,0.0
-29.0,-297.0,124.0,0.0
-28.0,-295.0,128.0,0.0
-28.0,-291.0,130.0,0.0
-27.0,-294.0,134.0,0.0
-26.0,-289.0,136.0,0.0
-26.0,-286.0,138.0,0.0
-26.0,-285.0,142.0,0.0
-25.0,-285.0,145.0,0.0
-27.0,-302.0,158.0,0.0
-27.0,-316.0,170.0,0.0
-26.0,-309.0,170.0,0.0
-25.0,-293.0,166.0,0.0
-23.0,-266.0,155.0,0.0
-22.0,-265.0,158.0,0.0
-21.0,-247.0,151.0,0.0
-18.0,-230.0,144.0,0.0
-18.0,-219.0,140.0,0.0
-17.0,-210.0,138.0,0.0
-15.0,-201.0,134.0,0.0
-14.0,-187.0,129.0,0.0
-13.0,-170.0,119.0,0.0
-12.0,-166.0,120.0,0.0
-12.0,-171.0,125.0,0.0
-11.0,-157.0,117.0,0.0
-11.0,-151.0,115.0,0.0
-9.0,-135.0,106.0,0.0
-139.0,-1890.0,1518.0,0.0
-8.0,-122.0,100.0,0.0
-1842.0,-25418.0,21330.0,0.0
-1794.0,-25027.0,21465.0,0.0
-1741.0,-24543.0,21511.0,0.0
-1695.0,-24156.0,21636.0,0.0
-1647.0,-23723.0,21712.0,0.0
-1599.0,-23275.0,21767.0,0.0
-1554.0,-22858.0,21843.0,0.0
-1510.0,-22442.0,21913.0,0.0
-1466.0,-22002.0,21949.0,0.0
-1426.0,-21620.0,22038.0,0.0
-1386.0,-21231.0,22113.0,0.0
-1347.0,-20825.0,22163.0,0.0
-1311.0,-20467.0,22256.0,0.0
-1191.0,-18771.0,20859.0,0.0
-1159.0,-18433.0,20931.0,0.0
-1137.0,-18241.0,21168.0,0.0
-1135.0,-18385.0,21806.0,0.0
-1136.0,-18538.0,22473.0,0.0
-1136.0,-18685.0,23155.0,0.0
-1520.0,-25202.0,31928.0,1.0
-1469.0,-24540.0,31788.0,1.0
-1411.0,-23750.0,31458.0,1.0
-1360.0,-23052.0,31226.0,1.0
-1315.0,-22430.0,31080.0,1.0
-1267.0,-21748.0,30828.0,1.0
-1242.0,-21448.0,31108.0,1.0
-1223.0,-21215.0,31491.0,1.0
-1199.0,-20891.0,31740.0,1.0
-1176.0,-20576.0,32008.0,1.0
-1148.0,-20165.0,32122.0,1.0
-1132.0,-19933.0,32526.0,1.0
-1112.0,-19617.0,32797.0,1.0
-1081.0,-19108.0,32742.0,1.0
-1046.0,-18512.0,32519.0,1.0
-1022.0,-18086.0,32582.0,1.0
-1010.0,-17843.0,32976.0,1.0
-991.0,-17489.0,33170.0,1.0
-967.0,-17020.0,33140.0,1.0
-945.0,-16575.0,33147.0,1.0
-922.0,-16090.0,33061.0,1.0
-898.0,-15585.0,32919.0,1.0
-884.0,-15244.0,33114.0,1.0
-868.0,-14834.0,33161.0,1.0
-851.0,-14401.0,33145.0,1.0
-834.0,-13970.0,33123.0,1.0
-821.0,-13588.0,33212.0,1.0
-808.0,-13196.0,33272.0,1.0
-795.0,-12777.0,33254.0,1.0
-780.0,-12336.0,33172.0,1.0
-769.0,-11936.0,33181.0,1.0
-759.0,-11533.0,33178.0,1.0
-750.0,-11159.0,33254.0,1.0
-740.0,-10752.0,33222.0,1.0
-734.0,-10364.0,33241.0,1.0
-728.0,-9986.0,33282.0,1.0
-718.0,-9563.0,33169.0,1.0
-712.0,-9179.0,33171.0,1.0
-706.0,-8772.0,33084.0,1.0
-703.0,-8403.0,33129.0,1.0
-700.0,-8029.0,33148.0,1.0
-699.0,-7658.0,33175.0,1.0
-699.0,-7310.0,33288.0,1.0
-700.0,-6957.0,33397.0,1.0
-702.0,-6603.0,33503.0,1.0
-706.0,-6256.0,33647.0,1.0
-711.0,-5907.0,33784.0,1.0
-717.0,-5566.0,33991.0,1.0
-723.0,-5213.0,34127.0,1.0
-730.0,-4860.0,34287.0,1.0
-737.0,-4500.0,34412.0,1.0
-745.0,-4141.0,34556.0,1.0
-755.0,-3777.0,34674.0,1.0
-759.0,-3391.0,34589.0,1.0
-765.0,-3008.0,34502.0,1.0
-769.0,-2621.0,34326.0,1.0
-768.0,-2221.0,33892.0,1.0
-1.0,-3.0,56.0,0.0
-1.0,-2.0,53.0,0.0
-1.0,-1.0,54.0,0.0
0.0,-1.0,66.0,0.0
-1.0,-1.0,64.0,0.0
-1.0,0.0,71.0,0.0
-1.0,0.0,65.0,0.0
-1.0,1.0,68.0,0.0
-1.0,1.0,83.0,0.0
-1.0,2.0,72.0,0.0
-1.0,4.0,89.0,0.0
-2.0,5.0,86.0,0.0
-1.0,6.0,92.0,0.0
-2.0,7.0,82.0,0.0
-2.0,9.0,101.0,0.0
-2.0,10.0,101.0,0.0
-2.0,9.0,89.0,0.0
-3.0,14.0,112.0,0.0
-3.0,15.0,114.0,0.0
-3.0,17.0,118.0,0.0
-3.0,18.0,116.0,0.0
-3.0,18.0,110.0,0.0
-3.0,21.0,119.0,0.0
-4.0,23.0,121.0,0.0
-4.0,23.0,118.0,0.0
-3.0,26.0,121.0,0.0
-4.0,28.0,123.0,0.0
-5.0,33.0,137.0,0.0
-4.0,30.0,121.0,0.0
-4.0,33.0,127.0,0.0
-5.0,38.0,138.0,0.0
-6.0,40.0,143.0,0.0
-6.0,44.0,147.0,0.0
-5.0,40.0,129.0,0.0
-6.0,47.0,147.0,0.0
-6.0,47.0,142.0,0.0
-6.0,45.0,132.0,0.0
-6.0,49.0,138.0,0.0
-7.0,52.0,141.0,0.0
-7.0,52.0,137.0,0.0
-7.0,55.0,141.0,0.0
-7.0,59.0,146.0,0.0
-8.0,63.0,152.0,0.0
-7.0,60.0,140.0,0.0
-7.0,60.0,136.0,0.0
-7.0,64.0,141.0,0.0
-8.0,66.0,140.0,0.0
-8.0,66.0,138.0,0.0
-8.0,68.0,136.0,0.0
-9.0,67.0,133.0,0.0
-8.0,65.0,124.0,0.0
-9.0,71.0,133.0,0.0
-7.0,64.0,118.0,0.0
-9.0,72.0,126.0,0.0
-10.0,77.0,132.0,0.0
-9.0,72.0,121.0,0.0
-9.0,75.0,123.0,0.0
-9.0,73.0,117.0,0.0
-10.0,80.0,125.0,0.0
-10.0,81.0,123.0,0.0
-10.0,79.0,119.0,0.0
-10.0,82.0,120.0,0.0
-11.0,86.0,122.0,0.0
-11.0,84.0,117.0,0.0
-11.0,91.0,124.0,0.0
-12.0,95.0,126.0,0.0
-12.0,93.0,121.0,0.0
-12.0,96.0,123.0,0.0
-13.0,97.0,121.0,0.0
-13.0,101.0,123.0,0.0
-13.0,98.0,117.0,0.0
-13.0,103.0,120.0,0.0
-14.0,109.0,124.0,0.0
-15.0,117.0,131.0,0.0
-15.0,116.0,127.0,0.0
-15.0,116.0,123.0,0.0
-16.0,119.0,125.0,0.0
-16.0,123.0,126.0,0.0
-17.0,127.0,127.0,0.0
-17.0,125.0,122.0,0.0
-41.0,-327.0,106.0,0.0
-41.0,-325.0,109.0,0.0
-39.0,-320.0,111.0,0.0
-38.0,-308.0,111.0,0.0
-37.0,-304.0,112.0,0.0
-35.0,-290.0,110.0,0.0
-35.0,-300.0,118.0,0.0
-34.0,-288.0,117.0,0.0
-33.0,-280.0,118.0,0.0
-32.0,-283.0,122.0,0.0
-32.0,-276.0,122.0,0.0
-31.0,-269.0,124.0,0.0
-31.0,-274.0,129.0,0.0
-30.0,-271.0,131.0,0.0
-29.0,-267.0,132.0,0.0
-31.0,-279.0,143.0,0.0
-33.0,-299.0,157.0,0.0
-33.0,-302.0,163.0,0.0
-30.0,-283.0,156.0,0.0
-29.0,-277.0,157.0,0.0
-29.0,-267.0,155.0,0.0
-25.0,-244.0,146.0,0.0
-25.0,-236.0,144.0,0.0
-22.0,-211.0,132.0,0.0
-19.0,-185.0,119.0,0.0
-20.0,-196.0,128.0,0.0
-18.0,-175.0,117.0,0.0
-17.0,-161.0,111.0,0.0
-16.0,-157.0,110.0,0.0
-14.0,-145.0,104.0,0.0
-15.0,-152.0,112.0,0.0
-199.0,-1954.0,1469.0,0.0
-14.0,-139.0,107.0,0.0
-190.0,-1902.0,1497.0,0.0
-188.0,-1876.0,1509.0,0.0
-2523.0,-25333.0,20826.0,0.0
-2520.0,-25420.0,21360.0,0.0
-2469.0,-25024.0,21491.0,0.0
-2409.0,-24537.0,21534.0,0.0
-2359.0,-24132.0,21643.0,0.0
-2305.0,-23677.0,21698.0,0.0
-2253.0,-23235.0,21759.0,0.0
-2204.0,-22817.0,21831.0,0.0
-2156.0,-22391.0,21890.0,0.0
-2110.0,-21987.0,21962.0,0.0
-2067.0,-21602.0,22047.0,0.0
-2023.0,-21202.0,22109.0,0.0
-1979.0,-20797.0,22158.0,0.0
-1940.0,-20426.0,22238.0,0.0
-1778.0,-18751.0,20860.0,0.0
-1742.0,-18396.0,20915.0,0.0
-1724.0,-18230.0,21180.0,0.0
-1737.0,-18388.0,21834.0,0.0
-1751.0,-18537.0,22498.0,0.0
-1765.0,-18693.0,23190.0,0.0
-2358.0,-24964.0,31661.0,1.0
-2294.0,-24265.0,31465.0,1.0
-2226.0,-23511.0,31177.0,1.0
-2157.0,-22753.0,30853.0,1.0
-2102.0,-22116.0,30676.0,1.0
-2053.0,-21553.0,30583.0,1.0
-2036.0,-21304.0,30931.0,1.0
-2018.0,-21033.0,31252.0,1.0
-1996.0,-20723.0,31519.0,1.0
-1975.0,-20397.0,31760.0,1.0
-1959.0,-20132.0,32102.0,1.0
-1940.0,-19809.0,32354.0,1.0
-1922.0,-19502.0,32635.0,1.0
-1897.0,-19106.0,32768.0,1.0
-1859.0,-18571.0,32651.0,1.0
-1826.0,-18077.0,32594.0,1.0
-1815.0,-17803.0,32931.0,1.0
-1803.0,-17493.0,33205.0,1.0
-1790.0,-17180.0,33479.0,1.0
-1765.0,-16739.0,33502.0,1.0
-1738.0,-16262.0,33441.0,1.0
-1697.0,-15665.0,33112.0,1.0
-1686.0,-15338.0,33344.0,1.0
-1677.0,-15010.0,33579.0,1.0
-1650.0,-14522.0,33445.0,1.0
-1629.0,-14074.0,33391.0,1.0
-1620.0,-13744.0,33614.0,1.0
-1605.0,-13333.0,33639.0,1.0
-1590.0,-12933.0,33682.0,1.0
-1575.0,-12519.0,33679.0,1.0
-1559.0,-12103.0,33667.0,1.0
-1548.0,-11708.0,33697.0,1.0
-1536.0,-11301.0,33692.0,1.0
-1523.0,-10894.0,33675.0,1.0
-1515.0,-10510.0,33722.0,1.0
-1504.0,-10108.0,33704.0,1.0
-1495.0,-9710.0,33684.0,1.0
-1484.0,-9303.0,33627.0,1.0
-1478.0,-8917.0,33637.0,1.0
-1469.0,-8512.0,33564.0,1.0
-1463.0,-8128.0,33557.0,1.0
-1460.0,-7752.0,33579.0,1.0
-1462.0,-7407.0,33729.0,1.0
-1469.0,-7070.0,33933.0,1.0
-1471.0,-6707.0,34018.0,1.0
-1476.0,-6353.0,34155.0,1.0
-1482.0,-5996.0,34283.0,1.0
-1491.0,-5652.0,34493.0,1.0
-1497.0,-5290.0,34613.0,1.0
-1507.0,-4934.0,34775.0,1.0
-1515.0,-4566.0,34881.0,1.0
-1525.0,-4203.0,35034.0,1.0
-1523.0,-3805.0,34879.0,1.0
-1521.0,-3407.0,34681.0,1.0
-1520.0,-3016.0,34515.0,1.0
-1519.0,-2630.0,34339.0,1.0
-1.0,-2.0,29.0,0.0
0.0,-1.0,27.0,0.0
0.0,-1.0,29.0,0.0
-1.0,-1.0,23.0,0.0
-2.0,-2.0,71.0,0.0
-1.0,0.0,49.0,0.0
-1.0,0.0,41.0,0.0
-2.0,0.0,55.0,0.0
-2.0,1.0,64.0,0.0
-2.0,1.0,50.0,0.0
-2.0,2.0,61.0,0.0
-3.0,3.0,81.0,0.0
-1.0,2.0,45.0,0.0
-3.0,4.0,69.0,0.0
-4.0,6.0,80.0,0.0
-4.0,8.0,93.0,0.0
-3.0,8.0,81.0,0.0
-4.0,9.0,84.0,0.0
-4.0,11.0,88.0,0.0
-4.0,12.0,87.0,0.0
-5.0,14.0,97.0,0.0
-4.0,14.0,91.0,0.0
-5.0,16.0,97.0,0.0
-5.0,20.0,115.0,0.0
-4.0,18.0,95.0,0.0
-6.0,22.0,109.0,0.0
-4.0,19.0,91.0,0.0
-5.0,23.0,102.0,0.0
-6.0,27.0,113.0,0.0
-6.0,30.0,122.0,0.0
-6.0,30.0,119.0,0.0
-7.0,34.0,123.0,0.0
-8.0,35.0,125.0,0.0
-7.0,33.0,112.0,0.0
-7.0,37.0,119.0,0.0
-8.0,40.0,127.0,0.0
-8.0,41.0,123.0,0.0
-9.0,47.0,138.0,0.0
-9.0,46.0,129.0,0.0
-8.0,44.0,120.0,0.0
-9.0,49.0,130.0,0.0
-9.0,49.0,126.0,0.0
-8.0,46.0,116.0,0.0
-9.0,52.0,124.0,0.0
-9.0,52.0,122.0,0.0
-10.0,55.0,126.0,0.0
-9.0,55.0,120.0,0.0
-9.0,58.0,124.0,0.0
-9.0,58.0,120.0,0.0
-10.0,59.0,119.0,0.0
-10.0,64.0,126.0,0.0
-11.0,64.0,123.0,0.0
-11.0,63.0,117.0,0.0
-11.0,64.0,117.0,0.0
-12.0,71.0,126.0,0.0
-10.0,67.0,115.0,0.0
-10.0,63.0,107.0,0.0
-12.0,72.0,118.0,0.0
-10.0,67.0,107.0,0.0
-11.0,70.0,111.0,0.0
-11.0,68.0,105.0,0.0
-11.0,71.0,106.0,0.0
-13.0,79.0,116.0,0.0
-12.0,77.0,109.0,0.0
-12.0,78.0,108.0,0.0
-14.0,84.0,114.0,0.0
-13.0,82.0,108.0,0.0
-13.0,80.0,104.0,0.0
-13.0,83.0,105.0,0.0
-14.0,89.0,111.0,0.0
-14.0,87.0,107.0,0.0
-14.0,92.0,109.0,0.0
-15.0,91.0,107.0,0.0
-15.0,95.0,109.0,0.0
-16.0,99.0,110.0,0.0
-17.0,106.0,116.0,0.0
-16.0,99.0,106.0,0.0
-17.0,108.0,113.0,0.0
-17.0,111.0,114.0,0.0
-19.0,118.0,118.0,0.0
-17.0,108.0,106.0,0.0
28.0,-280.0,82.0,0.0
28.0,-277.0,85.0,0.0
29.0,-279.0,89.0,0.0
29.0,-275.0,91.0,0.0
30.0,-273.0,94.0,0.0
31.0,-272.0,96.0,0.0
32.0,-281.0,103.0,0.0
33.0,-279.0,106.0,0.0
33.0,-274.0,108.0,0.0
34.0,-275.0,111.0,0.0
34.0,-271.0,113.0,0.0
36.0,-276.0,118.0,0.0
36.0,-274.0,121.0,0.0
37.0,-269.0,123.0,0.0
38.0,-274.0,128.0,0.0
39.0,-270.0,130.0,0.0
39.0,-267.0,132.0,0.0
40.0,-272.0,138.0,0.0
40.0,-266.0,138.0,0.0
41.0,-267.0,143.0,0.0
45.0,-285.0,157.0,0.0
43.0,-269.0,152.0,0.0
45.0,-274.0,158.0,0.0
41.0,-245.0,145.0,0.0
39.0,-226.0,137.0,0.0
37.0,-213.0,133.0,0.0
35.0,-195.0,124.0,0.0
36.0,-199.0,130.0,0.0
35.0,-188.0,126.0,0.0
34.0,-177.0,122.0,0.0
35.0,-181.0,128.0,0.0
33.0,-167.0,120.0,0.0
30.0,-146.0,108.0,0.0
32.0,-153.0,115.0,0.0
31.0,-147.0,113.0,0.0
27.0,-127.0,99.0,0.0
26.0,-122.0,98.0,0.0
27.0,-121.0,99.0,0.0
24.0,-107.0,90.0,0.0
24.0,-102.0,88.0,0.0
23.0,-96.0,85.0,0.0
22.0,-94.0,85.0,0.0
23.0,-94.0,87.0,0.0
17.0,-69.0,65.0,0.0
18.0,-71.0,68.0,0.0
19.0,-74.0,73.0,0.0
18.0,-69.0,69.0,0.0
5697.0,-21403.0,21992.0,0.0
5695.0,-20990.0,22048.0,0.0
5700.0,-20605.0,22127.0,0.0
5318.0,-18859.0,20705.0,0.0
5337.0,-18560.0,20835.0,0.0
5354.0,-18257.0,20957.0,0.0
5488.0,-18352.0,21542.0,0.0
5657.0,-18547.0,22264.0,0.0
5812.0,-18678.0,22933.0,0.0
5969.0,-18805.0,23619.0,0.0
8522.0,-26314.0,33810.0,1.0
8622.0,-26086.0,34294.0,1.0
8617.0,-25542.0,34362.0,1.0
8502.0,-24687.0,33992.0,1.0
8401.0,-23890.0,33674.0,1.0
8300.0,-23110.0,33353.0,1.0
8177.0,-22288.0,32942.0,1.0
8066.0,-21518.0,32577.0,1.0
7966.0,-20794.0,32254.0,1.0
7856.0,-20060.0,31887.0,1.0
7773.0,-19410.0,31628.0,1.0
7691.0,-18778.0,31373.0,1.0
7605.0,-18145.0,31097.0,1.0
7500.0,-17486.0,30748.0,1.0
7424.0,-16905.0,30511.0,1.0
7358.0,-16357.0,30313.0,1.0
7332.0,-15903.0,30274.0,1.0
7380.0,-15617.0,30549.0,1.0
7400.0,-15269.0,30707.0,1.0
7398.0,-14875.0,30771.0,1.0
7380.0,-14455.0,30772.0,1.0
7326.0,-13968.0,30619.0,1.0
7286.0,-13516.0,30524.0,1.0
7237.0,-13057.0,30396.0,1.0
7173.0,-12576.0,30203.0,1.0
7113.0,-12109.0,30020.0,1.0
6994.0,-11553.0,29590.0,1.0
6736.0,-10788.0,28567.0,1.0
6780.0,-10518.0,28823.0,1.0
6837.0,-10265.0,29134.0,1.0
6885.0,-9995.0,29412.0,1.0
6928.0,-9713.0,29666.0,1.0
6967.0,-9425.0,29911.0,1.0
7006.0,-9132.0,30152.0,1.0
7030.0,-8817.0,30330.0,1.0
7021.0,-8460.0,30365.0,1.0
7000.0,-8092.0,30348.0,1.0
6953.0,-7696.0,30218.0,1.0
6534.0,-6914.0,28473.0,0.0
6806.0,-6868.0,29729.0,0.0
5283.0,-5074.0,23135.0,0.0
5261.0,-4796.0,23097.0,0.0
5284.0,-4558.0,23256.0,0.0
5160.0,-4199.0,22769.0,0.0
5409.0,-4137.0,23926.0,0.0
5263.0,-3767.0,23340.0,0.0
4.0,-2.0,16.0,0.0
6512.0,-4023.0,29033.0,0.0
6547.0,-3722.0,29262.0,0.0
5.0,-2.0,20.0,0.0
5.0,-3.0,23.0,0.0
8.0,-3.0,35.0,0.0
6.0,-2.0,29.0,0.0
6.0,-2.0,29.0,0.0
9.0,-2.0,41.0,0.0
5.0,-1.0,23.0,0.0
8.0,-1.0,36.0,0.0
5.0,0.0,20.0,0.0
12.0,0.0,54.0,0.0
8.0,0.0,36.0,0.0
9.0,0.0,41.0,0.0
12.0,1.0,55.0,0.0
11.0,1.0,50.0,0.0
13.0,1.0,61.0,0.0
9.0,1.0,44.0,0.0
10.0,2.0,46.0,0.0
13.0,4.0,59.0,0.0
14.0,5.0,67.0,0.0
12.0,5.0,58.0,0.0
15.0,7.0,71.0,0.0
13.0,6.0,62.0,0.0
14.0,8.0,67.0,0.0
15.0,10.0,73.0,0.0
18.0,13.0,88.0,0.0
18.0,14.0,84.0,0.0
19.0,16.0,92.0,0.0
18.0,16.0,89.0,0.0
19.0,18.0,93.0,0.0
21.0,20.0,100.0,0.0
18.0,19.0,88.0,0.0
22.0,24.0,107.0,0.0
22.0,25.0,105.0,0.0
22.0,28.0,109.0,0.0
21.0,28.0,104.0,0.0
20.0,28.0,100.0,0.0
22.0,31.0,107.0,0.0
23.0,34.0,115.0,0.0
22.0,35.0,112.0,0.0
23.0,38.0,117.0,0.0
20.0,34.0,101.0,0.0
21.0,37.0,107.0,0.0
19.0,35.0,95.0,0.0
20.0,37.0,101.0,0.0
21.0,41.0,107.0,0.0
20.0,40.0,102.0,0.0
19.0,40.0,98.0,0.0
19.0,41.0,98.0,0.0
17.0,39.0,89.0,0.0
16.0,37.0,83.0,0.0
18.0,46.0,97.0,0.0
17.0,44.0,93.0,0.0
16.0,43.0,86.0,0.0
16.0,46.0,90.0,0.0
15.0,44.0,86.0,0.0
16.0,47.0,88.0,0.0
16.0,48.0,87.0,0.0
16.0,51.0,91.0,0.0
17.0,55.0,95.0,0.0
15.0,51.0,85.0,0.0
16.0,54.0,89.0,0.0
15.0,55.0,88.0,0.0
16.0,58.0,91.0,0.0
15.0,59.0,89.0,0.0
16.0,63.0,94.0,0.0
15.0,62.0,89.0,0.0
16.0,65.0,92.0,0.0
15.0,63.0,88.0,0.0
16.0,70.0,94.0,0.0
17.0,73.0,97.0,0.0
16.0,77.0,99.0,0.0
16.0,74.0,94.0,0.0
16.0,78.0,97.0,0.0
16.0,81.0,99.0,0.0
16.0,86.0,101.0,0.0
17.0,92.0,107.0,0.0
15.0,86.0,98.0,0.0
16.0,93.0,104.0,0.0
16.0,97.0,105.0,0.0
17.0,101.0,107.0,0.0
17.0,105.0,109.0,0.0
16.0,104.0,106.0,0.0
17.0,112.0,112.0,0.0
17.0,117.0,115.0,0.0
17.0,121.0,116.0,0.0
16.0,121.0,113.0,0.0
19.0,-265.0,80.0,0.0
19.0,-268.0,84.0,0.0
20.0,-270.0,88.0,0.0
21.0,-272.0,91.0,0.0
22.0,-273.0,95.0,0.0
23.0,-272.0,98.0,0.0
24.0,-270.0,101.0,0.0
24.0,-268.0,103.0,0.0
25.0,-272.0,108.0,0.0
26.0,-273.0,112.0,0.0
26.0,-271.0,114.0,0.0
26.0,-267.0,116.0,0.0
28.0,-271.0,121.0,0.0
28.0,-268.0,123.0,0.0
29.0,-265.0,126.0,0.0
29.0,-269.0,131.0,0.0
30.0,-266.0,133.0,0.0
30.0,-262.0,135.0,0.0
32.0,-270.0,142.0,0.0
33.0,-275.0,149.0,0.0
35.0,-276.0,153.0,0.0
34.0,-269.0,153.0,0.0
32.0,-246.0,144.0,0.0
31.0,-229.0,137.0,0.0
30.0,-216.0,133.0,0.0
30.0,-214.0,135.0,0.0
29.0,-199.0,129.0,0.0
29.0,-203.0,134.0,0.0
30.0,-198.0,134.0,0.0
27.0,-178.0,123.0,0.0
27.0,-168.0,119.0,0.0
25.0,-156.0,113.0,0.0
24.0,-143.0,106.0,0.0
22.0,-136.0,103.0,0.0
24.0,-139.0,108.0,0.0
21.0,-120.0,95.0,0.0
20.0,-114.0,92.0,0.0
21.0,-115.0,96.0,0.0
19.0,-100.0,85.0,0.0
19.0,-98.0,85.0,0.0
20.0,-101.0,89.0,0.0
17.0,-87.0,79.0,0.0
16.0,-81.0,76.0,0.0
16.0,-80.0,75.0,0.0
16.0,-77.0,75.0,0.0
13.0,-60.0,59.0,0.0
14.0,-63.0,63.0,0.0
4705.0,-21259.0,22002.0,0.0
4716.0,-20881.0,22091.0,0.0
4718.0,-20468.0,22135.0,0.0
4417.0,-18773.0,20755.0,0.0
4429.0,-18444.0,20848.0,0.0
4483.0,-18291.0,21137.0,0.0
4606.0,-18413.0,21757.0,0.0
4745.0,-18582.0,22454.0,0.0
4886.0,-18741.0,23159.0,0.0
7008.0,-26328.0,33277.0,1.0
7089.0,-26078.0,33717.0,1.0
7142.0,-25726.0,34030.0,1.0
7090.0,-25007.0,33847.0,1.0
7021.0,-24239.0,33573.0,1.0
6907.0,-23341.0,33093.0,1.0
6827.0,-22574.0,32765.0,1.0
6743.0,-21815.0,32425.0,1.0
6677.0,-21129.0,32163.0,1.0
6596.0,-20413.0,31836.0,1.0
6514.0,-19709.0,31496.0,1.0
6432.0,-19020.0,31155.0,1.0
6355.0,-18365.0,30842.0,1.0
6284.0,-17742.0,30561.0,1.0
6250.0,-17231.0,30450.0,1.0
6157.0,-16573.0,30057.0,1.0
6093.0,-16005.0,29799.0,1.0
6136.0,-15726.0,30074.0,1.0
6163.0,-15403.0,30267.0,1.0
6189.0,-15076.0,30453.0,1.0
6203.0,-14722.0,30585.0,1.0
6187.0,-14300.0,30569.0,1.0
6149.0,-13834.0,30446.0,1.0
6118.0,-13389.0,30356.0,1.0
6083.0,-12941.0,30242.0,1.0
6044.0,-12494.0,30112.0,1.0
5970.0,-11982.0,29809.0,1.0
5744.0,-11185.0,28742.0,1.0
5709.0,-10780.0,28633.0,1.0
5762.0,-10537.0,28959.0,1.0
5797.0,-10260.0,29198.0,1.0
5822.0,-9962.0,29392.0,1.0
5856.0,-9678.0,29628.0,1.0
5869.0,-9357.0,29761.0,1.0
5870.0,-9020.0,29839.0,1.0
5862.0,-8669.0,29871.0,1.0
5850.0,-8312.0,29876.0,1.0
5839.0,-7962.0,29895.0,1.0
5813.0,-7590.0,29827.0,1.0
5606.0,-6998.0,28836.0,0.0
5571.0,-6635.0,28728.0,0.0
4915.0,-5572.0,25404.0,0.0
5531.0,-5956.0,28667.0,0.0
5539.0,-5647.0,28779.0,0.0
4967.0,-4780.0,25876.0,0.0
4931.0,-4463.0,25755.0,0.0
5550.0,-4705.0,29066.0,0.0
5592.0,-4420.0,29365.0,0.0
7.0,-5.0,38.0,0.0
5983.0,-4041.0,31586.0,1.0
6027.0,-3722.0,31905.0,1.0
2.0,-1.0,10.0,0.0
2.0,-1.0,9.0,0.0
1.0,0.0,3.0,0.0
4.0,-1.0,21.0,0.0
2.0,0.0,8.0,0.0
7.0,-1.0,35.0,0.0
7.0,-2.0,37.0,0.0
2.0,0.0,8.0,0.0
1.0,0.0,6.0,0.0
7.0,0.0,39.0,0.0
6.0,0.0,31.0,0.0
8.0,0.0,42.0,0.0
7.0,1.0,41.0,0.0
9.0,1.0,47.0,0.0
12.0,2.0,67.0,0.0
12.0,4.0,69.0,0.0
12.0,4.0,62.0,0.0
12.0,4.0,62.0,0.0
9.0,4.0,53.0,0.0
10.0,5.0,57.0,0.0
11.0,7.0,65.0,0.0
12.0,7.0,63.0,0.0
15.0,11.0,85.0,0.0
15.0,12.0,84.0,0.0
16.0,14.0,93.0,0.0
13.0,13.0,78.0,0.0
15.0,15.0,86.0,0.0
13.0,15.0,79.0,0.0
15.0,17.0,86.0,0.0
15.0,19.0,87.0,0.0
17.0,22.0,97.0,0.0
14.0,20.0,84.0,0.0
15.0,23.0,92.0,0.0
17.0,26.0,100.0,0.0
16.0,26.0,96.0,0.0
17.0,29.0,103.0,0.0
17.0,31.0,103.0,0.0
17.0,32.0,104.0,0.0
17.0,34.0,106.0,0.0
17.0,35.0,104.0,0.0
15.0,32.0,93.0,0.0
16.0,36.0,99.0,0.0
17.0,40.0,108.0,0.0
16.0,38.0,99.0,0.0
15.0,40.0,100.0,0.0
