//X,Y,Z,Classification
0,-107,83,0.0
0,-112,85,0.0
0,-104,77,0.0
0,-110,79,0.0
0,-111,78,0.0
86,-19055,13159,0.0
119,-19387,13082,0.0
152,-19727,13005,0.0
186,-20061,12917,0.0
222,-20405,12831,0.0
259,-20786,12760,0.0
296,-21153,12674,0.0
2,-159,93,0.0
2,-147,84,0.0
2,-170,94,0.0
2,-166,90,0.0
3,-179,93,0.0
4,-198,101,0.0
4,-199,99,0.0
5,-212,103,0.0
5,-233,110,0.0
6,-216,99,0.0
7,-240,107,0.0
8,-246,106,0.0
8,-254,107,0.0
8,-250,102,0.0
9,-271,108,0.0
10,-277,106,0.0
12,-320,119,0.0
13,-330,119,0.0
13,-334,116,0.0
15,-338,113,0.0
14,-332,107,0.0
15,-334,104,0.0
1322,11077,10908,0.0
1487,12511,12584,0.0
1307,11049,11351,0.0
1299,11041,11589,0.0
1290,11010,11806,0.0
1281,10980,12026,0.0
1269,10928,12231,0.0
1259,10899,12464,0.0
1247,10835,12661,0.0
1233,10755,12844,0.0
1214,10635,12981,0.0
1282,11274,14063,0.0
1247,11010,14042,0.0
1210,10716,13972,0.0
1177,10467,13954,0.0
1170,10436,14228,0.0
1668,14924,20812,0.0
1680,15081,21516,0.0
1808,16267,23747,0.0
1238,11167,16683,0.0
1116,10096,15439,0.0
1097,9946,15571,0.0
1482,13457,21577,0.0
1285,11686,19193,0.0
1544,14062,23665,0.0
1333,12160,20975,0.0
1258,11480,20303,0.0
1251,11428,20727,0.0
1230,11234,20904,0.0
1736,15853,30277,0.0
1406,12825,25149,0.0
1385,12618,25417,0.0
1371,12473,25819,0.0
1363,12382,26354,0.0
1342,12156,26614,0.0
1314,11870,26747,0.0
1232,11089,25731,0.0
1196,10717,25626,0.0
1160,10351,25519,0.0
1122,9956,25328,0.0
1099,9694,25464,0.0
1158,10134,27509,0.0
1166,10127,28432,0.0
1241,10672,31014,0.0
1203,10243,30848,0.0
1172,9876,30851,0.0
1148,9558,31004,0.0
1135,9319,31434,0.0
1109,8966,31486,0.0
641,5103,18682,0.0
623,4874,18631,0.0
606,4647,18581,0.0
589,4414,18499,0.0
573,4191,18443,0.0
558,3974,18405,0.0
543,3755,18351,0.0
529,3541,18310,0.0
516,3332,18285,0.0
502,3119,18232,0.0
490,2912,18202,0.0
477,2701,18133,0.0
465,2495,18086,0.0
454,2289,18033,0.0
442,2084,17961,0.0
432,1886,17945,0.0
423,1688,17921,0.0
413,1489,17865,0.0
403,1289,17778,0.0
394,1094,17750,0.0
386,899,17699,0.0
379,707,17672,0.0
369,512,17537,0.0
364,323,17578,0.0
358,134,17556,0.0
351,-55,17505,0.0
345,-243,17434,0.0
339,-430,17410,0.0
335,-616,17368,0.0
329,-802,17323,0.0
324,-986,17249,0.0
321,-1172,17253,0.0
317,-1352,17146,0.0
314,-1538,17147,0.0
311,-1721,17114,0.0
308,-1903,17075,0.0
306,-2086,17041,0.0
305,-2263,16970,0.0
289,-2337,16181,0.0
322,-2798,18006,0.0
616,-5738,34466,1.0
616,-6105,34380,1.0
618,-6504,34458,1.0
0,0,0,0.0
0,0,0,0.0
616,-7540,33892,1.0
618,-7902,33796,1.0
622,-8267,33712,1.0
0,0,0,0.0
629,-8970,33447,1.0
636,-9353,33429,1.0
640,-9687,33237,1.0
648,-10071,33214,1.0
655,-10434,33121,1.0
0,0,0,0.0
678,-11242,33173,1.0
684,-11567,32958,1.0
0,0,0,0.0
0,0,0,0.0
718,-12677,32694,1.0
731,-13056,32624,1.0
739,-13312,32252,1.0
0,0,0,0.0
0,0,0,0.0
782,-14411,31944,1.0
793,-14680,31625,1.0
0,0,0,0.0
831,-15477,31544,1.0
850,-15851,31442,1.0
868,-16205,31302,1.0
894,-16692,31406,1.0
927,-17307,31735,1.0
950,-17695,31630,1.0
979,-18185,31699,1.0
1005,-18631,31680,1.0
1029,-18995,31517,1.0
0,0,0,0.0
1080,-19778,31269,1.0
1108,-20177,31151,1.0
0,0,0,0.0
0,0,0,0.0
1199,-21439,30866,1.0
1231,-21873,30777,1.0
1269,-22368,30764,1.0
1291,-22588,30373,1.0
1316,-22847,30039,1.0
1352,-23275,29927,1.0
1390,-23735,29848,1.0
1435,-24283,29870,1.0
1471,-24657,29670,1.0
1503,-24978,29407,1.0
1544,-25407,29266,1.0
1572,-25632,28890,1.0
1602,-25876,28539,1.0
1636,-26148,28221,1.0
1667,-26391,27875,1.0
1708,-26758,27658,1.0
1742,-27024,27338,1.0
1779,-27317,27044,1.0
1819,-27636,26776,1.0
1859,-27941,26494,1.0
1899,-28241,26205,1.0
7,-109,99,0.0
1230,-17909,15914,0.0
1237,-17820,15494,0.0
1245,-17744,15096,0.0
1255,-17674,14711,0.0
1270,-17697,14410,0.0
1280,-17642,14052,0.0
1292,-17612,13720,0.0
1304,-17584,13397,0.0
8,-115,85,0.0
1377,-18164,13231,0.0
1399,-18254,12997,0.0
1458,-18810,13090,0.0
1500,-19134,13013,0.0
1543,-19466,12934,0.0
1587,-19799,12851,0.0
1632,-20135,12764,0.0
1680,-20503,12690,0.0
1727,-20849,12596,0.0
11,-148,86,0.0
12,-156,90,0.0
14,-167,94,0.0
15,-183,101,0.0
15,-187,100,0.0
17,-195,100,0.0
18,-207,105,0.0
20,-225,110,0.0
20,-234,111,0.0
21,-235,109,0.0
22,-244,110,0.0
23,-254,111,0.0
24,-258,109,0.0
24,-257,105,0.0
27,-281,113,0.0
28,-292,114,0.0
31,-318,119,0.0
33,-336,122,0.0
34,-338,119,0.0
34,-343,116,0.0
35,-338,111,0.0
35,-342,108,0.0
-2457,12920,12036,0.0
-2642,13531,12878,0.0
-2726,13598,13222,0.0
-2787,13542,13454,0.0
-2851,13497,13698,0.0
-2912,13430,13927,0.0
-2979,13384,14181,0.0
-3043,13320,14421,0.0
-3108,13260,14671,0.0
-3173,13193,14917,0.0
-3238,13115,15155,0.0
-3304,13041,15403,0.0
-3384,13016,15715,0.0
-3461,12971,16009,0.0
-3504,12793,16145,0.0
-3580,12734,16433,0.0
-3522,12206,16112,0.0
-3574,12065,16289,0.0
-3712,12205,16859,0.0
-3721,11915,16843,0.0
-4004,12484,18062,0.0
-4094,12426,18403,0.0
-4187,12370,18759,0.0
-4241,12193,18939,0.0
-4355,12184,19387,0.0
-4297,11695,19069,0.0
-4456,11792,19708,0.0
-4420,11374,19492,0.0
-4467,11171,19637,0.0
-4850,11786,21258,0.0
-4953,11692,21646,0.0
-5065,11608,22069,0.0
-5182,11526,22513,0.0
-5291,11420,22924,0.0
-5409,11320,23368,0.0
-5489,11133,23645,0.0
-5641,11086,24234,0.0
-5547,10554,23765,0.0
-5664,10428,24200,0.0
-5694,10139,24265,0.0
-6198,10667,26344,0.0
-6338,10533,26866,0.0
-6498,10422,27476,0.0
-6603,10210,27847,0.0
-6716,10001,28247,0.0
-7110,10190,29828,0.0
-7303,10062,30563,0.0
-7363,9741,30736,0.0
-7508,9527,31265,0.0
-7613,9253,31624,0.0
-7617,8854,31562,0.0
-4572,5074,18898,0.0
-4578,4845,18882,0.0
-4567,4598,18789,0.0
-4575,4373,18778,0.0
-4567,4136,18698,0.0
-4564,3905,18643,0.0
-4569,3683,18620,0.0
-4558,3451,18531,0.0
-4560,3230,18494,0.0
-4562,3013,18465,0.0
-4559,2792,18405,0.0
-4562,2577,18377,0.0
-4550,2355,18286,0.0
-4551,2144,18247,0.0
-4548,1930,18197,0.0
-4550,1722,18162,0.0
-4546,1511,18107,0.0
-4546,1304,18064,0.0
-4535,1095,17977,0.0
-4536,890,17940,0.0
-4536,687,17902,0.0
-4540,485,17876,0.0
-4529,282,17795,0.0
-4534,82,17773,0.0
-4530,-116,17717,0.0
-4527,-315,17665,0.0
-4527,-512,17626,0.0
-4523,-709,17569,0.0
-4523,-905,17531,0.0
-4519,-1099,17478,0.0
-4520,-1295,17442,0.0
-4503,-1484,17338,0.0
-4509,-1679,17321,0.0
-4507,-1871,17274,0.0
-4517,-2068,17272,0.0
-4507,-2255,17195,0.0
-4590,-2492,17469,0.0
-4779,-2799,18149,0.0
-8894,-5585,33696,1.0
-8965,-6009,33885,1.0
0,0,0,0.0
0,0,0,0.0
-8983,-7163,33717,1.0
-8972,-7535,33597,1.0
-8970,-7913,33510,1.0
-8929,-8256,33279,1.0
0,0,0,0.0
0,0,0,0.0
-8860,-9319,32786,1.0
0,0,0,0.0
-8912,-10134,32821,1.0
0,0,0,0.0
0,0,0,0.0
0,0,0,0.0
-8995,-11771,32801,1.0
-8955,-12105,32575,1.0
-8940,-12470,32435,1.0
0,0,0,0.0
-8994,-13327,32464,1.0
-8990,-13715,32367,1.0
-8946,-14041,32125,1.0
-8967,-14471,32118,1.0
0,0,0,0.0
-8724,-14852,31080,1.0
-8786,-15349,31216,1.0
-9024,-16173,31977,1.0
-9022,-16577,31882,1.0
-9008,-16960,31745,1.0
-9029,-17412,31730,1.0
-9015,-17799,31588,1.0
-9027,-18242,31543,1.0
-9019,-18644,31421,1.0
-9019,-19068,31330,1.0
-8998,-19450,31166,1.0
-9010,-19904,31113,1.0
-8996,-20302,30967,1.0
-9009,-20767,30918,1.0
-8959,-21091,30654,1.0
-8897,-21380,30341,1.0
-8810,-21609,29950,1.0
-8749,-21897,29648,1.0
-8693,-22196,29359,1.0
-8649,-22526,29116,1.0
-8599,-22838,28849,1.0
-8544,-23136,28564,1.0
-8488,-23431,28278,1.0
-8427,-23712,27979,1.0
-8385,-24043,27737,1.0
-8327,-24329,27443,1.0
-8264,-24599,27135,1.0
-8219,-24921,26884,1.0
-8164,-25214,26600,1.0
-8119,-25540,26351,1.0
-8059,-25816,26052,1.0
-8004,-26107,25769,1.0
-22,-74,72,0.0
-25,-88,83,0.0
-28,-98,91,0.0
-27,-99,90,0.0
-24,-86,77,0.0
-25,-92,79,0.0
-21,-81,68,0.0
-24,-92,77,0.0
-20,-77,62,0.0
-21,-83,66,0.0
-22,-90,70,0.0
-21,-89,67,0.0
-21,-88,65,0.0
-24,-105,76,0.0
-25,-109,77,0.0
-24,-106,73,0.0
-4451,-19616,13174,0.0
-4455,-19982,13105,0.0
-4455,-20339,13023,0.0
-23,-109,68,0.0
-25,-125,76,0.0
-27,-137,81,0.0
-24,-122,71,0.0
-29,-148,84,0.0
-28,-152,83,0.0
-27,-145,78,0.0
-31,-164,86,0.0
-31,-166,84,0.0
-31,-175,86,0.0
-31,-173,84,0.0
-34,-195,91,0.0
-36,-211,96,0.0
-37,-226,100,0.0
-38,-239,102,0.0
-38,-243,101,0.0
-40,-258,104,0.0
-40,-264,104,0.0
-45,-296,112,0.0
-48,-327,120,0.0
-48,-333,119,0.0
-47,-329,113,0.0
-46,-333,111,0.0
-46,-338,108,0.0
-44,-332,102,0.0
-44,-335,99,0.0
-42,-331,94,0.0
-1669,12824,12160,0.0
-1712,12747,12348,0.0
-1750,12624,12492,0.0
0,0,0,0.0
-4686,31752,32794,0.0
-4631,30424,32104,0.0
-4682,29838,32170,0.0
-2094,12948,14264,0.0
-2127,12764,14368,0.0
-4815,28035,32251,0.0
-4718,26664,31350,0.0
-4790,26279,31580,0.0
-2766,14732,18096,0.0
-2833,14655,18404,0.0
-2713,13623,17491,0.0
-2795,13628,17895,0.0
-2777,13154,17665,0.0
-2722,12517,17195,0.0
-2764,12345,17351,0.0
-2705,11735,16877,0.0
-2796,11776,17334,0.0
-2863,11710,17647,0.0
-3436,13644,21053,0.0
-3438,13254,20949,0.0
-3445,12888,20870,0.0
-3454,12539,20809,0.0
-3459,12186,20729,0.0
-3260,11142,19435,0.0
-3298,10932,19562,0.0
-3456,11105,20391,0.0
-3497,10895,20536,0.0
-5203,15708,30407,0.0
-5687,16630,33073,0.0
-4547,12876,26322,0.0
-4601,12612,26517,0.0
-4567,12112,26200,0.0
-4516,11585,25798,0.0
-4341,10763,24690,0.0
-4457,10676,25244,0.0
-4431,10245,24986,0.0
-4520,10087,25391,0.0
-4873,10483,27262,0.0
-4970,10302,27695,0.0
-5109,10195,28359,0.0
-5159,9902,28526,0.0
-5283,9743,29102,0.0
-5373,9514,29492,0.0
-5780,9813,31610,0.0
-5804,9438,31629,0.0
-5826,9060,31633,0.0
-5843,8679,31615,0.0
-3497,4954,18860,0.0
-3503,4723,18825,0.0
-3504,4489,18766,0.0
-3507,4260,18727,0.0
-3515,4039,18706,0.0
-3511,3806,18625,0.0
-3512,3582,18572,0.0
-3512,3360,18519,0.0
-3515,3141,18476,0.0
-3512,2919,18401,0.0
-3511,2702,18343,0.0
-3517,2490,18314,0.0
-3516,2277,18260,0.0
-3515,2066,18202,0.0
-3520,1858,18175,0.0
-3523,1652,18142,0.0
-3523,1445,18091,0.0
-3513,1237,17989,0.0
-3513,1033,17941,0.0
-3523,834,17943,0.0
-3521,632,17886,0.0
-3524,433,17853,0.0
-3523,234,17798,0.0
-3522,36,17748,0.0
-3520,-160,17695,0.0
-3514,-355,17622,0.0
-3521,-550,17608,0.0
-3520,-744,17562,0.0
-3519,-938,17513,0.0
-3519,-1130,17468,0.0
-3522,-1323,17439,0.0
-3518,-1513,17376,0.0
-3515,-1703,17327,0.0
-3515,-1893,17280,0.0
-3516,-2084,17248,0.0
-3505,-2266,17152,0.0
-3588,-2512,17513,0.0
-3721,-2805,18122,0.0
-7008,-5661,34051,1.0
0,0,0,0.0
-7041,-6443,34054,1.0
-7055,-6835,34045,1.0
-7077,-7236,34076,1.0
-7098,-7638,34098,1.0
0,0,0,0.0
-7090,-8393,33911,1.0
-7076,-8757,33770,1.0
-7092,-9158,33768,1.0
-7116,-9576,33812,1.0
-7076,-9906,33551,1.0
-7100,-10325,33588,1.0
-7101,-10712,33518,1.0
-7072,-11058,33314,1.0
0,0,0,0.0
-7091,-11867,33258,1.0
0,0,0,0.0
0,0,0,0.0
0,0,0,0.0
0,0,0,0.0
-7111,-13883,32994,1.0
-7056,-14176,32672,1.0
-7038,-14541,32520,1.0
-7070,-15012,32597,1.0
-7089,-15462,32615,1.0
-7079,-15850,32496,1.0
0,0,0,0.0
-7084,-16693,32382,1.0
-7115,-17188,32454,1.0
0,0,0,0.0
0,0,0,0.0
0,0,0,0.0
0,0,0,0.0
0,0,0,0.0
-7046,-19610,31733,1.0
-7059,-20094,31725,1.0
0,0,0,0.0
0,0,0,0.0
-6947,-21119,31018,1.0
-6904,-21441,30755,1.0
-6840,-21700,30404,1.0
-6786,-21990,30102,1.0
-6713,-22212,29711,1.0
-6658,-22491,29403,1.0
-6602,-22766,29091,1.0
-6565,-23103,28859,1.0
-6512,-23388,28565,1.0
-6464,-23688,28288,1.0
-6418,-23998,28024,1.0
-6368,-24289,27740,1.0
-6314,-24569,27444,1.0
-6273,-24895,27200,1.0
-6220,-25174,26905,1.0
-6175,-25489,26646,1.0
-6122,-25770,26354,1.0
-6071,-26059,26071,1.0
-6027,-26383,25820,1.0
-18,-79,76,0.0
-18,-82,77,0.0
-17,-80,73,0.0
-18,-86,77,0.0
-16,-79,70,0.0
-18,-86,74,0.0
-17,-86,71,0.0
-18,-88,72,0.0
-19,-96,76,0.0
-18,-100,78,0.0
-21,-111,85,0.0
-21,-116,87,0.0
-21,-118,86,0.0
-21,-119,85,0.0
-20,-115,80,0.0
-3223,-19321,13206,0.0
-3212,-19650,13120,0.0
-21,-126,82,0.0
-3197,-20378,12974,0.0
-20,-133,83,0.0
-21,-139,84,0.0
-22,-146,86,0.0
-21,-148,85,0.0
-23,-164,92,0.0
-23,-168,92,0.0
-23,-173,92,0.0
-24,-177,92,0.0
-25,-193,97,0.0
-24,-193,94,0.0
-26,-216,104,0.0
-26,-217,101,0.0
-28,-238,107,0.0
-27,-235,103,0.0
-28,-247,105,0.0
-29,-262,108,0.0
-30,-275,110,0.0
-29,-283,110,0.0
-32,-316,119,0.0
-33,-328,120,0.0
-31,-327,115,0.0
-31,-330,113,0.0
-32,-342,112,0.0
-30,-336,107,0.0
-28,-330,101,0.0
-28,-336,99,0.0
0,0,0,0.0
-3226,38045,37289,0.0
-3274,37038,37083,0.0
-2922,31740,32465,0.0
-2935,30637,32013,0.0
-2997,30084,32116,0.0
-3044,29404,32071,0.0
-3145,29254,32601,0.0
-3137,28114,32016,0.0
-1412,12199,14196,0.0
-1439,11985,14253,0.0
-1819,14623,17776,0.0
-1866,14479,17992,0.0
-1836,13749,17467,0.0
-1844,13346,17334,0.0
-1848,12917,17157,0.0
-1860,12564,17067,0.0
-1869,12200,16954,0.0
-1882,11874,16882,0.0
-2028,12374,18004,0.0
-2010,11855,17656,0.0
-2052,11709,17851,0.0
-2084,11495,17947,0.0
-2318,12373,19785,0.0
-2326,12003,19664,0.0
-2465,12301,20654,0.0
-2495,12044,20730,0.0
-2504,11690,20633,0.0
-3697,16684,30208,0.0
-2538,11073,20577,0.0
-3777,15923,30376,0.0
-3801,15485,30338,0.0
-4160,16376,32965,0.0
-3391,12891,26675,0.0
-4197,15408,32792,0.0
-3550,12577,27542,0.0
-3505,11983,27019,0.0
-3547,11693,27160,0.0
-3555,11296,27048,0.0
-3475,10639,26279,0.0
-3551,10467,26690,0.0
-3519,9979,26288,0.0
-3573,9745,26544,0.0
-3614,9473,26701,0.0
-3630,9132,26666,0.0
-3521,8500,25732,0.0
-3645,8430,26496,0.0
-4312,9546,31180,0.0
-4394,9301,31611,0.0
-4405,8902,31528,0.0
-2641,5089,18813,0.0
-2654,4869,18818,0.0
-2662,4642,18783,0.0
-2666,4410,18725,0.0
-2673,4186,18692,0.0
-2676,3958,18632,0.0
-2678,3732,18568,0.0
-2685,3514,18531,0.0
-2684,3288,18447,0.0
-2693,3077,18436,0.0
-2696,2862,18385,0.0
-2698,2647,18329,0.0
-2702,2435,18285,0.0
-2704,2224,18225,0.0
-2704,2014,18169,0.0
-2705,1806,18102,0.0
-2714,1604,18103,0.0
-2710,1397,18013,0.0
-2715,1196,17985,0.0
-2719,995,17946,0.0
-2717,794,17876,0.0
-2719,595,17828,0.0
-2728,399,17829,0.0
-2722,201,17741,0.0
-2727,6,17720,0.0
-2725,-187,17650,0.0
-2723,-381,17586,0.0
-2726,-574,17553,0.0
-2730,-766,17532,0.0
-2726,-956,17458,0.0
-2724,-1145,17394,0.0
-2724,-1335,17353,0.0
-2725,-1524,17313,0.0
-2724,-1711,17258,0.0
-2728,-1901,17237,0.0
-2730,-2090,17212,0.0
-2715,-2265,17069,0.0
-2790,-2518,17502,0.0
-2905,-2821,18180,0.0
-5444,-5659,33992,1.0
-5459,-6048,34003,1.0
0,0,0,0.0
-5511,-6860,34178,1.0
-5514,-7240,34119,1.0
-5504,-7603,33981,1.0
-5514,-7997,33977,1.0
-5527,-8395,33980,1.0
0,0,0,0.0
-5501,-9114,33689,1.0
-5508,-9507,33661,1.0
-5517,-9908,33659,1.0
-5543,-10340,33748,1.0
0,0,0,0.0
-5507,-11046,33402,1.0
-5489,-11400,33241,1.0
-5535,-11889,33459,1.0
-5526,-12265,33348,1.0
0,0,0,0.0
-5493,-12984,33039,1.0
-5470,-13330,32850,1.0
-5472,-13738,32813,1.0
-5493,-14194,32879,1.0
-5519,-14675,32992,1.0
0,0,0,0.0
-5489,-15422,32714,1.0
0,0,0,0.0
-5478,-16235,32560,1.0
0,0,0,0.0
-5444,-16985,32267,1.0
0,0,0,0.0
-5425,-17797,32077,1.0
-5453,-18335,32205,1.0
-5426,-18688,32004,1.0
0,0,0,0.0
0,0,0,0.0
0,0,0,0.0
-5380,-20362,31597,1.0
0,0,0,0.0
-5350,-21199,31361,1.0
-5320,-21563,31156,1.0
0,0,0,0.0
-5208,-22074,30446,1.0
-5161,-22365,30146,1.0
-5098,-22589,29760,1.0
-5040,-22824,29395,1.0
-5001,-23152,29153,1.0
-4956,-23448,28871,1.0
-4909,-23736,28580,1.0
-4867,-24047,28317,1.0
-4821,-24342,28038,1.0
-4778,-24649,27771,1.0
-4732,-24947,27495,1.0
-4680,-25208,27179,1.0
-4634,-25504,26903,1.0
-4589,-25808,26634,1.0
-4545,-26118,26371,1.0
-4499,-26424,26104,1.0
-13,-79,76,0.0
-13,-78,73,0.0
-13,-84,78,0.0
-15,-96,86,0.0
-14,-94,83,0.0
-12,-84,74,0.0
-15,-103,87,0.0
-15,-105,87,0.0
-16,-112,90,0.0
-16,-121,95,0.0
-15,-112,87,0.0
-15,-113,86,0.0
-16,-118,88,0.0
-15,-122,88,0.0
-15,-119,84,0.0
-13,-113,79,0.0
-2251,-19454,13145,0.0
-2238,-19824,13084,0.0
-15,-135,87,0.0
-14,-132,82,0.0
-15,-143,88,0.0
-15,-155,92,0.0
-16,-163,94,0.0
-16,-162,92,0.0
-16,-174,97,0.0
-17,-193,104,0.0
-17,-191,101,0.0
-17,-201,103,0.0
-17,-204,102,0.0
-17,-212,103,0.0
-18,-225,107,0.0
-17,-230,106,0.0
-17,-234,105,0.0
-18,-254,110,0.0
-18,-260,110,0.0
-18,-265,108,0.0
-18,-270,107,0.0
-18,-294,113,0.0
-19,-331,123,0.0
-19,-334,120,0.0
-18,-338,117,0.0
-18,-343,115,0.0
-17,-345,112,0.0
-17,-341,107,0.0
-16,-346,104,0.0
-608,13744,13284,0.0
-636,13456,13286,0.0
-665,13228,13341,0.0
0,0,0,0.0
-1721,30433,32035,0.0
-1786,29902,32156,0.0
-1806,28659,31488,0.0
-1888,28457,31945,0.0
-1965,28155,32297,0.0
-1959,26731,31336,0.0
-905,11766,14096,0.0
-931,11562,14157,0.0
-2125,25222,31570,0.0
-2133,24216,30989,0.0
-2162,23494,30740,0.0
-2192,22814,30526,0.0
-2243,22378,30624,0.0
-2279,21815,30539,0.0
-2358,21666,31033,0.0
-1446,12764,18709,0.0
-2387,20239,30363,0.0
-1481,12075,18545,0.0
-1575,12346,19419,0.0
-1645,12403,19981,0.0
-1636,11872,19594,0.0
-1711,11945,20207,0.0
-1779,11946,20717,0.0
-1800,11640,20701,0.0
-2598,16171,29502,0.0
-2683,16076,30100,0.0
-2736,15778,30329,0.0
-3012,16723,33016,0.0
-3035,16216,32896,0.0
-3063,15748,32841,0.0
-2575,12745,27336,0.0
-2647,12599,27809,0.0
-2664,12195,27714,0.0
-2632,11586,27128,0.0
-2651,11214,27069,0.0
-2666,10834,26979,0.0
-2687,10486,26958,0.0
-2732,10231,27174,0.0
-2781,9993,27448,0.0
-2728,9391,26695,0.0
-2765,9118,26853,0.0
-2741,8650,26417,0.0
-2771,8365,26519,0.0
-3002,8653,28513,0.0
-3360,9239,31687,0.0
-3374,8843,31608,0.0
-2020,5040,18805,0.0
-2027,4804,18741,0.0
-2039,4586,18736,0.0
-2047,4358,18690,0.0
-2055,4134,18649,0.0
-2059,3907,18582,0.0
-2067,3688,18545,0.0
-2075,3471,18510,0.0
-2080,3254,18464,0.0
-2084,3036,18406,0.0
-2085,2816,18315,0.0
-2094,2610,18302,0.0
-2096,2397,18234,0.0
-2101,2187,18184,0.0
-2106,1981,18142,0.0
-2112,1778,18112,0.0
-2113,1572,18037,0.0
-2117,1370,18002,0.0
-2122,1169,17959,0.0
-2124,968,17905,0.0
-2128,771,17863,0.0
-2125,572,17778,0.0
-2133,377,17773,0.0
-2137,182,17735,0.0
-2139,-12,17694,0.0
-2137,-204,17610,0.0
-2136,-395,17541,0.0
-2142,-588,17531,0.0
-2140,-777,17457,0.0
-2145,-968,17454,0.0
-2142,-1155,17367,0.0
-2145,-1344,17335,0.0
-2147,-1532,17300,0.0
-2149,-1721,17276,0.0
-2146,-1905,17199,0.0
-2143,-2087,17127,0.0
-2142,-2271,17078,0.0
-2186,-2505,17378,0.0
-2281,-2811,18090,0.0
-4297,-5666,34007,1.0
-4343,-6101,34292,1.0
-4324,-6446,34062,1.0
-4343,-6850,34143,1.0
-4353,-7240,34140,1.0
-4345,-7602,34007,1.0
-4345,-7981,33944,1.0
-4335,-8340,33808,1.0
0,0,0,0.0
-4351,-9131,33806,1.0
-4362,-9538,33837,1.0
-4384,-9973,33951,1.0
-4359,-10303,33703,1.0
0,0,0,0.0
0,0,0,0.0
-4347,-11449,33474,1.0
-4362,-11886,33545,1.0
-4337,-12215,33308,1.0
-4321,-12572,33153,1.0
-4308,-12937,33020,1.0
-4328,-13403,33137,1.0
-4323,-13797,33064,1.0
-4317,-14193,32992,1.0
-4298,-14551,32829,1.0
-4321,-15049,32972,1.0
-4290,-15367,32716,1.0
0,0,0,0.0
-4279,-16194,32603,1.0
-4250,-16519,32363,1.0
-4234,-16900,32234,1.0
-4221,-17294,32126,1.0
-4230,-17787,32195,1.0
-4212,-18174,32060,1.0
-4209,-18623,32031,1.0
-4179,-18961,31808,1.0
0,0,0,0.0
-4141,-19741,31527,1.0
-4140,-20228,31534,1.0
0,0,0,0.0
-4086,-20964,31161,1.0
0,0,0,0.0
-4059,-21847,30991,1.0
-4011,-22113,30652,1.0
-3970,-22416,30368,1.0
-3917,-22652,29997,1.0
-3872,-22926,29681,1.0
-3820,-23163,29321,1.0
-3775,-23443,29019,1.0
-3739,-23780,28789,1.0
-3696,-24066,28496,1.0
-3651,-24350,28202,1.0
-3609,-24653,27932,1.0
-3566,-24950,27655,1.0
-3519,-25224,27354,1.0
-3481,-25562,27122,1.0
-3434,-25839,26824,1.0
-3389,-26132,26544,1.0
-3345,-26427,26266,1.0
-8,-64,62,0.0
-9,-78,74,0.0
-8,-71,66,0.0
-9,-80,72,0.0
-8,-74,66,0.0
-9,-83,72,0.0
-10,-97,83,0.0
-9,-92,77,0.0
-11,-106,87,0.0
-10,-103,81,0.0
-11,-116,91,0.0
-12,-133,102,0.0
-11,-120,89,0.0
-8,-95,70,0.0
-9,-112,80,0.0
-10,-118,83,0.0
-1541,-19317,13155,0.0
-1521,-19675,13088,0.0
-1500,-20018,13007,0.0
-10,-129,82,0.0
-9,-134,83,0.0
-10,-145,88,0.0
-10,-151,88,0.0
-10,-158,91,0.0
-10,-167,94,0.0
-9,-167,91,0.0
-10,-182,96,0.0
-10,-186,97,0.0
-10,-194,97,0.0
-10,-215,106,0.0
-10,-218,104,0.0
-11,-233,108,0.0
-10,-240,108,0.0
-10,-242,106,0.0
-10,-250,106,0.0
-9,-256,105,0.0
-9,-267,107,0.0
-9,-285,111,0.0
-10,-313,118,0.0
-9,-336,122,0.0
-9,-341,120,0.0
-8,-347,118,0.0
-8,-341,112,0.0
-7,-343,108,0.0
-7,-348,106,0.0
-270,13904,13496,0.0
-304,13801,13686,0.0
-331,13393,13565,0.0
-419,15285,15816,0.0
-450,14946,15799,0.0
-473,14347,15493,0.0
-507,14141,15602,0.0
-542,13989,15771,0.0
-573,13732,15819,0.0
-609,13589,15998,0.0
-551,11522,13862,0.0
-582,11415,14037,0.0
-609,11222,14106,0.0
-1394,24208,31110,0.0
-1416,23208,30496,0.0
-1466,22734,30548,0.0
-1515,22268,30604,0.0
-1552,21647,30433,0.0
-1619,21459,30867,0.0
-1639,20666,30422,0.0
-1671,20063,30229,0.0
-1101,12602,19439,0.0
-1138,12433,19640,0.0
-1141,11906,19264,0.0
-1180,11757,19491,0.0
-1277,12169,20674,0.0
-1302,11870,20675,0.0
-1329,11595,20713,0.0
-1958,16353,29968,0.0
-2008,16055,30196,0.0
-2056,15750,30410,0.0
-2265,16622,32963,0.0
-2295,16140,32889,0.0
-2319,15632,32748,0.0
-2349,15179,32708,0.0
-2030,12570,27873,0.0
-2403,14252,32542,0.0
-2028,11524,27111,0.0
-2049,11158,27062,0.0
-2066,10774,26958,0.0
-2089,10425,26929,0.0
-2107,10062,26857,0.0
-2132,9742,26887,0.0
-2138,9339,26680,0.0
-2154,8989,26601,0.0
-2151,8569,26298,0.0
-2187,8305,26466,0.0
-2383,8625,28571,0.0
-2652,9140,31514,0.0
-2687,8806,31644,0.0
-1611,5016,18817,0.0
-1619,4782,18755,0.0
-1629,4557,18724,0.0
-1634,4320,18632,0.0
-1645,4101,18609,0.0
-1655,3883,18582,0.0
-1661,3658,18513,0.0
-1669,3444,18486,0.0
-1674,3224,18414,0.0
-1683,3012,18380,0.0
-1689,2798,18327,0.0
-1694,2586,18276,0.0
-1697,2373,18197,0.0
-1700,2162,18124,0.0
-1708,1959,18095,0.0
-1714,1756,18061,0.0
-1720,1555,18028,0.0
-1719,1349,17929,0.0
-1726,1151,17912,0.0
-1728,952,17843,0.0
-1734,756,17825,0.0
-1739,560,17783,0.0
-1742,364,17737,0.0
-1746,170,17703,0.0
-1748,-22,17647,0.0
-1752,-214,17608,0.0
-1755,-406,17574,0.0
-1757,-597,17526,0.0
-1755,-785,17446,0.0
-1756,-973,17397,0.0
-1759,-1162,17361,0.0
-1759,-1348,17305,0.0
-1759,-1533,17246,0.0
-1761,-1719,17212,0.0
-1764,-1907,17190,0.0
-1763,-2091,17134,0.0
-1764,-2275,17089,0.0
-1810,-2524,17495,0.0
-1880,-2817,18124,0.0
0,0,0,0.0
-3568,-6091,34233,1.0
-3562,-6452,34097,1.0
-3546,-6794,33875,1.0
-3561,-7196,33948,1.0
-3555,-7557,33824,1.0
-3566,-7955,33862,1.0
-3547,-8289,33628,1.0
-3555,-8683,33644,1.0
-3561,-9079,33653,1.0
-3570,-9486,33693,1.0
-3587,-9917,33806,1.0
-3574,-10270,33644,1.0
-3559,-10617,33466,1.0
0,0,0,0.0
-3554,-11392,33360,1.0
-3540,-11742,33195,1.0
-3537,-12134,33148,1.0
-3535,-12530,33105,1.0
-3552,-13006,33262,1.0
0,0,0,0.0
-3536,-13777,33085,1.0
-3546,-14239,33167,1.0
-3532,-14613,33041,1.0
-3503,-14922,32768,1.0
-3498,-15340,32734,1.0
0,0,0,0.0
-3483,-16164,32618,1.0
-3454,-16481,32366,1.0
-3439,-16867,32249,1.0
-3422,-17246,32117,1.0
-3402,-17616,31964,1.0
0,0,0,0.0
-3368,-18393,31718,1.0
-3333,-18689,31434,1.0
-3305,-19022,31215,1.0
0,0,0,0.0
0,0,0,0.0
0,0,0,0.0
-3277,-20921,31188,1.0
0,0,0,0.0
-3243,-21796,31010,1.0
-3205,-22109,30738,1.0
0,0,0,0.0
-3122,-22673,30117,1.0
-3087,-23004,29875,1.0
-3038,-23229,29497,1.0
-2990,-23472,29147,1.0
-2953,-23789,28893,1.0
-2913,-24087,28614,1.0
-2874,-24402,28356,1.0
-2830,-24673,28048,1.0
-2790,-24989,27793,1.0
-2748,-25275,27504,1.0
-2704,-25558,27212,1.0
-2665,-25888,26971,1.0
-2620,-26174,26682,1.0
-2577,-26469,26403,1.0
-5,-58,58,0.0
-5,-61,58,0.0
-6,-72,68,0.0
-8,-85,79,0.0
-8,-91,83,0.0
-8,-95,83,0.0
-8,-96,83,0.0
-7,-86,72,0.0
-8,-108,89,0.0
-8,-105,84,0.0
-7,-105,82,0.0
-7,-101,77,0.0
-7,-106,79,0.0
-7,-104,76,0.0
-6,-106,76,0.0
-6,-105,73,0.0
-1072,-19242,13163,0.0
-1047,-19558,13072,0.0
-1022,-19904,12994,0.0
-997,-20273,12926,0.0
-6,-124,77,0.0
-6,-133,81,0.0
-6,-145,85,0.0
-6,-149,85,0.0
-6,-157,89,0.0
-6,-167,91,0.0
-5,-170,91,0.0
-6,-181,94,0.0
-6,-186,94,0.0
-5,-197,97,0.0
-6,-215,103,0.0
-5,-224,105,0.0
-5,-212,96,0.0
-5,-235,103,0.0
-5,-241,103,0.0
-4,-240,100,0.0
-4,-251,101,0.0
-3,-268,105,0.0
-3,-297,113,0.0
-2,-331,121,0.0
-2,-336,119,0.0
-2,-338,116,0.0
-1,-333,110,0.0
0,-337,107,0.0
0,-340,105,0.0
83,15212,14822,0.0
49,15041,14971,0.0
13,13681,13911,0.0
-17,13352,13867,0.0
-48,13222,14028,0.0
-89,14825,16070,0.0
-124,14597,16165,0.0
-157,14393,16287,0.0
-192,14231,16456,0.0
-226,14047,16598,0.0
-236,12628,15249,0.0
-290,13565,16744,0.0
-268,11107,14014,0.0
-336,12468,16083,0.0
-373,12533,16530,0.0
-403,12340,16643,0.0
-435,12191,16819,0.0
-831,21458,30283,0.0
-901,21497,31040,0.0
-929,20591,30426,0.0
-970,20027,30290,0.0
-1013,19553,30276,0.0
-691,12492,19809,0.0
-732,12430,20190,0.0
-1115,17811,29641,0.0
-780,11745,20033,0.0
-830,11803,20638,0.0
-858,11544,20701,0.0
-1280,16295,29978,0.0
-1327,16017,30241,0.0
-1490,17050,33051,0.0
-1523,16551,32952,0.0
-1558,16078,32894,0.0
-1588,15583,32776,0.0
-1287,12012,25987,0.0
-1650,14655,32628,0.0
-1471,12431,28499,0.0
-1426,11469,27093,0.0
-1449,11098,27028,0.0
-1470,10721,26940,0.0
-1497,10392,26961,0.0
-1521,10050,26939,0.0
-1548,9740,27000,0.0
-1554,9300,26683,0.0
-1535,8741,25986,0.0
-1561,8447,26041,0.0
-1615,8305,26586,0.0
-1904,9294,30930,0.0
-1965,9099,31516,0.0
-1990,8730,31521,0.0
-1201,4990,18812,0.0
-1212,4758,18753,0.0
-1222,4527,18700,0.0
-1230,4297,18630,0.0
-1240,4075,18587,0.0
-1250,3855,18546,0.0
-1261,3642,18529,0.0
-1268,3419,18458,0.0
-1276,3206,18421,0.0
-1283,2988,18348,0.0
-1290,2775,18290,0.0
-1296,2562,18228,0.0
-1304,2357,18199,0.0
-1308,2147,18127,0.0
-1315,1943,18078,0.0
-1323,1742,18062,0.0
-1329,1541,18024,0.0
-1330,1335,17913,0.0
-1337,1138,17897,0.0
-1342,940,17857,0.0
-1347,743,17809,0.0
-1353,549,17787,0.0
-1357,354,17743,0.0
-1360,160,17698,0.0
-1362,-31,17633,0.0
-1367,-222,17600,0.0
-1368,-413,17534,0.0
-1373,-603,17514,0.0
-1376,-793,17477,0.0
-1377,-980,17409,0.0
-1380,-1168,17382,0.0
-1384,-1357,17364,0.0
-1382,-1541,17285,0.0
-1383,-1726,17239,0.0
-1382,-1907,17159,0.0
-1381,-2089,17097,0.0
-1384,-2275,17078,0.0
-1419,-2521,17462,0.0
-1474,-2814,18095,0.0
-2777,-5666,33987,1.0
-2767,-6010,33780,1.0
-2751,-6339,33507,1.0
-2756,-6718,33508,1.0
-2773,-7129,33652,1.0
-2761,-7464,33434,1.0
-2767,-7853,33456,1.0
-2772,-8243,33474,1.0
0,0,0,0.0
-2771,-8995,33379,1.0
-2771,-9377,33350,1.0
-2791,-9830,33554,1.0
-2785,-10202,33465,1.0
0,0,0,0.0
-2754,-10872,33063,1.0
0,0,0,0.0
-2741,-11616,32892,1.0
-2746,-12043,32956,1.0
-2767,-12553,33224,1.0
-2777,-13024,33368,1.0
-2761,-13372,33188,1.0
-2751,-13756,33096,1.0
-2744,-14155,33038,1.0
-2737,-14561,32989,1.0
0,0,0,0.0
-2716,-15357,32838,1.0
-2688,-15660,32557,1.0
-2683,-16100,32562,1.0
-2655,-16403,32286,1.0
0,0,0,0.0
-2624,-17178,32063,1.0
-2607,-17564,31945,1.0
0,0,0,0.0
-2553,-18204,31468,1.0
-2531,-18572,31314,1.0
0,0,0,0.0
-2527,-19617,31494,1.0
-2517,-20100,31502,1.0
-2492,-20482,31344,1.0
-2480,-20961,31329,1.0
-2446,-21275,31063,1.0
-2430,-21754,31034,1.0
0,0,0,0.0
0,0,0,0.0
-2321,-22657,30179,1.0
0,0,0,0.0
-2247,-23266,29630,1.0
-2206,-23529,29304,1.0
-2167,-23814,29008,1.0
-2128,-24109,28725,1.0
-2092,-24435,28481,1.0
-2050,-24708,28175,1.0
-2008,-24978,27867,1.0
-1969,-25292,27609,1.0
-1928,-25583,27326,1.0
-1887,-25891,27059,1.0
-1845,-26193,26788,1.0
-1804,-26498,26519,1.0
-1758,-26757,26204,1.0
-5,-82,78,0.0
-4,-76,71,0.0
-4,-70,64,0.0
-5,-93,84,0.0
-4,-80,70,0.0
-4,-86,74,0.0
-5,-96,81,0.0
-5,-101,83,0.0
-5,-107,86,0.0
-5,-111,88,0.0
-4,-116,89,0.0
-4,-109,82,0.0
-4,-116,85,0.0
-4,-115,83,0.0
-3,-107,74,0.0
-608,-19171,13169,0.0
-580,-19509,13094,0.0
-552,-19856,13018,0.0
-522,-20206,12938,0.0
-492,-20550,12849,0.0
-3,-142,87,0.0
-3,-147,88,0.0
-3,-160,92,0.0
-2,-141,79,0.0
-3,-168,92,0.0
-2,-177,94,0.0
-2,-188,99,0.0
-2,-184,94,0.0
-2,-198,99,0.0
-1,-218,105,0.0
0,-218,102,0.0
0,-232,106,0.0
0,-241,107,0.0
0,-234,101,0.0
0,-246,103,0.0
0,-258,104,0.0
1,-257,101,0.0
2,-292,111,0.0
3,-342,126,0.0
3,-340,122,0.0
4,-344,119,0.0
5,-347,115,0.0
5,-344,111,0.0
6,-346,107,0.0
1194,11203,11025,0.0
1183,11177,11234,0.0
1170,11135,11433,0.0
1157,11087,11629,0.0
1144,11037,11825,0.0
1126,10948,11985,0.0
1313,12850,14372,0.0
1283,12648,14454,0.0
1231,12217,14267,0.0
1070,10698,12766,0.0
1057,10649,12988,0.0
1090,11058,13785,0.0
1070,10927,13926,0.0
1039,10690,13927,0.0
1012,10489,13974,0.0
1002,10455,14243,0.0
1090,11448,15953,0.0
1076,11379,16222,0.0
1061,11300,16483,0.0
949,10160,15166,0.0
933,10060,15373,0.0
1752,19007,29737,0.0
1382,15092,24179,0.0
1066,11720,19236,0.0
1288,14234,23938,0.0
1090,12134,20914,0.0
1022,11440,20216,0.0
1017,11441,20736,0.0
995,11257,20932,0.0
1394,15844,30238,0.0
1166,13330,26120,0.0
1128,12953,26071,0.0
1100,12682,26232,0.0
1000,11595,24659,0.0
986,11474,25101,0.0
972,11350,25552,0.0
947,11094,25721,0.0
911,10708,25584,0.0
844,9948,24506,0.0
837,9881,25117,0.0
819,9693,25438,0.0
857,10150,27528,0.0
852,10099,28327,0.0
824,9764,28353,0.0
889,10519,31651,0.0
824,9741,30402,0.0
809,9539,30919,0.0
796,9347,31495,0.0
766,8959,31435,0.0
440,5124,18745,0.0
423,4894,18694,0.0
407,4667,18644,0.0
391,4437,18577,0.0
376,4220,18551,0.0
361,3998,18500,0.0
347,3782,18465,0.0
333,3566,18419,0.0
320,3350,18365,0.0
307,3131,18276,0.0
295,2927,18265,0.0
283,2712,18186,0.0
272,2510,18174,0.0
261,2303,18118,0.0
251,2100,18079,0.0
241,1898,18035,0.0
231,1696,17979,0.0
222,1496,17928,0.0
212,1299,17897,0.0
205,1103,17866,0.0
196,907,17819,0.0
189,712,17751,0.0
181,517,17687,0.0
175,327,17694,0.0
169,135,17622,0.0
162,-53,17566,0.0
157,-243,17528,0.0
151,-431,17488,0.0
146,-618,17427,0.0
142,-805,17401,0.0
138,-992,17365,0.0
134,-1176,17319,0.0
131,-1363,17294,0.0
127,-1546,17242,0.0
125,-1727,17177,0.0
122,-1910,17126,0.0
120,-2092,17084,0.0
118,-2273,17042,0.0
120,-2513,17399,0.0
124,-2810,18078,0.0
233,-5693,34187,1.0
232,-6054,34081,1.0
231,-6369,33734,1.0
230,-6721,33603,1.0
233,-7081,33516,1.0
0,0,0,0.0
239,-7877,33674,1.0
241,-8219,33501,1.0
245,-8584,33426,1.0
251,-8981,33470,1.0
258,-9374,33487,1.0
262,-9722,33337,1.0
0,0,0,0.0
278,-10491,33285,1.0
287,-10888,33285,1.0
0,0,0,0.0
305,-11617,33081,1.0
315,-11984,32981,1.0
0,0,0,0.0
338,-12721,32790,1.0
350,-13073,32648,1.0
364,-13469,32611,1.0
377,-13854,32543,1.0
391,-14207,32399,1.0
407,-14599,32339,1.0
422,-14951,32187,1.0
437,-15235,31894,1.0
455,-15638,31848,1.0
0,0,0,0.0
497,-16573,31990,1.0
518,-16987,31939,1.0
538,-17324,31744,1.0
0,0,0,0.0
580,-18042,31428,1.0
604,-18490,31416,1.0
629,-18884,31309,1.0
654,-19300,31231,1.0
678,-19634,31018,1.0
706,-20080,30979,1.0
733,-20461,30832,1.0
767,-21013,30934,1.0
797,-21419,30813,1.0
831,-21922,30821,1.0
0,0,0,0.0
0,0,0,0.0
919,-22955,30158,1.0
955,-23415,30084,1.0
990,-23817,29927,1.0
0,0,0,0.0
1049,-24348,29276,1.0
1080,-24610,28949,1.0
1111,-24868,28621,1.0
1144,-25169,28345,1.0
1178,-25457,28053,1.0
1214,-25770,27789,1.0
1252,-26089,27531,1.0
1286,-26368,27233,1.0
1324,-26653,26940,1.0
1361,-26944,26652,1.0
1399,-27229,26359,1.0
1440,-27562,26112,1.0
957,-18013,16700,0.0
968,-17921,16259,0.0
981,-17857,15853,0.0
992,-17782,15446,0.0
1004,-17698,15043,0.0
1015,-17615,14648,0.0
1039,-17728,14421,0.0
5,-99,79,0.0
6,-106,83,0.0
1086,-17680,13457,0.0
1121,-17958,13366,0.0
7,-127,91,0.0
1196,-18595,13226,0.0
1236,-18923,13156,0.0
1275,-19245,13075,0.0
1317,-19582,12998,0.0
1361,-19924,12919,0.0
1404,-20254,12825,0.0
1450,-20622,12750,0.0
8,-133,80,0.0
10,-147,86,0.0
11,-160,92,0.0
11,-159,89,0.0
13,-190,104,0.0
13,-179,95,0.0
15,-201,103,0.0
15,-201,101,0.0
16,-203,99,0.0
17,-223,106,0.0
17,-224,104,0.0
18,-235,106,0.0
20,-249,110,0.0
21,-259,111,0.0
22,-272,112,0.0
24,-275,110,0.0
25,-287,111,0.0
28,-320,120,0.0
30,-342,124,0.0
31,-345,121,0.0
31,-342,116,0.0
31,-342,111,0.0
32,-345,109,0.0
2291,14517,14311,0.0
1697,10753,10829,0.0
1682,10657,10962,0.0
2085,13211,13883,0.0
1746,11056,11869,0.0
1942,12291,13481,0.0
1867,11806,13229,0.0
1792,11316,12957,0.0
1704,10747,12575,0.0
1697,10692,12786,0.0
1701,10701,13077,0.0
1701,10676,13336,0.0
1678,10510,13421,0.0
1682,10505,13715,0.0
1667,10386,13865,0.0
1650,10255,14001,0.0
1643,10169,14201,0.0
1643,10136,14481,0.0
1634,10044,14682,0.0
1540,9420,14092,0.0
1639,9981,15286,0.0
1638,9926,15563,0.0
1638,9874,15853,0.0
1633,9787,16098,0.0
1634,9730,16400,0.0
1632,9655,16679,0.0
1631,9577,16963,0.0
1632,9511,17278,0.0
1633,9441,17596,0.0
1636,9372,17929,0.0
1635,9289,18244,0.0
1638,9208,18579,0.0
1640,9130,18930,0.0
1644,9044,19280,0.0
1647,8961,19651,0.0
1648,8857,19991,0.0
1655,8776,20399,0.0
1661,8685,20802,0.0
1667,8591,21217,0.0
1674,8489,21632,0.0
1683,8399,22099,0.0
1693,8301,22572,0.0
1701,8183,23015,0.0
1713,8082,23530,0.0
1724,7962,24021,0.0
1740,7862,24604,0.0
1749,7720,25091,0.0
1764,7594,25662,0.0
2130,8931,31421,0.0
1249,5090,18671,0.0
1230,4864,18630,0.0
1210,4639,18587,0.0
1194,4421,18567,0.0
1174,4191,18484,0.0
1157,3976,18453,0.0
1138,3750,18366,0.0
1124,3544,18359,0.0
1109,3331,18319,0.0
1094,3119,18267,0.0
1078,2906,18202,0.0
1065,2700,18162,0.0
1054,2500,18158,0.0
1038,2288,18064,0.0
1026,2086,18020,0.0
1014,1885,17978,0.0
1003,1685,17934,0.0
993,1487,17900,0.0
980,1288,17834,0.0
971,1093,17803,0.0
960,898,17738,0.0
951,705,17685,0.0
942,512,17635,0.0
935,321,17607,0.0
929,132,17576,0.0
920,-57,17525,0.0
913,-245,17472,0.0
906,-431,17415,0.0
902,-619,17410,0.0
896,-805,17358,0.0
890,-988,17296,0.0
888,-1175,17292,0.0
882,-1358,17234,0.0
879,-1541,17198,0.0
875,-1724,17153,0.0
871,-1905,17098,0.0
870,-2089,17081,0.0
867,-2270,17035,0.0
813,-2302,15956,0.0
919,-2798,18023,0.0
0,0,0,0.0
1740,-6034,34019,1.0
1729,-6357,33722,1.0
0,0,0,0.0
1736,-7100,33667,1.0
0,0,0,0.0
1756,-7895,33812,1.0
1749,-8205,33506,1.0
1753,-8568,33432,1.0
1773,-9008,33639,1.0
1768,-9313,33335,1.0
1765,-9623,33068,1.0
1765,-9946,32854,1.0
1784,-10365,32955,1.0
1795,-10740,32906,1.0
1805,-11113,32845,1.0
1810,-11436,32640,1.0
0,0,0,0.0
0,0,0,0.0
1847,-12539,32392,1.0
1871,-12979,32489,1.0
0,0,0,0.0
1914,-13810,32518,1.0
1922,-14128,32296,1.0
1932,-14445,32077,1.0
1947,-14793,31927,1.0
1969,-15195,31889,1.0
1983,-15522,31692,1.0
2011,-15959,31716,1.0
0,0,0,0.0
2065,-16803,31674,1.0
2094,-17232,31656,1.0
2118,-17618,31551,1.0
2140,-17981,31402,1.0
2159,-18303,31180,1.0
2198,-18796,31245,1.0
2253,-19432,31530,1.0
2276,-19778,31329,1.0
0,0,0,0.0
2340,-20602,31129,1.0
2381,-21084,31124,1.0
0,0,0,0.0
2446,-21875,30841,1.0
2496,-22426,30906,1.0
2517,-22702,30586,1.0
2552,-23094,30424,1.0
0,0,0,0.0
0,0,0,0.0
0,0,0,0.0
2682,-24514,29560,1.0
2710,-24812,29272,1.0
2733,-25044,28908,1.0
2756,-25272,28544,1.0
2783,-25530,28218,1.0
2818,-25857,27965,1.0
2853,-26180,27709,1.0
2883,-26443,27391,1.0
2921,-26773,27142,1.0
2956,-27063,26850,1.0
2992,-27354,26561,1.0
3029,-27653,26277,1.0
3072,-27992,26032,1.0
1973,-17945,16331,0.0
1969,-17872,15916,0.0
1967,-17809,15518,0.0
1962,-17723,15112,0.0
1959,-17640,14715,0.0
1974,-17717,14459,0.0
1967,-17610,14058,0.0
1971,-17582,13729,0.0
1979,-17586,13428,0.0
2018,-17865,13340,0.0
2060,-18165,13262,0.0
2102,-18454,13170,0.0
2150,-18803,13117,0.0
2198,-19138,13047,0.0
2248,-19486,12979,0.0
2295,-19807,12887,0.0
2348,-20163,12812,0.0
2400,-20512,12726,0.0
15,-138,83,0.0
17,-146,86,0.0
18,-162,93,0.0
18,-151,85,0.0
20,-169,93,0.0
21,-178,95,0.0
19,-169,87,0.0
23,-191,96,0.0
27,-217,107,0.0
27,-223,106,0.0
28,-225,105,0.0
28,-228,103,0.0
30,-245,107,0.0
31,-250,107,0.0
31,-249,103,0.0
33,-266,107,0.0
34,-271,106,0.0
40,-306,115,0.0
42,-325,118,0.0
42,-325,114,0.0
44,-333,114,0.0
44,-333,109,0.0
43,-328,104,0.0
-3260,13726,12576,0.0
-3326,13676,12801,0.0
-3401,13649,13053,0.0
-3466,13582,13271,0.0
-3539,13542,13520,0.0
-3612,13493,13764,0.0
-3686,13440,14009,0.0
-3760,13385,14256,0.0
-3835,13328,14506,0.0
-3910,13266,14756,0.0
-3986,13206,15012,0.0
-4066,13148,15278,0.0
-4147,13090,15549,0.0
-4226,13019,15810,0.0
-4295,12910,16031,0.0
-4349,12755,16196,0.0
-4361,12481,16209,0.0
-4368,12194,16200,0.0
-4408,12005,16316,0.0
-4748,12610,17537,0.0
-4848,12556,17871,0.0
-4948,12490,18200,0.0
-5030,12376,18464,0.0
-5127,12290,18779,0.0
-5021,11724,18353,0.0
-5125,11658,18700,0.0
-5168,11447,18819,0.0
-5577,12023,20267,0.0
-5694,11943,20650,0.0
-5811,11857,21032,0.0
-5911,11726,21350,0.0
-6635,12794,23920,0.0
-6632,12426,23865,0.0
-6624,12053,23790,0.0
-6422,11342,23017,0.0
-6618,11340,23675,0.0
-6397,10628,22838,0.0
-6563,10568,23386,0.0
-6601,10297,23482,0.0
-9173,13850,32565,0.0
-9140,13347,32384,0.0
-9141,12902,32325,0.0
-9145,12466,32277,0.0
-8471,11145,29846,0.0
-8423,10683,29617,0.0
-8519,10407,29897,0.0
-8394,9866,29402,0.0
-8595,9708,30048,0.0
-8895,9645,31041,0.0
-9077,9435,31613,0.0
-9067,9021,31517,0.0
-9063,8618,31445,0.0
-5471,4964,18948,0.0
-5469,4726,18904,0.0
-5469,4491,18867,0.0
-5458,4251,18796,0.0
-5451,4015,18732,0.0
-5448,3786,18688,0.0
-5442,3555,18632,0.0
-5435,3326,18571,0.0
-5429,3101,18513,0.0
-5431,2881,18484,0.0
-5423,2658,18421,0.0
-5416,2437,18363,0.0
-5411,2220,18310,0.0
-5400,2001,18236,0.0
-5411,1792,18234,0.0
-5401,1577,18167,0.0
-5394,1366,18106,0.0
-5400,1158,18089,0.0
-5384,947,18000,0.0
-5382,740,17955,0.0
-5359,533,17840,0.0
-5355,329,17791,0.0
-5360,126,17772,0.0
-5356,-74,17720,0.0
-5370,-277,17733,0.0
-5372,-477,17699,0.0
-5359,-677,17623,0.0
-5363,-876,17598,0.0
-5354,-1073,17526,0.0
-5357,-1271,17497,0.0
-5347,-1466,17432,0.0
-5349,-1663,17397,0.0
-5345,-1858,17347,0.0
-5331,-2048,17262,0.0
-5334,-2245,17234,0.0
-5379,-2460,17341,0.0
-5642,-2786,18143,0.0
-6352,-3367,20380,0.0
-6488,-3675,20766,0.0
-6489,-3911,20721,0.0
-6485,-4144,20661,0.0
-6501,-4391,20664,0.0
-9815,-6984,31118,1.0
-9806,-7334,31018,1.0
-9806,-7690,30939,1.0
-9796,-8037,30834,1.0
-9773,-8372,30685,1.0
-9802,-8754,30698,1.0
-9799,-9108,30611,1.0
-9803,-9468,30544,1.0
-9801,-9824,30460,1.0
-9801,-10181,30376,1.0
-9826,-10567,30375,1.0
-9812,-10911,30250,1.0
-9813,-11273,30170,1.0
-9801,-11620,30052,1.0
-9806,-11988,29984,1.0
-9815,-12362,29925,1.0
-9821,-12735,29863,1.0
-9817,-13094,29762,1.0
-9809,-13451,29652,1.0
-9816,-13829,29587,1.0
-9816,-14197,29496,1.0
-9797,-14541,29352,1.0
-9822,-14949,29336,1.0
-9829,-15335,29267,1.0
-9833,-15718,29187,1.0
-9818,-16071,29047,1.0
-9843,-16493,29030,1.0
-9821,-16837,28868,1.0
-9842,-17258,28835,1.0
-9854,-17665,28771,1.0
-9835,-18020,28617,1.0
-9843,-18427,28542,1.0
-9860,-18852,28488,1.0
-9849,-19228,28356,1.0
-9866,-19662,28302,1.0
-9849,-20029,28148,1.0
-9845,-20425,28029,1.0
-9858,-20860,27958,1.0
-9855,-21265,27840,1.0
-9884,-21745,27813,1.0
-9861,-22113,27637,1.0
-9852,-22514,27499,1.0
-9860,-22957,27405,1.0
-9872,-23416,27323,1.0
-9876,-23856,27213,1.0
-9851,-24232,27024,1.0
-9823,-24605,26827,1.0
-9772,-24920,26567,1.0
-9714,-25214,26284,1.0
-6550,-17305,17640,0.0
-6577,-17685,17628,0.0
-6567,-17966,17511,0.0
-6556,-18249,17395,0.0
-6344,-17965,16745,0.0
-6185,-17817,16239,0.0
-6075,-17797,15862,0.0
-5947,-17721,15443,0.0
-5817,-17631,15023,0.0
-28,-87,73,0.0
-28,-88,72,0.0
-5520,-17588,14001,0.0
-25,-86,67,0.0
-23,-77,59,0.0
-25,-86,64,0.0
-5448,-18550,13468,0.0
-27,-94,66,0.0
-5467,-19235,13328,0.0
-29,-107,72,0.0
-5481,-19930,13168,0.0
-5491,-20297,13091,0.0
-5501,-20669,13011,0.0
-5505,-21026,12917,0.0
-5514,-21412,12832,0.0
-5527,-21816,12750,0.0
-5533,-22204,12652,0.0
-30,-127,71,0.0
-36,-153,82,0.0
-38,-163,86,0.0
-34,-149,76,0.0
-39,-176,88,0.0
-46,-208,101,0.0
-40,-182,86,0.0
-43,-202,92,0.0
-43,-202,90,0.0
-47,-226,98,0.0
-50,-242,102,0.0
-51,-253,103,0.0
-54,-273,108,0.0
-58,-303,116,0.0
-63,-330,122,0.0
-64,-342,122,0.0
-64,-346,120,0.0
-62,-341,113,0.0
-60,-339,109,0.0
-61,-350,109,0.0
-58,-343,102,0.0
-57,-339,97,0.0
-56,-342,94,0.0
-2164,13013,12215,0.0
-2111,12338,11832,0.0
-2140,12163,11915,0.0
-2442,13501,13512,0.0
-2540,13657,13964,0.0
-2633,13776,14390,0.0
-2644,13457,14363,0.0
-2698,13361,14572,0.0
-4112,19814,22082,0.0
-2848,13353,15207,0.0
-2879,13137,15290,0.0
-2946,13086,15569,0.0
-3012,13023,15837,0.0
-3078,12955,16106,0.0
-3150,12899,16399,0.0
-3210,12793,16631,0.0
-3288,12753,16956,0.0
-3271,12346,16790,0.0
-3375,12396,17248,0.0
-3377,12069,17184,0.0
-3396,11804,17202,0.0
-3668,12402,18502,0.0
-3757,12352,18869,0.0
-3837,12269,19196,0.0
-3893,12104,19402,0.0
-3980,12027,19756,0.0
-3933,11549,19446,0.0
-4023,11477,19817,0.0
-4062,11254,19931,0.0
-4376,11774,21396,0.0
-4473,11680,21788,0.0
-4576,11596,22215,0.0
-4681,11504,22643,0.0
-4779,11388,23037,0.0
-4894,11301,23507,0.0
-5006,11199,23970,0.0
-5115,11079,24409,0.0
-5233,10969,24891,0.0
-5239,10620,24840,0.0
-5239,10264,24761,0.0
-5623,10641,26493,0.0
-5755,10510,27028,0.0
-5896,10387,27610,0.0
-6013,10207,28071,0.0
-6116,9995,28464,0.0
-6234,9801,28935,0.0
-6351,9594,29391,0.0
-6687,9695,30856,0.0
-6783,9426,31209,0.0
-6890,9166,31611,0.0
-6909,8786,31608,0.0
-4136,5021,18871,0.0
-4150,4799,18882,0.0
-4142,4556,18796,0.0
-4150,4331,18779,0.0
-4145,4096,18708,0.0
-4150,3872,18680,0.0
-4140,3638,18587,0.0
-4141,3415,18546,0.0
-4142,3194,18496,0.0
-4137,2972,18433,0.0
-4145,2760,18418,0.0
-4139,2540,18346,0.0
-4138,2325,18294,0.0
-4140,2113,18258,0.0
-4138,1902,18201,0.0
-4142,1694,18175,0.0
-4136,1484,18105,0.0
-4137,1277,18065,0.0
-4127,1070,17979,0.0
-4131,867,17953,0.0
-4129,664,17903,0.0
-4130,463,17867,0.0
-4133,263,17831,0.0
-4132,63,17785,0.0
-4122,-135,17706,0.0
-4127,-332,17682,0.0
-4129,-529,17646,0.0
-4118,-724,17562,0.0
-4117,-919,17519,0.0
-4121,-1114,17495,0.0
-4113,-1305,17417,0.0
-4100,-1493,17321,0.0
-4116,-1692,17348,0.0
-4112,-1882,17295,0.0
-4112,-2073,17255,0.0
-4112,-2265,17212,0.0
-4181,-2497,17462,0.0
-4351,-2800,18126,0.0
-8115,-5600,33740,1.0
0,0,0,0.0
-8165,-6389,33790,1.0
-8238,-6827,34012,1.0
0,0,0,0.0
-8241,-7592,33869,1.0
0,0,0,0.0
-8284,-8399,33889,1.0
-8282,-8779,33801,1.0
-8251,-9130,33599,1.0
0,0,0,0.0
-8242,-9887,33406,1.0
0,0,0,0.0
0,0,0,0.0
0,0,0,0.0
0,0,0,0.0
0,0,0,0.0
-8228,-12188,32879,1.0
-8282,-12662,33020,1.0
-8219,-12956,32685,1.0
-8223,-13355,32622,1.0
-8229,-13761,32569,1.0
0,0,0,0.0
0,0,0,0.0
0,0,0,0.0
0,0,0,0.0
0,0,0,0.0
-8281,-16274,32290,1.0
-8253,-16630,32100,1.0
0,0,0,0.0
-8301,-17563,32123,1.0
-8338,-18064,32181,1.0
0,0,0,0.0
0,0,0,0.0
0,0,0,0.0
0,0,0,0.0
0,0,0,0.0
-8249,-20453,31331,1.0
0,0,0,0.0
-8169,-21138,30857,1.0
-8093,-21385,30483,1.0
-8007,-21598,30071,1.0
-7944,-21875,29753,1.0
-7896,-22187,29484,1.0
-7853,-22512,29236,1.0
-7795,-22797,28935,1.0
-7735,-23073,28627,1.0
-7690,-23392,28374,1.0
-7623,-23646,28041,1.0
-7589,-23997,27826,1.0
-7537,-24293,27546,1.0
-7488,-24597,27277,1.0
-7434,-24889,26993,1.0
-7383,-25189,26719,1.0
-7340,-25514,26470,1.0
-7286,-25806,26189,1.0
-17,-60,59,0.0
-21,-73,71,0.0
-23,-86,81,0.0
-25,-96,90,0.0
-26,-103,93,0.0
-24,-95,85,0.0
-23,-95,82,0.0
-26,-108,92,0.0
-19,-83,69,0.0
-21,-89,72,0.0
-23,-99,79,0.0
-23,-104,81,0.0
-26,-116,88,0.0
-22,-100,75,0.0
-26,-120,87,0.0
-25,-120,85,0.0
-23,-112,78,0.0
-3961,-19521,13208,0.0
-3960,-19874,13133,0.0
-3954,-20220,13046,0.0
-23,-122,76,0.0
-25,-134,81,0.0
-25,-134,80,0.0
-24,-131,76,0.0
-30,-166,94,0.0
-28,-161,89,0.0
-28,-164,89,0.0
-30,-177,93,0.0
-29,-172,88,0.0
-29,-180,90,0.0
-31,-191,93,0.0
-32,-212,100,0.0
-33,-217,100,0.0
-34,-231,103,0.0
-34,-233,101,0.0
-37,-258,108,0.0
-35,-252,103,0.0
-36,-267,105,0.0
-40,-294,112,0.0
-43,-334,124,0.0
-43,-338,122,0.0
-43,-345,120,0.0
-42,-339,113,0.0
-42,-342,111,0.0
-41,-345,107,0.0
-39,-339,101,0.0
-39,-343,99,0.0
-765,13507,13025,0.0
-803,13427,13225,0.0
-837,13287,13371,0.0
0,0,0,0.0
-2125,30501,32033,0.0
-2188,29946,32130,0.0
-2200,28730,31493,0.0
-2290,28587,32019,0.0
-2363,28215,32291,0.0
-1047,11968,13997,0.0
-1082,11846,14159,0.0
-1108,11643,14224,0.0
-2455,24746,30904,0.0
-2542,24606,31416,0.0
-2546,23690,30925,0.0
-2558,22878,30541,0.0
-2609,22448,30649,0.0
-2644,21901,30588,0.0
-1620,12919,18461,0.0
-1661,12755,18651,0.0
-2779,20561,30776,0.0
-1691,12052,18469,0.0
-1823,12528,19658,0.0
-2803,18569,29844,0.0
-1862,11888,19575,0.0
-1995,12285,20731,0.0
-2020,11993,20748,0.0
-2036,11657,20683,0.0
-2974,16421,29887,0.0
-3015,16055,29989,0.0
-3080,15817,30331,0.0
-3387,16771,33029,0.0
-3417,16307,33001,0.0
-3435,15802,32872,0.0
-3458,15327,32795,0.0
-2792,11923,26252,0.0
-2998,12325,27941,0.0
-2944,11651,27212,0.0
-2955,11255,27099,0.0
-2958,10837,26916,0.0
-2990,10528,26994,0.0
-3026,10235,27114,0.0
-3055,9922,27181,0.0
-3024,9424,26719,0.0
-3036,9067,26627,0.0
-3018,8634,26296,0.0
-3065,8392,26531,0.0
-3317,8684,28537,0.0
-3703,9258,31660,0.0
-3705,8832,31477,0.0
-2229,5062,18829,0.0
-2239,4834,18800,0.0
-2250,4612,18786,0.0
-2255,4380,18725,0.0
-2261,4152,18669,0.0
-2267,3929,18625,0.0
-2273,3707,18579,0.0
-2275,3482,18500,0.0
-2280,3264,18458,0.0
-2290,3054,18446,0.0
-2293,2837,18381,0.0
-2294,2620,18305,0.0
-2299,2411,18263,0.0
-2304,2203,18226,0.0
-2312,1999,18209,0.0
-2310,1788,18117,0.0
-2313,1582,18064,0.0
-2316,1380,18023,0.0
-2322,1179,17994,0.0
-2325,979,17948,0.0
-2324,778,17874,0.0
-2327,581,17830,0.0
-2328,384,17777,0.0
-2332,188,17743,0.0
-2336,-6,17716,0.0
-2336,-199,17660,0.0
-2332,-392,17568,0.0
-2338,-584,17557,0.0
-2341,-776,17526,0.0
-2338,-964,17455,0.0
-2340,-1154,17414,0.0
-2337,-1341,17344,0.0
-2341,-1531,17321,0.0
-2342,-1718,17275,0.0
-2344,-1907,17246,0.0
-2346,-2096,17218,0.0
-2341,-2278,17141,0.0
-2397,-2523,17509,0.0
-2483,-2810,18088,0.0
0,0,0,0.0
0,0,0,0.0
-4714,-6455,34106,1.0
0,0,0,0.0
-4725,-7220,34034,1.0
-4714,-7578,33886,1.0
-4728,-7975,33911,1.0
-4724,-8348,33823,1.0
0,0,0,0.0
0,0,0,0.0
-4737,-9512,33725,1.0
-4755,-9934,33794,1.0
0,0,0,0.0
-4759,-10722,33718,1.0
0,0,0,0.0
0,0,0,0.0
0,0,0,0.0
-4730,-12227,33311,1.0
0,0,0,0.0
-4727,-13020,33198,1.0
-4694,-13335,32933,1.0
-4712,-13792,33017,1.0
0,0,0,0.0
-4702,-14589,32877,1.0
0,0,0,0.0
0,0,0,0.0
-4699,-15848,32761,1.0
-4667,-16172,32517,1.0
-4663,-16589,32460,1.0
-4644,-16956,32300,1.0
-4610,-17276,32051,1.0
-4615,-17740,32065,1.0
-4617,-18199,32060,1.0
0,0,0,0.0
0,0,0,0.0
-4569,-19393,31693,1.0
-4552,-19791,31562,1.0
-4553,-20281,31569,1.0
0,0,0,0.0
-4542,-21214,31485,1.0
0,0,0,0.0
-4452,-21790,30861,1.0
-4410,-22100,30584,1.0
-4359,-22354,30235,1.0
-4308,-22607,29888,1.0
-4252,-22842,29522,1.0
-4206,-23115,29210,1.0
-4161,-23401,28918,1.0
-4117,-23689,28628,1.0
-4081,-24032,28406,1.0
-4037,-24324,28123,1.0
-3992,-24612,27836,1.0
-3948,-24907,27557,1.0
-3906,-25212,27291,1.0
-3859,-25500,27007,1.0
-3813,-25783,26716,1.0
-3768,-26084,26444,1.0
-10,-72,72,0.0
-9,-70,68,0.0
-12,-83,79,0.0
-11,-88,81,0.0
-10,-77,70,0.0
-11,-87,76,0.0
-12,-104,90,0.0
-12,-101,86,0.0
-13,-113,94,0.0
-12,-104,85,0.0
-14,-126,100,0.0
-13,-116,90,0.0
-13,-123,93,0.0
-13,-130,97,0.0
-12,-123,89,0.0
-12,-120,85,0.0
-10,-108,75,0.0
-1779,-19388,13171,0.0
-1758,-19712,13081,0.0
-11,-132,85,0.0
-1719,-20428,12928,0.0
-12,-145,89,0.0
-12,-155,93,0.0
-12,-158,92,0.0
-13,-171,98,0.0
-12,-175,98,0.0
-12,-173,94,0.0
-13,-191,101,0.0
-13,-208,107,0.0
-12,-199,100,0.0
-13,-221,108,0.0
-13,-230,110,0.0
-13,-234,109,0.0
-13,-246,111,0.0
-13,-249,109,0.0
-13,-272,115,0.0
-13,-265,110,0.0
-12,-272,109,0.0
-12,-287,112,0.0
-13,-318,120,0.0
-13,-337,122,0.0
-12,-333,117,0.0
-11,-340,115,0.0
-11,-351,115,0.0
-10,-346,109,0.0
-10,-350,106,0.0
847,15168,14868,0.0
804,14798,14815,0.0
759,14373,14700,0.0
720,14028,14656,0.0
678,13637,14555,0.0
641,13294,14496,0.0
603,12947,14424,0.0
571,12714,14473,0.0
533,12299,14306,0.0
501,12023,14292,0.0
465,11651,14154,0.0
431,11248,13967,0.0
387,10602,13457,0.0
368,10559,13703,0.0
345,10465,13886,0.0
326,10434,14159,0.0
302,10287,14277,0.0
386,14019,19904,0.0
355,13811,20063,0.0
324,13614,20240,0.0
292,13404,20399,0.0
261,13191,20551,0.0
231,12989,20723,0.0
200,12767,20866,0.0
157,11604,19433,0.0
131,11520,19771,0.0
125,13714,24130,0.0
92,13358,24106,0.0
51,11272,20870,0.0
26,12716,24162,0.0
-4,12469,24325,0.0
-35,12234,24515,0.0
-88,15958,32861,0.0
-127,15454,32718,0.0
-131,11848,25801,0.0
-161,11511,25799,0.0
-189,11123,25670,0.0
-220,10924,25979,0.0
-248,10618,26034,0.0
-272,10161,25706,0.0
-299,9874,25791,0.0
-326,9581,25861,0.0
-358,9455,26395,0.0
-386,9201,26590,0.0
-395,8538,25564,0.0
-428,8422,26155,0.0
-527,9477,30560,0.0
-567,9342,31323,0.0
-597,9034,31531,0.0
-369,5138,18696,0.0
-384,4915,18674,0.0
-397,4686,18623,0.0
-411,4468,18602,0.0
-421,4222,18455,0.0
-433,4007,18433,0.0
-447,3799,18436,0.0
-457,3574,18351,0.0
-467,3353,18266,0.0
-478,3149,18263,0.0
-489,2942,18244,0.0
-499,2732,18190,0.0
-507,2518,18097,0.0
-515,2313,18052,0.0
-523,2107,17995,0.0
-532,1909,17984,0.0
-540,1705,17919,0.0
-547,1507,17887,0.0
-555,1309,17843,0.0
-561,1112,17790,0.0
-567,915,17736,0.0
-573,720,17667,0.0
-579,528,17654,0.0
-585,336,17631,0.0
-591,145,17599,0.0
-595,-45,17528,0.0
-599,-234,17474,0.0
-603,-423,17424,0.0
-607,-610,17381,0.0
-610,-797,17336,0.0
-613,-983,17306,0.0
-617,-1170,17274,0.0
-619,-1352,17196,0.0
-622,-1537,17181,0.0
-624,-1722,17144,0.0
-625,-1902,17071,0.0
-628,-2087,17052,0.0
-627,-2264,16968,0.0
-592,-2305,15956,0.0
-673,-2812,18074,0.0
-1280,-5716,34292,1.0
-1281,-6080,34190,1.0
-1283,-6463,34193,1.0
