//X,Y,Z,Classification
-17147,29371,32005,0.0
-17072,28638,31913,0.0
-17129,28137,32068,0.0
-17125,27538,32103,0.0
-16542,26038,31050,0.0
-16579,25536,31156,0.0
-16608,25027,31246,0.0
-16427,24213,30938,0.0
-16617,23951,31327,0.0
-16652,23465,31423,0.0
-16811,23153,31750,0.0
0,0,0,0.0
-16084,21141,30423,0.0
-15971,20500,30231,0.0
-15911,19935,30135,0.0
-16097,19681,30504,0.0
-15911,18975,30166,0.0
-16306,18961,30928,0.0
-16327,18504,30981,0.0
-17816,19672,33816,0.0
-17716,19050,33637,0.0
-17654,18477,33526,0.0
-17519,17837,33275,0.0
-17592,17415,33417,0.0
-17519,16853,33279,0.0
-17410,16264,33072,0.0
-17388,15766,33029,0.0
0,0,0,0.0
0,0,0,0.0
-17212,14207,32680,0.0
-17147,13696,32549,0.0
0,0,0,0.0
0,0,0,0.0
0,0,0,0.0
-16934,11752,32098,0.0
0,0,0,0.0
-16486,10594,31215,0.0
-16559,10219,31337,0.0
-16649,9854,31487,0.0
-16618,9418,31406,0.0
0,0,0,0.0
-17162,8872,32386,0.0
-17476,8604,32953,0.0
-13624,6374,25668,0.0
-13584,6023,25569,0.0
-13566,5686,25512,0.0
-13545,5350,25446,0.0
-13504,5010,25344,0.0
-13482,4679,25273,0.0
-13459,4351,25202,0.0
-13467,4035,25188,0.0
-13445,3711,25114,0.0
-13393,3384,24988,0.0
-13359,3062,24890,0.0
-13370,2754,24876,0.0
-13337,2438,24781,0.0
-13341,2132,24752,0.0
-13315,1821,24668,0.0
-13298,1514,24598,0.0
-13257,1207,24484,0.0
-13243,905,24417,0.0
-13253,606,24395,0.0
-13214,306,24281,0.0
-13205,8,24221,0.0
-13209,-288,24186,0.0
-13171,-582,24070,0.0
-13181,-876,24042,0.0
-13611,-1208,24779,0.0
-14002,-1554,25439,0.0
-14583,-1941,26439,2.0
-14689,-2281,26574,2.0
-14848,-2633,26805,2.0
-15022,-2995,27058,2.0
-15110,-3344,27155,2.0
-15158,-3687,27179,2.0
-15207,-4032,27202,2.0
-15263,-4381,27236,2.0
-15312,-4730,27257,2.0
-15318,-5065,27198,2.0
-15338,-5406,27163,2.0
-15355,-5747,27122,2.0
-15379,-6090,27092,2.0
-15353,-6413,26971,2.0
-15417,-6775,27010,2.0
-15473,-7134,27029,2.0
-15468,-7468,26942,2.0
-15628,-7884,27139,2.0
-15628,-8223,27058,2.0
-15621,-8557,26960,2.0
-15676,-8927,26970,2.0
-15693,-9278,26913,2.0
-15644,-9588,26741,2.0
-15660,-9937,26678,2.0
-15604,-10241,26492,2.0
-15590,-10571,26377,2.0
-15621,-10931,26335,2.0
-15639,-11283,26269,2.0
-15617,-11607,26136,2.0
-15666,-11985,26118,2.0
-15715,-12365,26098,2.0
-15638,-12647,25869,2.0
-15740,-13075,25934,2.0
-15653,-13344,25684,2.0
-15621,-13660,25525,2.0
-15544,-13935,25291,2.0
-15529,-14264,25160,2.0
-15466,-14549,24947,2.0
-15466,-14890,24833,2.0
-15405,-15173,24621,2.0
-15325,-15436,24379,2.0
-15271,-15722,24176,2.0
-15256,-16047,24034,2.0
-15205,-16335,23835,2.0
-15102,-16563,23553,2.0
-14698,-16452,22805,2.0
-14279,-16305,22035,0.0
-14110,-16434,21657,0.0
-13692,-16258,20900,0.0
-13587,-16445,20623,0.0
-13575,-16743,20487,0.0
-13650,-17149,20477,0.0
-13676,-17500,20394,0.0
-13729,-17886,20347,0.0
-13759,-18246,20263,0.0
-13775,-18591,20156,0.0
-13841,-19005,20120,0.0
-13865,-19366,20019,0.0
-13915,-19767,19954,0.0
-13943,-20139,19854,0.0
-13982,-20533,19767,0.0
-14037,-20952,19699,0.0
-14062,-21331,19586,0.0
-14130,-21780,19529,0.0
-14176,-22199,19438,0.0
-14224,-22626,19348,0.0
-14254,-23028,19229,0.0
-14310,-23477,19141,0.0
0,0,0,0.0
0,0,0,0.0
0,0,0,0.0
0,0,0,0.0
0,0,0,0.0
0,0,0,0.0
0,0,0,0.0
0,0,0,0.0
0,0,0,0.0
0,0,0,0.0
0,0,0,0.0
0,0,0,0.0
0,0,0,0.0
0,0,0,0.0
0,0,0,0.0
0,0,0,0.0
0,0,0,0.0
0,0,0,0.0
0,0,0,0.0
0,0,0,0.0
0,0,0,0.0
-959,-2151,991,0.0
0,0,0,0.0
-83,-191,83,0.0
-89,-210,88,0.0
-90,-214,87,0.0
-102,-247,97,0.0
-110,-269,102,0.0
-133,-331,122,0.0
-139,-349,124,0.0
-141,-358,123,0.0
-135,-347,115,0.0
-131,-339,109,0.0
-127,-337,104,0.0
-129,-345,102,0.0
-129,-348,98,0.0
-122,-336,91,0.0
-126,-348,91,0.0
-122,-346,86,0.0
-122,-348,83,0.0
-121,-352,79,0.0
-120,-352,75,0.0
-20557,46699,38511,0.0
-20671,46060,38824,0.0
-20573,44962,38736,0.0
0,0,0,0.0
0,0,0,0.0
0,0,0,0.0
0,0,0,0.0
0,0,0,0.0
0,0,0,0.0
-17109,32541,32684,0.0
-17186,32029,32887,0.0
-16947,30944,32482,0.0
-16731,29925,32117,0.0
-16627,29127,31966,0.0
-16562,28409,31883,0.0
-16537,27774,31878,0.0
-16563,27230,31967,0.0
-16100,25904,31110,0.0
-16169,25455,31277,0.0
-16112,24813,31197,0.0
-15825,23838,30673,0.0
-16056,23648,31149,0.0
-15905,22898,30880,0.0
-15651,22021,30411,0.0
-15699,21580,30526,0.0
-15660,21024,30469,0.0
-15505,20325,30185,0.0
-15753,20154,30682,0.0
-15691,19588,30578,0.0
-15851,19299,30900,0.0
-15838,18801,30887,0.0
-15857,18345,30934,0.0
-17272,19466,33702,0.0
-17183,18854,33534,0.0
-17107,18269,33391,0.0
-17087,17750,33355,0.0
-17013,17181,33211,0.0
-17028,16709,33240,0.0
-16911,16113,33009,0.0
-16863,15594,32913,0.0
-16870,15129,32920,0.0
0,0,0,0.0
0,0,0,0.0
0,0,0,0.0
0,0,0,0.0
0,0,0,0.0
0,0,0,0.0
-16486,11655,32091,0.0
-16416,11173,31937,0.0
0,0,0,0.0
-16316,10254,31705,0.0
0,0,0,0.0
0,0,0,0.0
-16348,9015,31699,0.0
-16725,8798,32404,0.0
-17197,8613,33290,0.0
-13255,6307,25637,0.0
-13230,5965,25565,0.0
-13224,5634,25527,0.0
-13179,5290,25414,0.0
-13169,4962,25368,0.0
-13144,4632,25292,0.0
-13109,4302,25196,0.0
-13093,3979,25132,0.0
-13074,3660,25068,0.0
-13045,3338,24978,0.0
-13023,3022,24904,0.0
-13017,2711,24857,0.0
-12981,2397,24754,0.0
-12985,2092,24726,0.0
-12974,1786,24666,0.0
-12958,1480,24597,0.0
-12929,1176,24503,0.0
-12923,876,24451,0.0
-12902,575,24370,0.0
-12874,277,24275,0.0
-12882,-18,24246,0.0
-12848,-312,24138,0.0
-12824,-604,24050,0.0
-12811,-897,23979,0.0
-13328,-1236,24897,0.0
-13703,-1581,25545,0.0
-14347,-1980,26690,2.0
-14464,-2323,26854,2.0
-14501,-2655,26864,2.0
0,0,0,0.0
-14800,-3375,27295,2.0
-14804,-3708,27240,2.0
-14873,-4058,27301,2.0
-14840,-4380,27176,2.0
-14848,-4713,27124,2.0
-14951,-5079,27243,2.0
-15017,-5436,27294,2.0
-15033,-5775,27250,2.0
-15165,-6164,27417,2.0
-15153,-6495,27320,2.0
-15127,-6819,27199,2.0
-15162,-7170,27182,2.0
-15207,-7528,27185,2.0
-15221,-7872,27130,2.0
-15315,-8260,27214,2.0
-15356,-8621,27203,2.0
-15333,-8949,27078,2.0
-15329,-9286,26985,2.0
-15343,-9634,26922,2.0
-15373,-9993,26884,2.0
-15323,-10301,26706,2.0
-15319,-10638,26608,2.0
-15327,-10984,26526,2.0
-15343,-11337,26461,2.0
-15407,-11727,26473,2.0
-15426,-12084,26407,2.0
-15451,-12448,26347,2.0
-15400,-12751,26159,2.0
-15381,-13080,26025,2.0
-15404,-13445,25958,2.0
-15354,-13746,25767,2.0
-15259,-14003,25500,2.0
-15248,-14339,25374,2.0
-15086,-14526,24994,2.0
-15098,-14880,24904,2.0
-15047,-15170,24705,2.0
-15049,-15515,24594,2.0
0,0,0,0.0
-14920,-16064,24152,2.0
-14899,-16383,23999,2.0
-14801,-16616,23722,2.0
-14435,-16537,23016,2.0
-13982,-16343,22178,0.0
-13781,-16427,21741,0.0
-13450,-16348,21105,0.0
-13243,-16406,20663,0.0
-13149,-16599,20401,0.0
-13261,-17053,20455,0.0
-13313,-17436,20414,0.0
-13349,-17800,20345,0.0
-13374,-18154,20257,0.0
-13418,-18537,20196,0.0
-13446,-18900,20107,0.0
-13478,-19271,20021,0.0
-13521,-19663,19950,0.0
-13558,-20049,19867,0.0
-13615,-20469,19810,0.0
-13680,-20906,19760,0.0
-13683,-21251,19618,0.0
-13743,-21688,19555,0.0
-13786,-22103,19464,0.0
-13826,-22519,19367,0.0
-13880,-22962,19285,0.0
-13925,-23393,19185,0.0
-13789,-23521,18836,0.0
0,0,0,0.0
0,0,0,0.0
0,0,0,0.0
0,0,0,0.0
-954,-1756,1246,0.0
0,0,0,0.0
0,0,0,0.0
0,0,0,0.0
0,0,0,0.0
0,0,0,0.0
0,0,0,0.0
0,0,0,0.0
0,0,0,0.0
0,0,0,0.0
0,0,0,0.0
0,0,0,0.0
0,0,0,0.0
0,0,0,0.0
0,0,0,0.0
0,0,0,0.0
0,0,0,0.0
-907,-2115,955,0.0
-82,-195,85,0.0
-78,-189,80,0.0
-81,-198,81,0.0
-89,-220,88,0.0
-105,-263,101,0.0
-129,-327,122,0.0
-138,-354,128,0.0
-133,-348,121,0.0
-132,-349,117,0.0
-128,-344,111,0.0
-126,-342,106,0.0
-125,-344,102,0.0
-125,-350,100,0.0
-121,-342,94,0.0
-122,-346,91,0.0
-120,-349,88,0.0
-118,-346,84,0.0
-117,-346,80,0.0
-115,-347,76,0.0
-19935,46424,38562,0.0
-20068,45835,38913,0.0
0,0,0,0.0
0,0,0,0.0
0,0,0,0.0
0,0,0,0.0
0,0,0,0.0
0,0,0,0.0
0,0,0,0.0
0,0,0,0.0
-16445,31374,32440,0.0
-16593,31010,32780,0.0
-16097,29467,31847,0.0
-16137,28928,31967,0.0
-16006,28093,31746,0.0
0,0,0,0.0
-16198,27242,32203,0.0
-15635,25732,31116,0.0
-15677,25241,31229,0.0
-15625,24608,31154,0.0
-15821,24367,31571,0.0
-15621,23521,31197,0.0
-15758,23193,31493,0.0
-15204,21867,30406,0.0
0,0,0,0.0
-15211,20869,30454,0.0
-15253,20431,30554,0.0
-15112,19756,30286,0.0
-15280,19488,30633,0.0
-15320,19055,30722,0.0
-15457,18742,31005,0.0
-15488,18299,31074,0.0
-16796,19330,33704,0.0
-16742,18757,33598,0.0
-16651,18154,33417,0.0
-16599,17602,33314,0.0
-16567,17079,33249,0.0
-16490,16516,33092,0.0
-16461,16008,33030,0.0
0,0,0,0.0
0,0,0,0.0
-16310,14460,32704,0.0
-16351,14036,32776,0.0
0,0,0,0.0
-16161,12972,32370,0.0
-16104,12484,32243,0.0
0,0,0,0.0
0,0,0,0.0
-15923,11046,31827,0.0
0,0,0,0.0
0,0,0,0.0
0,0,0,0.0
-15787,9277,31468,0.0
0,0,0,0.0
-16387,8776,32610,0.0
0,0,0,0.0
-12898,6244,25619,0.0
-12890,5912,25579,0.0
-12866,5575,25505,0.0
-12836,5238,25419,0.0
-12803,4903,25325,0.0
-12817,4589,25324,0.0
-12742,4246,25147,0.0
-12742,3931,25116,0.0
-12739,3617,25077,0.0
-12687,3291,24943,0.0
-12702,2986,24939,0.0
-12670,2671,24843,0.0
-12649,2360,24764,0.0
-12646,2056,24723,0.0
-12591,1744,24575,0.0
-12614,1446,24581,0.0
-12595,1145,24506,0.0
-12577,845,24429,0.0
-12560,547,24356,0.0
-12527,249,24248,0.0
-12532,-44,24215,0.0
-12515,-337,24138,0.0
-12484,-627,24033,0.0
-12505,-920,24026,0.0
-13026,-1260,24979,0.0
-13391,-1606,25627,0.0
-13965,-1998,26670,2.0
0,0,0,0.0
0,0,0,0.0
-14458,-3066,27434,2.0
-14549,-3419,27544,2.0
0,0,0,0.0
-14553,-4086,27424,2.0
-14632,-4441,27505,2.0
-14553,-4749,27290,2.0
-14664,-5119,27429,2.0
-14747,-5483,27513,2.0
-14847,-5858,27628,2.0
-14851,-6196,27562,2.0
-14833,-6525,27454,2.0
-14935,-6909,27570,2.0
-14914,-7236,27452,2.0
-14912,-7572,27370,2.0
-14920,-7914,27304,2.0
-14901,-8241,27188,2.0
-14993,-8631,27272,2.0
-15024,-8989,27244,2.0
-15016,-9324,27144,2.0
-15052,-9687,27120,2.0
-15057,-10031,27039,2.0
-15064,-10377,26963,2.0
-15011,-10682,26775,2.0
-15019,-11028,26696,2.0
-15043,-11388,26646,2.0
-15061,-11743,26580,2.0
-15116,-12131,26578,2.0
-15141,-12497,26522,2.0
-15130,-12834,26402,2.0
0,0,0,0.0
-15084,-13485,26114,2.0
-15016,-13768,25891,2.0
-14987,-14088,25735,2.0
-14947,-14393,25555,2.0
-14895,-14689,25359,2.0
0,0,0,0.0
-14803,-15285,24979,2.0
-14793,-15619,24849,2.0
-14708,-15872,24589,2.0
-14602,-16099,24296,2.0
-14613,-16455,24197,2.0
-14462,-16627,23830,2.0
-14085,-16526,23091,2.0
-13666,-16359,22289,0.0
-13409,-16370,21754,0.0
-13103,-16309,21142,0.0
-12872,-16330,20656,0.0
-12871,-16639,20539,0.0
-12928,-17025,20512,0.0
-12923,-17333,20385,0.0
-12982,-17728,20355,0.0
-13022,-18103,20293,0.0
-13038,-18447,20193,0.0
-13082,-18832,20132,0.0
-13124,-19221,20066,0.0
-13131,-19557,19942,0.0
-13174,-19955,19873,0.0
-13244,-20395,19839,0.0
-13258,-20753,19718,0.0
-13290,-21144,19623,0.0
-13329,-21549,19535,0.0
-13396,-22005,19484,0.0
-13421,-22394,19367,0.0
-13448,-22792,19251,0.0
-13494,-23227,19160,0.0
-13536,-23658,19057,0.0
0,0,0,0.0
0,0,0,0.0
0,0,0,0.0
0,0,0,0.0
0,0,0,0.0
0,0,0,0.0
0,0,0,0.0
0,0,0,0.0
0,0,0,0.0
0,0,0,0.0
0,0,0,0.0
0,0,0,0.0
0,0,0,0.0
0,0,0,0.0
0,0,0,0.0
0,0,0,0.0
0,0,0,0.0
0,0,0,0.0
-891,-2046,1017,0.0
0,0,0,0.0
-858,-2025,951,0.0
-881,-2108,960,0.0
0,0,0,0.0
-74,-183,78,0.0
-84,-210,86,0.0
-92,-233,93,0.0
-103,-265,103,0.0
-115,-299,112,0.0
-132,-348,127,0.0
-129,-346,121,0.0
-128,-346,117,0.0
-124,-341,111,0.0
-121,-337,107,0.0
-121,-342,104,0.0
-117,-337,98,0.0
-117,-340,95,0.0
-115,-338,90,0.0
-114,-340,87,0.0
-113,-342,84,0.0
-113,-347,81,0.0
-113,-352,78,0.0
-19450,46469,38873,0.0
-19338,45304,38734,0.0
0,0,0,0.0
0,0,0,0.0
0,0,0,0.0
0,0,0,0.0
0,0,0,0.0
-16047,33350,32505,0.0
0,0,0,0.0
-15914,31752,32335,0.0
-16284,31826,33133,0.0
-16113,30845,32829,0.0
-15672,29382,31971,0.0
-15632,28696,31927,0.0
-15647,28121,31994,0.0
-15729,27672,32197,0.0
-15706,27040,32181,0.0
-15187,25584,31146,0.0
-15198,25044,31193,0.0
-15054,24264,30924,0.0
-15159,23890,31163,0.0
-15238,23476,31346,0.0
-15155,22818,31194,0.0
-14800,21771,30479,0.0
0,0,0,0.0
-14641,20544,30181,0.0
-14552,19932,30009,0.0
-14669,19607,30261,0.0
-14605,19043,30136,0.0
-14900,18943,30751,0.0
-15035,18632,31035,0.0
-16359,19754,33773,0.0
-16324,19196,33702,0.0
-16200,18547,33449,0.0
-16216,18063,33481,0.0
-16115,17458,33271,0.0
-16095,16947,33225,0.0
-15996,16362,33017,0.0
-15956,15844,32925,0.0
0,0,0,0.0
0,0,0,0.0
-15890,14381,32762,0.0
0,0,0,0.0
-15693,13300,32328,0.0
-15664,12831,32255,0.0
-15711,12426,32335,0.0
-15564,11874,32015,0.0
-15613,11477,32097,0.0
-15516,10978,31877,0.0
0,0,0,0.0
0,0,0,0.0
0,0,0,0.0
-15392,9218,31527,0.0
-15580,8914,31886,0.0
-15936,8695,32585,0.0
-12549,6515,25634,0.0
-12557,6191,25629,0.0
-12518,5845,25522,0.0
-12493,5509,25443,0.0
-12473,5179,25376,0.0
-12465,4855,25330,0.0
-12431,4524,25232,0.0
-12425,4207,25188,0.0
-12407,3887,25122,0.0
-12381,3568,25035,0.0
-12346,3249,24932,0.0
-12363,2945,24931,0.0
-12325,2630,24819,0.0
-12309,2322,24751,0.0
-12292,2017,24680,0.0
-12291,1715,24640,0.0
-12248,1410,24515,0.0
-12252,1112,24481,0.0
-12231,814,24400,0.0
-12228,518,24351,0.0
-12197,223,24247,0.0
-12225,-69,24258,0.0
-12187,-360,24139,0.0
-12158,-650,24037,0.0
-12162,-940,23997,0.0
-12709,-1284,25028,0.0
-13085,-1631,25717,0.0
-13657,-2025,26786,2.0
-13875,-2384,27155,2.0
-14047,-2744,27431,2.0
-14110,-3088,27495,2.0
-14169,-3432,27547,2.0
-14217,-3777,27578,2.0
-14293,-4131,27661,2.0
-14420,-4504,27840,2.0
-14363,-4821,27662,2.0
0,0,0,0.0
-14498,-5539,27781,2.0
-14501,-5878,27716,2.0
-14547,-6233,27729,2.0
-14665,-6624,27879,2.0
-14656,-6960,27785,2.0
-14686,-7312,27764,2.0
-14645,-7631,27609,2.0
-14669,-7983,27573,2.0
0,0,0,0.0
0,0,0,0.0
-14652,-8991,27293,2.0
-14746,-9389,27381,2.0
-14776,-9751,27351,2.0
-14748,-10074,27210,2.0
-14764,-10426,27147,2.0
-14681,-10709,26903,2.0
-14726,-11085,26895,2.0
-14776,-11464,26889,2.0
-14785,-11816,26811,2.0
-14817,-12188,26772,2.0
-14875,-12582,26775,2.0
-14832,-12893,26597,2.0
-14850,-13256,26527,2.0
-14753,-13514,26249,2.0
-14714,-13825,26076,2.0
-14684,-14142,25915,2.0
-14667,-14473,25778,2.0
-14647,-14799,25633,2.0
-14572,-15069,25392,2.0
-14528,-15370,25204,2.0
-14456,-15637,24965,2.0
-14418,-15941,24786,2.0
-14395,-16261,24630,2.0
-14294,-16492,24342,2.0
-14100,-16608,23894,2.0
-13752,-16531,23187,2.0
-13386,-16416,22456,0.0
-13050,-16323,21778,0.0
-12742,-16249,21152,0.0
-12518,-16271,20668,0.0
-12540,-16610,20590,0.0
-12571,-16963,20525,0.0
-12596,-17311,20448,0.0
-12635,-17681,20390,0.0
-12653,-18025,20299,0.0
-12661,-18355,20186,0.0
-12710,-18748,20136,0.0
-12738,-19117,20052,0.0
-12787,-19518,19999,0.0
-12822,-19904,19920,0.0
-12847,-20274,19821,0.0
-12884,-20670,19740,0.0
-12925,-21075,19661,0.0
-12956,-21469,19565,0.0
-13002,-21890,19485,0.0
-13040,-22303,19394,0.0
-13087,-22738,19311,0.0
-13109,-23131,19188,0.0
-13172,-23602,19121,0.0
-13055,-23750,18791,0.0
0,0,0,0.0
0,0,0,0.0
0,0,0,0.0
0,0,0,0.0
0,0,0,0.0
0,0,0,0.0
-893,-1804,1205,0.0
0,0,0,0.0
-884,-1838,1168,0.0
0,0,0,0.0
0,0,0,0.0
0,0,0,0.0
0,0,0,0.0
0,0,0,0.0
0,0,0,0.0
0,0,0,0.0
0,0,0,0.0
0,0,0,0.0
0,0,0,0.0
0,0,0,0.0
0,0,0,0.0
-867,-2157,963,0.0
-73,-186,80,0.0
-79,-204,86,0.0
-84,-218,89,0.0
-95,-251,99,0.0
-100,-267,102,0.0
-125,-340,125,0.0
-122,-337,120,0.0
-124,-345,118,0.0
-120,-340,113,0.0
-118,-338,108,0.0
-117,-342,105,0.0
-115,-337,99,0.0
-111,-333,94,0.0
-111,-336,91,0.0
-110,-337,88,0.0
-109,-340,84,0.0
-109,-344,81,0.0
-107,-342,77,0.0
-18765,46032,38774,0.0
-18749,45092,38819,0.0
0,0,0,0.0
-18425,42580,38289,0.0
0,0,0,0.0
0,0,0,0.0
-15779,34327,32954,0.0
0,0,0,0.0
0,0,0,0.0
-15631,31977,32782,0.0
-15699,31458,32967,0.0
-15623,30657,32845,0.0
-15210,29226,32013,0.0
-15163,28526,31948,0.0
-15036,27690,31712,0.0
-15159,27322,32002,0.0
-15374,27114,32481,0.0
-14767,25482,31226,0.0
-14772,24931,31257,0.0
-14562,24034,30834,0.0
-14895,24035,31558,0.0
-14832,23394,31442,0.0
-14424,22231,30591,0.0
-14380,21655,30514,0.0
0,0,0,0.0
0,0,0,0.0
-14438,20234,30666,0.0
-14327,19592,30439,0.0
-14173,18904,30115,0.0
-14474,18824,30760,0.0
-14583,18484,30993,0.0
-15802,19513,33586,0.0
-15848,19057,33682,0.0
-15742,18426,33457,0.0
-15738,17922,33444,0.0
-15664,17346,33282,0.0
-15598,16786,33134,0.0
-15567,16273,33063,0.0
-15502,15730,32916,0.0
0,0,0,0.0
0,0,0,0.0
0,0,0,0.0
0,0,0,0.0
-15311,13252,32446,0.0
-15298,12795,32399,0.0
-15182,12259,32136,0.0
-15271,11893,32305,0.0
-15190,11397,32111,0.0
-15086,10892,31870,0.0
0,0,0,0.0
0,0,0,0.0
0,0,0,0.0
-14974,9146,31534,0.0
-15147,8837,31870,0.0
0,0,0,0.0
-12218,6465,25657,0.0
-12193,6125,25580,0.0
-12185,5795,25536,0.0
-12147,5455,25427,0.0
-12142,5133,25389,0.0
-12116,4803,25305,0.0
-12111,4485,25264,0.0
-12085,4161,25178,0.0
-12060,3840,25093,0.0
-12037,3523,25013,0.0
-12036,3215,24977,0.0
-12030,2906,24930,0.0
-12010,2596,24851,0.0
-11988,2289,24769,0.0
-11960,1982,24673,0.0
-11951,1681,24618,0.0
-11927,1379,24528,0.0
-11915,1082,24464,0.0
-11898,785,24385,0.0
-11903,492,24356,0.0
-11897,198,24301,0.0
-11878,-92,24215,0.0
-11867,-383,24150,0.0
-11849,-672,24066,0.0
-11843,-960,24009,0.0
-12354,-1301,24996,0.0
-12753,-1652,25751,0.0
-13340,-2050,26878,2.0
-13515,-2402,27174,2.0
-13665,-2758,27418,2.0
-13804,-3117,27635,2.0
-13819,-3452,27605,2.0
-13911,-3808,27724,2.0
-13991,-4164,27818,2.0
-14084,-4527,27936,2.0
-14153,-4887,28005,2.0
-14189,-5237,28007,2.0
-14189,-5574,27935,2.0
-14211,-5919,27907,2.0
-14242,-6270,27894,2.0
-14286,-6628,27907,2.0
-14314,-6981,27884,2.0
-14384,-7354,27944,2.0
-14470,-7740,28030,2.0
0,0,0,0.0
-14447,-8412,27825,2.0
-14455,-8759,27756,2.0
-14434,-9088,27631,2.0
-14504,-9475,27678,2.0
-14463,-9791,27512,2.0
-14508,-10166,27509,2.0
-14464,-10478,27337,2.0
-14466,-10823,27248,2.0
-14435,-11142,27096,2.0
-14491,-11530,27107,2.0
-14541,-11917,27105,2.0
-14593,-12307,27103,2.0
-14574,-12640,26970,2.0
-14524,-12943,26776,2.0
-14442,-13218,26524,2.0
-14471,-13591,26472,2.0
-14433,-13903,26300,2.0
-14430,-14248,26188,2.0
-14356,-14522,25947,2.0
-14280,-14792,25701,2.0
-14266,-15124,25567,2.0
-14218,-15419,25369,2.0
-14153,-15694,25141,2.0
-14079,-15956,24896,2.0
-14027,-16243,24690,2.0
-13983,-16536,24496,2.0
-13790,-16650,24043,2.0
-13527,-16669,23470,2.0
-13110,-16482,22632,0.0
-12705,-16292,21822,0.0
-12502,-16344,21359,0.0
-12193,-16248,20721,0.0
-12168,-16523,20567,0.0
-12191,-16864,20491,0.0
-12226,-17225,20434,0.0
-12264,-17595,20380,0.0
-12287,-17945,20298,0.0
-12314,-18303,20218,0.0
-12350,-18679,20153,0.0
-12367,-19029,20053,0.0
-12395,-19398,19969,0.0
-12403,-19742,19854,0.0
-12474,-20186,19831,0.0
-12491,-20550,19723,0.0
-12516,-20929,19623,0.0
-12579,-21376,19579,0.0
-12622,-21795,19502,0.0
-12639,-22173,19382,0.0
-12685,-22604,19302,0.0
-12711,-23006,19188,0.0
-12758,-23450,19104,0.0
0,0,0,0.0
0,0,0,0.0
0,0,0,0.0
0,0,0,0.0
0,0,0,0.0
0,0,0,0.0
0,0,0,0.0
-920,-1907,1281,0.0
0,0,0,0.0
0,0,0,0.0
0,0,0,0.0
0,0,0,0.0
0,0,0,0.0
0,0,0,0.0
0,0,0,0.0
0,0,0,0.0
0,0,0,0.0
0,0,0,0.0
0,0,0,0.0
0,0,0,0.0
0,0,0,0.0
0,0,0,0.0
-73,-186,84,0.0
-69,-179,78,0.0
-72,-193,82,0.0
-84,-226,92,0.0
-88,-240,95,0.0
-95,-264,102,0.0
-117,-327,122,0.0
-124,-350,126,0.0
-118,-338,117,0.0
-116,-337,113,0.0
-112,-330,106,0.0
-113,-337,104,0.0
-113,-342,102,0.0
-109,-334,96,0.0
-106,-331,91,0.0
-108,-342,90,0.0
-105,-340,85,0.0
-103,-336,80,0.0
-102,-338,78,0.0
-18194,45861,38892,0.0
-18087,44691,38733,0.0
-17983,43553,38576,0.0
-17771,42185,38186,0.0
0,0,0,0.0
0,0,0,0.0
0,0,0,0.0
0,0,0,0.0
-15131,32431,32739,0.0
-15123,31750,32762,0.0
-14977,30791,32477,0.0
-14719,29632,31953,0.0
-14735,29044,32019,0.0
-14662,28289,31887,0.0
0,0,0,0.0
-14619,27016,31847,0.0
-14277,25814,31124,0.0
-14321,25331,31242,0.0
-14292,24724,31197,0.0
-14372,24309,31388,0.0
-14223,23518,31077,0.0
-14146,22861,30923,0.0
0,0,0,0.0
0,0,0,0.0
-13891,20923,30395,0.0
-13720,20174,30026,0.0
-13802,19806,30211,0.0
-13952,19534,30544,0.0
-14153,19326,30988,0.0
-14109,18781,30892,0.0
-14141,18345,30962,0.0
-15381,19437,33675,0.0
-15317,18847,33530,0.0
-15304,18329,33498,0.0
-15270,17789,33416,0.0
-15175,17189,33202,0.0
-15183,16712,33211,0.0
-15106,16149,33033,0.0
-15043,15608,32881,0.0
0,0,0,0.0
0,0,0,0.0
0,0,0,0.0
-14889,13617,32485,0.0
0,0,0,0.0
-14774,12626,32201,0.0
-14785,12196,32202,0.0
0,0,0,0.0
0,0,0,0.0
0,0,0,0.0
0,0,0,0.0
0,0,0,0.0
0,0,0,0.0
-14607,9104,31639,0.0
-14825,8824,32082,0.0
0,0,0,0.0
-11889,6417,25677,0.0
-11878,6084,25627,0.0
-11825,5733,25483,0.0
-11800,5400,25402,0.0
-11812,5086,25399,0.0
-11795,4762,25331,0.0
-11764,4434,25233,0.0
-11740,4113,25149,0.0
-11717,3794,25066,0.0
-11702,3482,25001,0.0
-11697,3174,24956,0.0
-11679,2864,24881,0.0
-11677,2559,24841,0.0
-11615,2245,24673,0.0
-11628,1948,24662,0.0
-11604,1646,24571,0.0
-11604,1350,24533,0.0
-11610,1055,24503,0.0
-11573,757,24384,0.0
-11546,464,24284,0.0
-11531,173,24208,0.0
-11541,-116,24187,0.0
-11525,-404,24109,0.0
-11428,-686,23859,0.0
-11523,-979,24012,0.0
-12025,-1321,25008,0.0
-12437,-1674,25811,0.0
-13099,-2087,27128,2.0
-13196,-2428,27273,2.0
-13248,-2763,27322,2.0
-13465,-3139,27707,2.0
-13527,-3485,27774,2.0
-13589,-3835,27837,2.0
-13697,-4199,27991,2.0
-13796,-4566,28127,2.0
-13843,-4919,28155,2.0
-13895,-5276,28192,2.0
-13887,-5610,28104,2.0
-13948,-5973,28155,2.0
-13966,-6320,28120,2.0
-14009,-6680,28130,2.0
-14061,-7045,28158,2.0
-14089,-7400,28137,2.0
-14146,-7772,28170,2.0
-14141,-8113,28082,2.0
-14207,-8494,28128,2.0
-14186,-8826,28006,2.0
-14213,-9187,27972,2.0
-14213,-9532,27887,2.0
-14176,-9850,27727,2.0
-14193,-10207,27673,2.0
-14180,-10541,27557,2.0
-14140,-10856,27389,2.0
-14136,-11196,27288,2.0
-14152,-11554,27225,2.0
-14224,-11959,27267,2.0
-14240,-12321,27202,2.0
-14221,-12653,27066,2.0
-14228,-13007,26979,2.0
-14135,-13269,26703,2.0
-14125,-13608,26582,2.0
-14107,-13938,26444,2.0
-14093,-14273,26313,2.0
-14052,-14580,26130,2.0
-14013,-14887,25949,2.0
-13930,-15146,25686,2.0
-13911,-15473,25541,2.0
-13832,-15731,25285,2.0
-13767,-16004,25054,2.0
-13728,-16303,24868,2.0
-13661,-16570,24633,2.0
-13454,-16661,24145,2.0
-13194,-16676,23565,2.0
-12820,-16532,22785,0.0
-12432,-16350,21983,0.0
-12233,-16405,21522,0.0
-11933,-16310,20883,0.0
-11844,-16497,20616,0.0
-11817,-16768,20458,0.0
-11872,-17158,20440,0.0
-11923,-17547,20410,0.0
-11934,-17879,20310,0.0
-11963,-18242,20238,0.0
-12002,-18623,20182,0.0
-12026,-18985,20098,0.0
-12033,-19321,19982,0.0
-12073,-19715,19919,0.0
-12122,-20126,19866,0.0
-12150,-20509,19779,0.0
-12177,-20893,19685,0.0
-12208,-21289,19597,0.0
-12225,-21662,19482,0.0
-12278,-22104,19422,0.0
-12313,-22521,19331,0.0
-12345,-22933,19229,0.0
-12399,-23392,19160,0.0
-12380,-23718,18975,0.0
0,0,0,0.0
0,0,0,0.0
0,0,0,0.0
0,0,0,0.0
0,0,0,0.0
0,0,0,0.0
0,0,0,0.0
0,0,0,0.0
0,0,0,0.0
0,0,0,0.0
0,0,0,0.0
0,0,0,0.0
0,0,0,0.0
0,0,0,0.0
0,0,0,0.0
0,0,0,0.0
0,0,0,0.0
0,0,0,0.0
-836,-2110,1044,0.0
0,0,0,0.0
0,0,0,0.0
-809,-2129,967,0.0
-63,-169,74,0.0
-69,-190,80,0.0
-72,-199,82,0.0
-82,-231,92,0.0
-86,-245,95,0.0
-109,-315,118,0.0
-117,-340,124,0.0
-116,-346,121,0.0
-115,-346,117,0.0
-113,-342,111,0.0
-111,-343,107,0.0
-109,-341,103,0.0
-108,-343,100,0.0
-106,-340,95,0.0
-105,-341,91,0.0
-105,-348,89,0.0
-100,-338,83,0.0
-101,-342,79,0.0
0,0,0,0.0
0,0,0,0.0
0,0,0,0.0
0,0,0,0.0
0,0,0,0.0
0,0,0,0.0
0,0,0,0.0
-14656,32944,32746,0.0
0,0,0,0.0
0,0,0,0.0
-14681,30993,32899,0.0
-14197,29345,31844,0.0
-14250,28834,31989,0.0
-14158,28039,31805,0.0
-14304,27724,32157,0.0
-14265,27053,32089,0.0
-13836,25667,31141,0.0
-13884,25192,31266,0.0
-13809,24503,31113,0.0
-13689,23747,30854,0.0
-13853,23489,31233,0.0
-14038,23260,31661,0.0
-13472,21809,30393,0.0
-13506,21355,30476,0.0
0,0,0,0.0
0,0,0,0.0
-13341,19619,30114,0.0
-13572,19469,30636,0.0
-13721,19194,30972,0.0
-13719,18707,30965,0.0
-13730,18245,30989,0.0
-14945,19342,33724,0.0
-14880,18750,33571,0.0
-14855,18213,33504,0.0
-14795,17645,33361,0.0
-14763,17117,33279,0.0
-14721,16584,33173,0.0
-14678,16059,33063,0.0
-14643,15547,32971,0.0
-14582,15016,32818,0.0
0,0,0,0.0
0,0,0,0.0
0,0,0,0.0
0,0,0,0.0
-14346,12536,32193,0.0
-14387,12133,32260,0.0
-14351,11669,32158,0.0
-14228,11142,31856,0.0
-14267,10749,31918,0.0
0,0,0,0.0
-14156,9831,31614,0.0
-14159,9421,31593,0.0
-14171,9019,31589,0.0
-14477,8798,32241,0.0
-14675,8499,32648,0.0
-11556,6365,25683,0.0
-11516,6017,25563,0.0
-11497,5686,25495,0.0
-11496,5365,25461,0.0
-11452,5027,25334,0.0
-11460,4715,25320,0.0
-11431,4389,25223,0.0
-11407,4069,25139,0.0
-11386,3753,25058,0.0
-11390,3447,25031,0.0
-11361,3133,24932,0.0
-11335,2823,24840,0.0
-11326,2518,24781,0.0
-11345,2222,24786,0.0
-11310,1917,24670,0.0
-11290,1617,24586,0.0
-11264,1318,24489,0.0
-11276,1025,24475,0.0
-11262,731,24402,0.0
-11252,439,24337,0.0
-11248,149,24284,0.0
-11228,-139,24199,0.0
-11196,-426,24085,0.0
-11124,-708,23884,0.0
-11131,-992,23853,0.0
-11704,-1340,25030,0.0
-12089,-1691,25800,0.0
-12773,-2110,27203,2.0
-12884,-2453,27384,2.0
-12990,-2801,27549,2.0
-13100,-3154,27722,2.0
-13231,-3517,27935,2.0
0,0,0,0.0
-13385,-4229,28132,2.0
-13434,-4581,28168,2.0
-13507,-4942,28253,2.0
-13558,-5299,28289,2.0
-13572,-5642,28247,2.0
-13648,-6012,28331,2.0
-13653,-6355,28270,2.0
-13661,-6697,28212,2.0
-13772,-7094,28365,2.0
-13776,-7436,28294,2.0
-13841,-7815,28350,2.0
-13906,-8196,28401,2.0
-13889,-8531,28286,2.0
-13931,-8903,28288,2.0
-13922,-9243,28185,2.0
-13927,-9591,28109,2.0
-13904,-9921,27973,2.0
-13930,-10285,27937,2.0
-13864,-10582,27718,2.0
-13857,-10922,27611,2.0
-13824,-11241,27455,2.0
-13922,-11668,27556,2.0
-13935,-12027,27485,2.0
-13925,-12368,27371,2.0
-13903,-12696,27228,2.0
-13820,-12968,26968,2.0
-13855,-13349,26934,2.0
-13822,-13667,26769,2.0
-13786,-13980,26598,2.0
-13770,-14312,26462,2.0
-13727,-14616,26273,2.0
-13677,-14913,26072,2.0
-13616,-15193,25846,2.0
-13500,-15410,25518,2.0
-13521,-15782,25449,2.0
-13465,-16063,25232,2.0
-13370,-16296,24942,2.0
-13323,-16584,24740,2.0
-13202,-16779,24401,2.0
-12853,-16670,23642,2.0
-12496,-16535,22873,0.0
-12135,-16378,22104,0.0
-11960,-16459,21676,0.0
-11646,-16336,20997,0.0
-11507,-16448,20637,0.0
-11257,-16395,20082,0.0
-11498,-17054,20398,0.0
-11550,-17446,20378,0.0
-11580,-17808,20314,0.0
-11597,-18151,20224,0.0
-11628,-18521,20159,0.0
-11667,-18905,20102,0.0
-11682,-19256,20003,0.0
-11714,-19638,19931,0.0
-11741,-20014,19848,0.0
-11778,-20412,19777,0.0
-11804,-20796,19687,0.0
-11836,-21192,19603,0.0
-11864,-21588,19511,0.0
-11894,-21990,19419,0.0
-11928,-22403,19328,0.0
-11973,-22844,19255,0.0
-12015,-23283,19171,0.0
-12028,-23671,19039,0.0
0,0,0,0.0
0,0,0,0.0
0,0,0,0.0
0,0,0,0.0
0,0,0,0.0
0,0,0,0.0
0,0,0,0.0
0,0,0,0.0
0,0,0,0.0
0,0,0,0.0
-797,-1847,1138,0.0
0,0,0,0.0
0,0,0,0.0
0,0,0,0.0
0,0,0,0.0
0,0,0,0.0
0,0,0,0.0
0,0,0,0.0
0,0,0,0.0
0,0,0,0.0
0,0,0,0.0
0,0,0,0.0
-64,-179,79,0.0
-70,-198,85,0.0
-76,-217,90,0.0
-80,-230,93,0.0
-89,-262,103,0.0
-101,-299,114,0.0
-113,-340,125,0.0
-110,-337,119,0.0
-108,-332,114,0.0
-108,-338,112,0.0
-105,-332,105,0.0
-103,-330,101,0.0
-101,-330,97,0.0
-101,-337,95,0.0
-101,-337,91,0.0
-98,-334,87,0.0
-98,-339,84,0.0
-95,-335,78,0.0
-16905,45125,38767,0.0
0,0,0,0.0
0,0,0,0.0
0,0,0,0.0
0,0,0,0.0
0,0,0,0.0
-14119,33322,32610,0.0
-14164,32739,32745,0.0
-14188,32114,32829,0.0
-14188,31444,32855,0.0
-14082,30555,32634,0.0
-13786,29282,31972,0.0
-13803,28697,32033,0.0
-13532,27533,31423,0.0
-13816,27506,32100,0.0
-13763,26804,31990,0.0
-13407,25541,31176,0.0
-13419,25000,31217,0.0
-13326,24274,31009,0.0
-13588,24196,31628,0.0
-13490,23476,31407,0.0
-13645,23201,31774,0.0
0,0,0,0.0
0,0,0,0.0
-12966,20534,30201,0.0
-13075,20210,30456,0.0
-12997,19601,30272,0.0
-13068,19223,30436,0.0
-13193,18921,30721,0.0
-13314,18612,30997,0.0
-14484,19727,33715,0.0
-14469,19190,33670,0.0
-14435,18640,33584,0.0
-14381,18066,33444,0.0
-14326,17506,33306,0.0
-14306,16992,33246,0.0
-14221,16409,33033,0.0
-14203,15913,32976,0.0
-14183,15419,32912,0.0
0,0,0,0.0
0,0,0,0.0
0,0,0,0.0
0,0,0,0.0
0,0,0,0.0
-13886,12415,32099,0.0
-13968,12052,32266,0.0
0,0,0,0.0
-13767,11026,31747,0.0
-13726,10574,31628,0.0
-13701,10140,31542,0.0
-13714,9736,31542,0.0
-13705,9321,31490,0.0
-13766,8952,31596,0.0
-13953,8663,31994,0.0
0,0,0,0.0
-11197,6299,25621,0.0
-11177,5963,25542,0.0
-11167,5637,25490,0.0
-11137,5303,25391,0.0
-11104,4972,25285,0.0
-11106,4659,25257,0.0
-11121,4353,25259,0.0
-11083,4028,25138,0.0
-11070,3716,25073,0.0
-11035,3398,24960,0.0
-11032,3094,24914,0.0
-11019,2788,24849,0.0
-10990,2482,24748,0.0
-10980,2181,24686,0.0
-10970,1882,24624,0.0
-10960,1585,24561,0.0
-10945,1290,24486,0.0
-10933,996,24420,0.0
-10934,705,24378,0.0
-10913,414,24288,0.0
-10918,125,24255,0.0
-10884,-161,24135,0.0
-10900,-447,24127,0.0
-10553,-709,23312,0.0
-10868,-1014,23962,0.0
-11361,-1357,24998,0.0
-11829,-1720,25976,0.0
-12409,-2126,27191,2.0
-12582,-2481,27514,2.0
-12674,-2826,27654,2.0
-12744,-3170,27745,2.0
-12921,-3547,28069,2.0
-12980,-3896,28133,2.0
-13079,-4260,28282,2.0
-13133,-4614,28332,2.0
-13198,-4974,28403,2.0
-13241,-5329,28427,2.0
-13327,-5703,28540,2.0
-13394,-6073,28610,2.0
-13361,-6399,28468,2.0
-13329,-6723,28325,2.0
-13462,-7132,28530,2.0
-13515,-7502,28564,2.0
-13552,-7867,28564,2.0
-13582,-8229,28544,2.0
-13563,-8563,28424,2.0
-13597,-8930,28411,2.0
-13630,-9299,28398,2.0
-13601,-9625,28252,2.0
-13615,-9981,28192,2.0
-13600,-10317,28076,2.0
-13575,-10645,27934,2.0
-13507,-10937,27705,2.0
-13521,-11293,27641,2.0
-13558,-11672,27625,2.0
-13575,-12033,27564,2.0
-13587,-12394,27493,2.0
-13541,-12701,27303,2.0
-13545,-13052,27212,2.0
-13532,-13390,27087,2.0
-13466,-13673,26855,2.0
-13467,-14023,26754,2.0
-13428,-14332,26574,2.0
-13426,-14680,26463,2.0
-13360,-14958,26230,2.0
-13318,-15259,26038,2.0
-13274,-15559,25845,2.0
-13200,-15819,25590,2.0
-13132,-16086,25350,2.0
-13053,-16336,25085,2.0
-13010,-16630,24891,2.0
-12798,-16703,24374,2.0
-12515,-16669,23724,2.0
-12197,-16574,23009,0.0
-11825,-16389,22199,0.0
-11622,-16424,21709,0.0
-11339,-16334,21073,0.0
-11114,-16317,20549,0.0
-11182,-16725,20566,0.0
-11180,-17032,20452,0.0
-11209,-17388,20392,0.0
-11236,-17746,20326,0.0
-11250,-18087,20236,0.0
-11288,-18469,20187,0.0
-11297,-18804,20082,0.0
-11334,-19193,20024,0.0
-11366,-19575,19956,0.0
-11385,-19939,19862,0.0
-11418,-20333,19791,0.0
-11437,-20703,19691,0.0
-11482,-21125,19633,0.0
-11501,-21503,19529,0.0
-11530,-21906,19439,0.0
-11554,-22304,19338,0.0
-11596,-22737,19262,0.0
-11625,-23154,19163,0.0
-11677,-23619,19097,0.0
-11613,-23855,18840,0.0
0,0,0,0.0
0,0,0,0.0
-871,-1873,1378,0.0
0,0,0,0.0
0,0,0,0.0
0,0,0,0.0
0,0,0,0.0
0,0,0,0.0
0,0,0,0.0
0,0,0,0.0
-810,-1961,1185,0.0
0,0,0,0.0
-816,-2032,1167,0.0
0,0,0,0.0
0,0,0,0.0
0,0,0,0.0
0,0,0,0.0
-757,-2024,1017,0.0
0,0,0,0.0
0,0,0,0.0
0,0,0,0.0
-60,-172,77,0.0
-67,-196,85,0.0
-74,-219,93,0.0
-75,-225,92,0.0
-83,-250,99,0.0
-93,-282,108,0.0
-105,-326,121,0.0
-110,-344,123,0.0
-107,-341,117,0.0
-107,-344,115,0.0
-104,-339,109,0.0
-101,-337,104,0.0
-101,-342,102,0.0
-100,-344,98,0.0
-100,-349,96,0.0
-98,-344,90,0.0
-95,-337,84,0.0
-96,-349,83,0.0
0,0,0,0.0
-6100,16442,14525,0.0
-6129,16184,14609,0.0
0,0,0,0.0
0,0,0,0.0
0,0,0,0.0
0,0,0,0.0
-13572,32287,32489,0.0
-13468,31371,32264,0.0
-13611,31039,32629,0.0
-13446,30016,32252,0.0
-13339,29143,32012,0.0
-13316,28470,31971,0.0
0,0,0,0.0
0,0,0,0.0
-12943,25913,31111,0.0
-12978,25408,31201,0.0
-12986,24863,31231,0.0
-7558,14146,18180,0.0
-12973,23731,31207,0.0
-12989,23219,31248,0.0
-13228,23101,31825,0.0
0,0,0,0.0
0,0,0,0.0
-12557,20415,30206,0.0
0,0,0,0.0
-12687,19637,30510,0.0
-12536,18923,30140,0.0
-12772,18796,30702,0.0
-12878,18469,30947,0.0
-14020,19590,33683,0.0
-14003,19051,33627,0.0
-13969,18499,33535,0.0
-13923,17938,33408,0.0
-13881,17391,33293,0.0
-13868,16886,33244,0.0
-13825,16353,33124,0.0
-13753,15794,32934,0.0
-13741,15310,32885,0.0
0,0,0,0.0
0,0,0,0.0
0,0,0,0.0
0,0,0,0.0
-13563,12857,32345,0.0
-13470,12332,32098,0.0
0,0,0,0.0
-13447,11449,31988,0.0
-13362,10955,31760,0.0
-13410,10573,31842,0.0
-13303,10075,31559,0.0
0,0,0,0.0
-13279,9237,31437,0.0
-13400,8913,31688,0.0
-13531,8590,31964,0.0
0,0,0,0.0
-10866,6247,25613,0.0
-10842,5911,25525,0.0
-10838,5589,25486,0.0
-10812,5259,25391,0.0
-10796,4936,25321,0.0
-10799,4624,25294,0.0
-10769,4300,25188,0.0
-10762,3989,25137,0.0
-10738,3674,25048,0.0
-10729,3366,24990,0.0
-10716,3059,24922,0.0
-10693,2752,24831,0.0
-10695,2453,24796,0.0
-10664,2149,24686,0.0
-10684,1858,24692,0.0
-10634,1555,24536,0.0
-10642,1263,24514,0.0
-10637,971,24458,0.0
-10607,679,24349,0.0
-10582,390,24247,0.0
-10608,103,24262,0.0
-10587,-183,24169,0.0
-10577,-467,24102,0.0
-10253,-728,23318,0.0
-10568,-1033,23985,0.0
-11009,-1370,24937,0.0
-11470,-1733,25928,0.0
-12097,-2149,27290,2.0
-12232,-2498,27535,2.0
-12315,-2840,27662,2.0
-12378,-3182,27742,2.0
-12550,-3557,28066,2.0
-12653,-3919,28232,2.0
-12725,-4276,28327,2.0
-12813,-4641,28457,2.0
-12873,-5000,28520,2.0
-12930,-5361,28577,2.0
-12999,-5729,28657,2.0
-13028,-6082,28650,2.0
-13007,-6412,28532,2.0
-13003,-6750,28448,2.0
-13146,-7166,28686,2.0
-13173,-7523,28666,2.0
-13193,-7878,28629,2.0
-13256,-8262,28687,2.0
-13311,-8643,28724,2.0
-13324,-8999,28669,2.0
-13328,-9350,28594,2.0
-13332,-9700,28516,2.0
-13299,-10024,28360,2.0
-13292,-10367,28258,2.0
-13220,-10655,28013,2.0
-13189,-10976,27859,2.0
-13176,-11311,27741,2.0
-13212,-11690,27727,2.0
-13285,-12105,27787,2.0
-13256,-12427,27629,2.0
-13226,-12747,27471,2.0
-13232,-13104,27386,2.0
-13215,-13436,27250,2.0
-13168,-13740,27054,2.0
-13141,-14061,26898,2.0
-13099,-14366,26710,2.0
-13041,-14651,26488,2.0
-13073,-15040,26448,2.0
-13014,-15322,26223,2.0
-12961,-15608,26007,2.0
-12880,-15861,25737,2.0
-12835,-16154,25536,2.0
-12726,-16364,25210,2.0
-12654,-16620,24958,2.0
-12406,-16636,24358,2.0
-12235,-16744,23910,2.0
-11891,-16603,23130,0.0
-11547,-16445,22353,0.0
-11279,-16380,21730,0.0
-11026,-16322,21134,0.0
-10820,-16324,20635,0.0
-10837,-16658,20561,0.0
-10850,-16989,20478,0.0
-10877,-17343,20417,0.0
-10890,-17679,20331,0.0
-10895,-18003,20225,0.0
-10928,-18376,20168,0.0
-10953,-18742,20097,0.0
-10981,-19115,20029,0.0
-11014,-19501,19966,0.0
-11042,-19882,19892,0.0
-11075,-20274,19821,0.0
-11079,-20619,19700,0.0
-11119,-21034,19639,0.0
-11134,-21406,19531,0.0
-11164,-21812,19447,0.0
-11209,-22252,19387,0.0
-11228,-22645,19278,0.0
-11272,-23091,19207,0.0
-11294,-23498,19096,0.0
0,0,0,0.0
0,0,0,0.0
0,0,0,0.0
0,0,0,0.0
0,0,0,0.0
0,0,0,0.0
0,0,0,0.0
0,0,0,0.0
0,0,0,0.0
0,0,0,0.0
0,0,0,0.0
0,0,0,0.0
0,0,0,0.0
0,0,0,0.0
0,0,0,0.0
0,0,0,0.0
0,0,0,0.0
0,0,0,0.0
0,0,0,0.0
0,0,0,0.0
0,0,0,0.0
-750,-2158,1003,0.0
-63,-186,84,0.0
-62,-186,81,0.0
-71,-214,91,0.0
-70,-216,89,0.0
-82,-256,102,0.0
-90,-284,110,0.0
-101,-324,121,0.0
-104,-338,122,0.0
-100,-329,115,0.0
-100,-333,113,0.0
-100,-336,109,0.0
-97,-334,104,0.0
-94,-328,99,0.0
-96,-341,99,0.0
-94,-336,93,0.0
-93,-342,91,0.0
-92,-343,87,0.0
-92,-343,84,0.0
-6068,17226,14982,0.0
-6089,16929,15045,0.0
-6087,16574,15052,0.0
-6092,16248,15079,0.0
-6064,15837,15020,0.0
0,0,0,0.0
-6090,15247,15102,0.0
-6129,15024,15208,0.0
0,0,0,0.0
-13152,30891,32664,0.0
-12762,29336,31707,0.0
-12879,28970,32008,0.0
-12786,28142,31786,0.0
-6997,15066,17399,0.0
-7004,14752,17420,0.0
-12517,25784,31136,0.0
-12557,25293,31240,0.0
-7287,14351,18132,0.0
-7372,14190,18341,0.0
-12474,23465,31036,0.0
-12490,22955,31072,0.0
-12177,21861,30293,0.0
0,0,0,0.0
-12209,20897,30361,0.0
-12137,20276,30176,0.0
-12246,19961,30439,0.0
-12300,19558,30566,0.0
-12418,19253,30848,0.0
-12441,18803,30895,0.0
-12467,18360,30945,0.0
-13577,19477,33688,0.0
-13582,18971,33687,0.0
-13517,18373,33506,0.0
-13467,17807,33365,0.0
-13439,17278,33278,0.0
-13421,16768,33212,0.0
-13368,16222,33060,0.0
-13346,15722,32986,0.0
-13279,15175,32796,0.0
-13220,14646,32626,0.0
0,0,0,0.0
0,0,0,0.0
-13163,13231,32410,0.0
-13152,12778,32356,0.0
-13134,12322,32282,0.0
0,0,0,0.0
-12988,11331,31867,0.0
-13048,10958,31982,0.0
-12991,10490,31811,0.0
-12932,10028,31633,0.0
0,0,0,0.0
-12907,9191,31505,0.0
-13023,8866,31752,0.0
-13415,8715,32669,0.0
-10515,6506,25579,0.0
-10533,6194,25593,0.0
-10529,5870,25550,0.0
-10502,5537,25450,0.0
-10472,5205,25346,0.0
-10453,4882,25266,0.0
-10455,4572,25236,0.0
-10431,4253,25143,0.0
-10449,3953,25150,0.0
-10389,3626,24971,0.0
-10413,3331,24989,0.0
-10393,3023,24905,0.0
-10392,2723,24863,0.0
-10353,2416,24733,0.0
-10353,2120,24693,0.0
-10324,1820,24582,0.0
-10329,1528,24555,0.0
-10325,1236,24503,0.0
-10315,945,24433,0.0
-10299,655,24354,0.0
-10290,367,24291,0.0
-10274,81,24208,0.0
-10262,-202,24134,0.0
-10246,-485,24049,0.0
-9996,-749,23417,0.0
-10248,-1049,23959,0.0
-10686,-1387,24934,0.0
-11188,-1757,26052,0.0
-11786,-2173,27386,2.0
-11909,-2519,27615,2.0
-11959,-2854,27671,2.0
-12024,-3196,27759,2.0
-12154,-3558,27997,2.0
-12292,-3931,28252,2.0
-12353,-4283,28324,2.0
-12439,-4648,28455,2.0
-12498,-5005,28522,2.0
-12581,-5376,28642,2.0
-12624,-5734,28670,2.0
-12649,-6084,28653,2.0
-12674,-6436,28638,2.0
-12676,-6776,28567,2.0
-12804,-7187,28781,2.0
-12859,-7560,28826,2.0
-12973,-7975,29003,2.0
-12998,-8338,28977,2.0
0,0,0,0.0
-12977,-9019,28767,2.0
-13027,-9402,28794,2.0
-13039,-9760,28734,2.0
0,0,0,0.0
-12962,-10398,28394,2.0
-12954,-10740,28287,2.0
-12797,-10954,27857,2.0
-12828,-11326,27834,2.0
-12937,-11771,27978,2.0
-12950,-12132,27912,2.0
-12894,-12430,27699,2.0
-12924,-12809,27667,2.0
-12881,-13117,27479,2.0
-12891,-13478,27402,2.0
-12868,-13806,27254,2.0
-12862,-14151,27141,2.0
-12814,-14450,26937,2.0
-12770,-14752,26742,2.0
-12718,-15043,26530,2.0
-12648,-15310,26277,2.0
-12614,-15619,26102,2.0
-12520,-15852,25800,2.0
-12467,-16134,25583,2.0
-12372,-16359,25281,2.0
-12301,-16612,25026,2.0
-12108,-16693,24522,2.0
-11897,-16742,23989,2.0
-11576,-16621,23234,0.0
-11243,-16465,22458,0.0
-10940,-16337,21749,0.0
-10708,-16302,21184,0.0
-10503,-16295,20675,0.0
-10491,-16583,20545,0.0
-10510,-16924,20476,0.0
-10541,-17285,20428,0.0
-10548,-17612,20333,0.0
-10559,-17945,20239,0.0
-10570,-18284,20148,0.0
-10623,-18696,20130,0.0
-10655,-19080,20075,0.0
-10665,-19425,19973,0.0
-10697,-19815,19909,0.0
-10710,-20175,19810,0.0
-10727,-20542,19714,0.0
-10768,-20962,19660,0.0
-10789,-21347,19566,0.0
-10801,-21718,19453,0.0
-10854,-22178,19413,0.0
-10858,-22539,19280,0.0
-10904,-22994,19220,0.0
-10923,-23398,19108,0.0
-10872,-23652,18871,0.0
0,0,0,0.0
0,0,0,0.0
0,0,0,0.0
0,0,0,0.0
0,0,0,0.0
0,0,0,0.0
0,0,0,0.0
0,0,0,0.0
0,0,0,0.0
0,0,0,0.0
0,0,0,0.0
0,0,0,0.0
0,0,0,0.0
0,0,0,0.0
0,0,0,0.0
0,0,0,0.0
0,0,0,0.0
-726,-2064,1052,0.0
0,0,0,0.0
0,0,0,0.0
0,0,0,0.0
-62,-189,86,0.0
-61,-189,84,0.0
-63,-198,85,0.0
-71,-226,94,0.0
-76,-243,98,0.0
-82,-269,105,0.0
-94,-312,117,0.0
-99,-332,121,0.0
-99,-335,119,0.0
-96,-330,112,0.0
-96,-336,110,0.0
-93,-333,105,0.0
-91,-329,100,0.0
-90,-331,97,0.0
-90,-335,95,0.0
-90,-339,91,0.0
-90,-342,89,0.0
-86,-337,83,0.0
-6082,17835,15604,0.0
-6103,17525,15667,0.0
-6093,17131,15650,0.0
-6111,16822,15704,0.0
-6113,16476,15717,0.0
-6061,15993,15590,0.0
-12688,32771,32646,0.0
-12580,31805,32380,0.0
-6129,15165,15779,0.0
-6907,16726,17788,0.0
-6885,16314,17734,0.0
-6924,16054,17840,0.0
-6973,15814,17965,0.0
-12548,27837,32331,0.0
-12515,27153,32247,0.0
-6841,14514,17627,0.0
-6932,14380,17861,0.0
-12072,24476,31099,0.0
-7186,14238,18509,0.0
-12136,23497,31255,0.0
-12180,23037,31360,0.0
-11813,21821,30408,0.0
-11848,21371,30492,0.0
-11824,20818,30419,0.0
-11649,20016,29958,0.0
-11700,19614,30080,0.0
-11907,19467,30597,0.0
-11926,19010,30632,0.0
-12061,18738,30964,0.0
-12061,18256,30948,0.0
-13124,19347,33658,0.0
-13090,18785,33550,0.0
-13073,18257,33489,0.0
-13057,17735,33425,0.0
-12984,17146,33216,0.0
-13002,16684,33240,0.0
-12926,16106,33019,0.0
-12924,15630,32991,0.0
0,0,0,0.0
0,0,0,0.0
-12849,14155,32720,0.0
0,0,0,0.0
-12762,13161,32440,0.0
-12701,12659,32257,0.0
-12703,12224,32231,0.0
0,0,0,0.0
-12567,11241,31821,0.0
-12608,10855,31891,0.0
-12512,10357,31616,0.0
0,0,0,0.0
0,0,0,0.0
-12487,9110,31447,0.0
-12652,8823,31823,0.0
-12709,8456,31929,0.0
-10225,6478,25657,0.0
-10211,6146,25589,0.0
-10207,5825,25548,0.0
-10176,5490,25434,0.0
-10155,5163,25347,0.0
-10159,4853,25322,0.0
-10131,4529,25219,0.0
-10105,4210,25116,0.0
-10096,3901,25058,0.0
-10088,3595,25001,0.0
-10080,3290,24942,0.0
-10079,2989,24901,0.0
-10081,2691,24867,0.0
-10054,2388,24762,0.0
-10043,2090,24692,0.0
-10028,1794,24615,0.0
-10022,1501,24559,0.0
-10018,1210,24507,0.0
-10006,919,24433,0.0
-10002,632,24381,0.0
-9968,344,24253,0.0
-9979,60,24234,0.0
-9970,-223,24167,0.0
-9951,-505,24075,0.0
-9738,-769,23513,0.0
-9946,-1067,23968,0.0
-10354,-1401,24901,0.0
-10814,-1767,25953,0.0
-11464,-2194,27457,2.0
-11574,-2538,27662,2.0
-11606,-2868,27676,2.0
-11657,-3205,27739,2.0
-11803,-3572,28021,2.0
-11904,-3932,28197,2.0
-12007,-4299,28375,2.0
-12081,-4659,28485,2.0
-12152,-5021,28583,2.0
-12211,-5383,28655,2.0
-12283,-5752,28752,2.0
-12330,-6114,28791,2.0
-12239,-6405,28504,2.0
-12220,-6732,28389,2.0
-12450,-7200,28846,2.0
-12553,-7603,29008,2.0
-12567,-7957,28963,2.0
-12643,-8353,29057,2.0
-12697,-8737,29098,2.0
-12715,-9099,29057,2.0
-12727,-9457,29002,2.0
-12731,-9810,28926,2.0
-12704,-10139,28779,2.0
-12596,-10400,28446,2.0
-12579,-10734,28321,2.0
-12487,-11000,28025,2.0
-12392,-11260,27726,2.0
-12524,-11727,27930,2.0
-12575,-12124,27952,2.0
-12608,-12505,27930,2.0
-12582,-12831,27780,2.0
-12494,-13091,27491,2.0
-12559,-13511,27535,2.0
-12561,-13866,27442,2.0
-12536,-14191,27286,2.0
-12428,-14419,26952,2.0
-12413,-14754,26819,2.0
-12374,-15059,26632,2.0
-12331,-15357,26434,2.0
-12310,-15683,26284,2.0
-12196,-15889,25936,2.0
-12053,-16050,25526,2.0
-12001,-16328,25309,2.0
-11958,-16617,25112,2.0
-11788,-16724,24646,2.0
-11554,-16731,24049,2.0
-11259,-16635,23330,0.0
-10944,-16494,22572,0.0
-10619,-16318,21797,0.0
-10418,-16320,21283,0.0
-10203,-16291,20742,0.0
-10158,-16527,20549,0.0
-10084,-16712,20294,0.0
-10191,-17201,20404,0.0
-10211,-17548,20334,0.0
-10231,-17900,20266,0.0
-10240,-18234,20171,0.0
-10289,-18645,20154,0.0
-10294,-18976,20046,0.0
-10306,-19328,19953,0.0
-10341,-19724,19900,0.0
-10361,-20095,19815,0.0
-10399,-20507,19765,0.0
-10420,-20890,19678,0.0
-10415,-21223,19538,0.0
-10463,-21670,19498,0.0
-10492,-22081,19418,0.0
-10520,-22494,19331,0.0
-10540,-22897,19229,0.0
-10570,-23327,19142,0.0
-10570,-23694,18997,0.0
0,0,0,0.0
0,0,0,0.0
0,0,0,0.0
0,0,0,0.0
0,0,0,0.0
-772,-1897,1321,0.0
-766,-1913,1299,0.0
0,0,0,0.0
-724,-1862,1205,0.0
-734,-1917,1210,0.0
-704,-1866,1149,0.0
0,0,0,0.0
0,0,0,0.0
0,0,0,0.0
0,0,0,0.0
-709,-2022,1095,0.0
0,0,0,0.0
0,0,0,0.0
0,0,0,0.0
-690,-2088,1014,0.0
0,0,0,0.0
-56,-178,82,0.0
-60,-192,85,0.0
-69,-222,96,0.0
-73,-241,101,0.0
-71,-237,96,0.0
-74,-253,99,0.0
-90,-306,117,0.0
-95,-332,123,0.0
-94,-332,118,0.0
-92,-329,113,0.0
-92,-333,111,0.0
-91,-337,108,0.0
-90,-333,103,0.0
-86,-329,97,0.0
-86,-332,94,0.0
-86,-337,92,0.0
-85,-340,88,0.0
-85,-342,86,0.0
-5960,18075,15904,0.0
-6054,17976,16163,0.0
-6097,17722,16282,0.0
-6099,17354,16292,0.0
-6084,16941,16252,0.0
-6087,16593,16267,0.0
-6065,16179,16208,0.0
-6027,15734,16108,0.0
-5995,15317,16026,0.0
-5968,14918,15953,0.0
-5976,14615,15976,0.0
-11942,28568,31921,0.0
-12001,28077,32072,0.0
-6955,15915,18586,0.0
-6490,14521,17340,0.0
-6623,14488,17692,0.0
-6741,14413,18001,0.0
-6880,14378,18370,0.0
-6941,14175,18529,0.0
-11747,23434,31344,0.0
-11677,22751,31143,0.0
0,0,0,0.0
0,0,0,0.0
-11365,20605,30275,0.0
-11504,20351,30629,0.0
-11363,19609,30239,0.0
-11542,19421,30696,0.0
-11653,19116,30974,0.0
-11654,18629,30957,0.0
-12743,19843,33827,0.0
-12693,19247,33672,0.0
-12633,18647,33490,0.0
-12613,18113,33412,0.0
-12581,17570,33303,0.0
-12577,17074,33268,0.0
-12530,16525,33116,0.0
-12481,15985,32961,0.0
-12494,15528,32966,0.0
-12471,15031,32876,0.0
0,0,0,0.0
0,0,0,0.0
-12358,13534,32488,0.0
-12348,13077,32428,0.0
-12350,12637,32400,0.0
-12340,12191,32341,0.0
-12263,11685,32106,0.0
0,0,0,0.0
-12224,10800,31935,0.0
-12090,10267,31545,0.0
-12126,9886,31604,0.0
0,0,0,0.0
-12125,9072,31527,0.0
-12303,8796,31947,0.0
-12656,8632,32824,0.0
-9903,6429,25649,0.0
-9889,6100,25582,0.0
-9880,5775,25524,0.0
-9862,5449,25442,0.0
-9850,5128,25374,0.0
-9828,4805,25281,0.0
-9820,4492,25224,0.0
-9816,4183,25177,0.0
-9790,3867,25071,0.0
-9765,3555,24971,0.0
-9773,3258,24952,0.0
-9752,2952,24859,0.0
-9731,2650,24765,0.0
-9743,2356,24753,0.0
-9726,2060,24671,0.0
-9722,1767,24620,0.0
-9694,1472,24504,0.0
-9693,1183,24460,0.0
-9702,896,24436,0.0
-9683,608,24346,0.0
-9673,323,24277,0.0
-9681,39,24252,0.0
-9660,-242,24151,0.0
-9652,-524,24085,0.0
-9276,-773,23102,0.0
-9647,-1083,23976,0.0
-10050,-1419,24927,0.0
-10598,-1801,26231,0.0
-11089,-2203,27392,2.0
-11196,-2545,27595,2.0
-11240,-2877,27643,2.0
-11327,-3222,27797,2.0
-11476,-3593,28100,2.0
-11603,-3963,28347,2.0
-11583,-4285,28234,2.0
-11693,-4657,28434,2.0
-11767,-5020,28545,2.0
-11842,-5388,28661,2.0
-11914,-5757,28763,2.0
-11858,-6065,28558,2.0
-11763,-6349,28257,2.0
-11837,-6723,28363,2.0
-12010,-7161,28702,2.0
-12093,-7551,28825,2.0
-12200,-7961,29002,2.0
-12294,-8370,29144,2.0
-12313,-8731,29110,2.0
-12412,-9151,29261,2.0
-12442,-9525,29249,2.0
-12294,-9760,28818,2.0
-12316,-10126,28785,2.0
-12258,-10426,28563,2.0
-12189,-10713,28315,2.0
-12130,-11005,28090,2.0
-11976,-11206,27648,2.0
-12103,-11670,27851,2.0
-12189,-12102,27958,2.0
-12270,-12533,28053,2.0
-12246,-12859,27902,2.0
-12241,-13207,27796,2.0
-12205,-13520,27619,2.0
-12173,-13836,27449,2.0
-12176,-14191,27356,2.0
-12103,-14460,27096,2.0
-12042,-14738,26860,2.0
-12016,-15056,26697,2.0
-11988,-15373,26534,2.0
-11923,-15640,26287,2.0
-11836,-15877,25991,2.0
-11709,-16054,25608,2.0
-11601,-16251,25267,2.0
-11578,-16567,25112,2.0
-11415,-16676,24651,2.0
0,0,0,0.0
-10963,-16679,23467,0.0
-10613,-16473,22618,0.0
-10317,-16330,21886,0.0
-10168,-16406,21467,0.0
-9918,-16312,20840,0.0
-9848,-16503,20592,0.0
-9837,-16792,20465,0.0
-9860,-17143,20409,0.0
-9901,-17529,20388,0.0
-9897,-17840,20273,0.0
-9933,-18222,20235,0.0
-9949,-18573,20155,0.0
-9968,-18934,20080,0.0
-9967,-19261,19964,0.0
-10003,-19661,19918,0.0
-10033,-20056,19859,0.0
-10037,-20399,19742,0.0
-10071,-20811,19686,0.0
-10093,-21202,19603,0.0
-10115,-21596,19516,0.0
-10146,-22014,19445,0.0
-10141,-22357,19301,0.0
-10195,-22838,19268,0.0
-10217,-23252,19170,0.0
-10232,-23654,19056,0.0
0,0,0,0.0
0,0,0,0.0
0,0,0,0.0
0,0,0,0.0
0,0,0,0.0
0,0,0,0.0
0,0,0,0.0
0,0,0,0.0
0,0,0,0.0
0,0,0,0.0
0,0,0,0.0
0,0,0,0.0
0,0,0,0.0
0,0,0,0.0
0,0,0,0.0
0,0,0,0.0
0,0,0,0.0
0,0,0,0.0
0,0,0,0.0
0,0,0,0.0
0,0,0,0.0
-58,-187,86,0.0
-56,-187,83,0.0
-64,-212,92,0.0
-68,-232,99,0.0
-74,-254,104,0.0
-78,-274,109,0.0
-85,-304,116,0.0
-95,-340,126,0.0
-95,-347,124,0.0
-92,-343,119,0.0
-93,-349,117,0.0
-90,-346,112,0.0
-90,-350,109,0.0
-87,-346,103,0.0
-87,-347,100,0.0
-86,-351,97,0.0
-83,-346,91,0.0
-83,-349,89,0.0
-5770,18122,16036,0.0
-5830,17921,16203,0.0
-5940,17869,16508,0.0
-5923,17439,16462,0.0
-5893,16979,16378,0.0
-5339,15054,14839,0.0
-5819,16054,16171,0.0
-5643,15233,15680,0.0
-5762,15216,16008,0.0
-5754,14863,15980,0.0
-6847,17299,19011,0.0
-6844,16913,19000,0.0
-6815,16468,18912,0.0
-6783,16025,18816,0.0
-6762,15620,18753,0.0
-6543,14775,18141,0.0
-6536,14424,18112,0.0
-6651,14343,18423,0.0
-6690,14095,18522,0.0
-11321,23296,31325,0.0
-11478,23065,31743,0.0
0,0,0,0.0
-10963,20995,30283,0.0
0,0,0,0.0
-10887,19848,30034,0.0
-11006,19571,30345,0.0
-10971,19020,30225,0.0
-11122,18794,30618,0.0
-11237,18501,30912,0.0
-12278,19689,33748,0.0
-12232,19098,33596,0.0
-12224,18576,33549,0.0
-12181,18007,33401,0.0
-12143,17453,33266,0.0
-12159,16986,33282,0.0
-12093,16411,33071,0.0
-10929,14399,29858,0.0
-10949,13997,29887,0.0
-10931,13552,29807,0.0
-11974,14385,32618,0.0
-11120,12938,30263,0.0
-11013,12399,29938,0.0
-11941,12999,32425,0.0
-11878,12492,32217,0.0
0,0,0,0.0
0,0,0,0.0
-11839,11165,32003,0.0
-11840,10744,31968,0.0
-11710,10213,31579,0.0
-11699,9794,31510,0.0
-11651,9349,31341,0.0
-11740,9016,31540,0.0
-11985,8793,32154,0.0
-12320,8621,33009,0.0
-9582,6382,25639,0.0
-9565,6051,25561,0.0
-9570,5735,25536,0.0
-9552,5409,25452,0.0
-9532,5085,25360,0.0
-9529,4773,25316,0.0
-9499,4449,25199,0.0
-9493,4141,25145,0.0
-9491,3836,25099,0.0
-9470,3526,25004,0.0
-9468,3226,24959,0.0
-9442,2920,24849,0.0
-9436,2622,24793,0.0
-9441,2330,24766,0.0
-9411,2029,24645,0.0
-9413,1739,24606,0.0
-9397,1447,24520,0.0
-9388,1158,24454,0.0
-9404,873,24451,0.0
-9380,586,24346,0.0
-9373,301,24281,0.0
-9360,19,24201,0.0
-9358,-261,24149,0.0
-9347,-541,24073,0.0
-9061,-795,23292,0.0
-9361,-1101,24013,0.0
-9725,-1432,24897,0.0
-10347,-1829,26434,0.0
-10739,-2216,27376,2.0
-10829,-2554,27548,2.0
-10859,-2881,27563,2.0
-10999,-3240,27859,2.0
-11058,-3583,27947,2.0
