//X,Y,Z,Classification
10,-176,98,0.0
11,-189,102,0.0
11,-187,99,0.0
13,-204,105,0.0
13,-208,104,0.0
14,-221,109,0.0
15,-224,106,0.0
16,-223,103,0.0
16,-237,106,0.0
17,-238,104,0.0
19,-257,109,0.0
18,-249,103,0.0
20,-266,106,0.0
22,-281,109,0.0
24,-311,116,0.0
25,-318,115,0.0
26,-328,115,0.0
26,-332,113,0.0
27,-332,109,0.0
28,-336,106,0.0
2362,13841,13648,0.0
2357,13800,13899,0.0
2330,13621,14014,0.0
2475,14450,15186,0.0
2336,13613,14616,0.0
2317,13481,14789,0.0
2645,15359,17215,0.0
2156,12492,14306,0.0
2151,12437,14555,0.0
2164,12471,14915,0.0
2175,12500,15279,0.0
2202,12617,15763,0.0
2215,12641,16145,0.0
2211,12574,16419,0.0
2243,12704,16963,0.0
2260,12746,17406,0.0
2250,12631,17642,0.0
2490,13905,19869,0.0
2487,13813,20198,0.0
2549,14077,21065,0.0
2524,13857,21225,0.0
2483,13539,21235,0.0
2427,13148,21117,0.0
2300,12368,20350,0.0
2321,12384,20878,0.0
2286,12096,20902,0.0
2288,12005,21269,0.0
2286,11883,21593,0.0
2735,14081,26252,0.0
2666,13582,25989,0.0
2362,11910,23400,0.0
2564,12782,25797,0.0
2520,12407,25732,0.0
2396,11651,24844,0.0
2404,11534,25299,0.0
2402,11365,25659,0.0
2393,11155,25935,0.0
2377,10910,26137,0.0
2375,10719,26479,0.0
2653,11773,30008,0.0
2802,12206,32129,0.0
2754,11768,32010,0.0
2710,11351,31932,0.0
0,0,0,0.0
1859,7449,22484,0.0
1833,7170,22448,0.0
1802,6874,22349,0.0
1778,6603,22320,0.0
1751,6322,22248,0.0
1726,6049,22198,0.0
1702,5777,22137,0.0
1679,5509,22084,0.0
1655,5246,22036,0.0
1633,4981,21972,0.0
1608,4709,21862,0.0
1589,4456,21829,0.0
1571,4206,21800,0.0
1549,3946,21709,0.0
1532,3697,21662,0.0
1514,3450,21612,0.0
1498,3206,21577,0.0
1481,2960,21512,0.0
1464,2714,21434,0.0
1447,2470,21357,0.0
1433,2234,21318,0.0
1417,1995,21242,0.0
1407,1764,21234,0.0
1393,1528,21169,0.0
1382,1297,21128,0.0
1369,1066,21076,0.0
1357,836,21013,0.0
1346,608,20950,0.0
1337,381,20909,0.0
1274,150,20021,0.0
1343,-68,21203,0.0
1378,-306,21829,0.0
1418,-558,22536,1.0
1465,-830,23368,1.0
1461,-1082,23369,1.0
1468,-1345,23546,1.0
1473,-1607,23656,1.0
1477,-1872,23771,1.0
1482,-2138,23870,1.0
1481,-2399,23883,1.0
1486,-2670,23980,1.0
1484,-2929,23953,1.0
1489,-3201,24030,1.0
1488,-3461,24008,1.0
1490,-3724,23999,1.0
1495,-3998,24053,1.0
1499,-4270,24085,1.0
1504,-4541,24103,1.0
1519,-4847,24288,1.0
1530,-5141,24390,1.0
1536,-5417,24397,1.0
1542,-5695,24402,1.0
1545,-5959,24346,1.0
1553,-6242,24368,1.0
1552,-6485,24227,1.0
1560,-6768,24239,1.0
1570,-7052,24244,1.0
1566,-7272,24034,1.0
1571,-7530,23956,1.0
1574,-7780,23849,1.0
1572,-7995,23644,1.0
1576,-8240,23530,1.0
1580,-8475,23388,1.0
1581,-8693,23210,1.0
1572,-8851,22878,1.0
1575,-9067,22707,1.0
1580,-9297,22576,1.0
1597,-9590,22592,1.0
1611,-9867,22567,1.0
1627,-10150,22549,1.0
1645,-10441,22545,1.0
1665,-10751,22574,1.0
1679,-11014,22500,1.0
1691,-11257,22381,1.0
1692,-11427,22125,1.0
1718,-11763,22185,1.0
1751,-12138,22310,1.0
1767,-12400,22218,1.0
1780,-12641,22088,1.0
1790,-12848,21899,1.0
1804,-13085,21764,1.0
1816,-13305,21599,1.0
1836,-13569,21505,1.0
1846,-13757,21292,1.0
1856,-13950,21089,1.0
1870,-14155,20906,1.0
1885,-14369,20737,1.0
1900,-14578,20562,1.0
1904,-14699,20268,1.0
1907,-14802,19953,1.0
1890,-14745,19437,1.0
1885,-14772,19042,1.0
1897,-14931,18824,1.0
1920,-15173,18713,1.0
1925,-15272,18427,0.0
1902,-15137,17868,0.0
1904,-15189,17541,0.0
1921,-15370,17370,0.0
1952,-15654,17312,0.0
1983,-15927,17235,0.0
2014,-16203,17160,0.0
2050,-16508,17109,0.0
2085,-16810,17051,0.0
2121,-17106,16981,0.0
2157,-17412,16916,0.0
2196,-17720,16848,0.0
2233,-18019,16767,0.0
2276,-18356,16715,0.0
2315,-18663,16630,0.0
2359,-18997,16564,0.0
2403,-19325,16487,0.0
2445,-19641,16393,0.0
2493,-20000,16332,0.0
2541,-20349,16254,0.0
2589,-20690,16165,0.0
2640,-21055,16088,0.0
2692,-21424,16007,0.0
2745,-21788,15916,0.0
2800,-22163,15828,0.0
2857,-22550,15739,0.0
2912,-22922,15636,0.0
2996,-23517,15673,0.0
254,-1992,1296,0.0
213,-1667,1060,0.0
17,-137,84,0.0
16,-127,77,0.0
18,-143,84,0.0
17,-144,82,0.0
20,-161,90,0.0
22,-175,96,0.0
21,-169,91,0.0
24,-184,95,0.0
24,-186,94,0.0
27,-207,102,0.0
27,-210,100,0.0
30,-226,105,0.0
28,-218,98,0.0
32,-238,105,0.0
31,-231,99,0.0
31,-234,97,0.0
36,-264,106,0.0
35,-254,98,0.0
36,-265,100,0.0
42,-304,111,0.0
44,-314,111,0.0
44,-316,107,0.0
44,-311,102,0.0
45,-314,100,0.0
-3706,16418,15108,0.0
-3782,16351,15372,0.0
-3865,16305,15661,0.0
-3946,16241,15938,0.0
-4027,16177,16220,0.0
-4108,16102,16496,0.0
-4180,15992,16741,0.0
-4267,15930,17040,0.0
-4272,15568,17017,0.0
-4286,15238,17021,0.0
-4518,15676,17898,0.0
-4641,15712,18335,0.0
-4732,15632,18649,0.0
-4830,15565,18983,0.0
-4928,15494,19321,0.0
-5013,15372,19603,0.0
-5060,15135,19739,0.0
-5072,14795,19737,0.0
-5088,14472,19754,0.0
-5442,15091,21077,0.0
-5555,15014,21461,0.0
-5663,14915,21826,0.0
-5785,14848,22247,0.0
-5899,14749,22633,0.0
-6025,14672,23065,0.0
-6146,14573,23475,0.0
-6277,14488,23923,0.0
-6388,14347,24289,0.0
-6383,13945,24217,0.0
-6384,13564,24167,0.0
0,0,0,0.0
-8793,17649,33142,0.0
-8854,17262,33300,0.0
0,0,0,0.0
0,0,0,0.0
0,0,0,0.0
-8227,14215,30682,0.0
-8246,13805,30689,0.0
-8235,13351,30584,0.0
-8276,12984,30670,0.0
-8329,12637,30803,0.0
-8635,12660,31868,0.0
-8782,12433,32345,0.0
-8779,11992,32268,0.0
-8764,11540,32148,0.0
-8755,11101,32048,0.0
0,0,0,0.0
-8731,10232,31829,0.0
-8658,9738,31500,0.0
-6817,7348,24751,0.0
-7074,7298,25633,0.0
-7116,7015,25730,0.0
-7095,6672,25602,0.0
-7088,6347,25529,0.0
-7079,6022,25442,0.0
-7067,5700,25350,0.0
-7065,5389,25293,0.0
-7053,5073,25200,0.0
-7037,4757,25089,0.0
-7021,4446,24980,0.0
-7020,4146,24929,0.0
-7011,3845,24845,0.0
-6907,3499,24428,0.0
-6877,3197,24270,0.0
-6952,2944,24483,0.0
-6986,2671,24556,0.0
-6706,2291,23524,0.0
-6930,2085,24259,0.0
-6784,1768,23699,0.0
-6783,1494,23647,0.0
-6817,1229,23716,0.0
-6826,959,23695,0.0
-6823,689,23639,0.0
-6817,420,23564,0.0
-6834,152,23576,0.0
-6847,-114,23571,0.0
-6854,-381,23544,0.0
-6865,-648,23530,0.0
-6817,-907,23316,0.0
-6652,-1142,22705,0.0
-6632,-1393,22588,0.0
-6635,-1647,22545,0.0
-6723,-1926,22797,0.0
-6813,-2211,23047,0.0
-6816,-2471,23007,0.0
-6815,-2730,22955,0.0
-6802,-2983,22856,0.0
-6791,-3236,22770,0.0
-6800,-3496,22746,0.0
-6792,-3748,22667,0.0
-6725,-3965,22393,0.0
-6775,-4249,22505,0.0
-6772,-4502,22441,0.0
-6759,-4748,22345,0.0
-6764,-5006,22308,0.0
-6749,-5249,22207,0.0
-6749,-5504,22154,0.0
-6764,-5769,22148,0.0
-6744,-6006,22029,0.0
-6746,-6262,21981,0.0
-6745,-6516,21922,0.0
-6660,-6685,21589,0.0
-6591,-6865,21311,0.0
-6583,-7107,21232,0.0
-6712,-7501,21590,0.0
-6767,-7820,21710,0.0
-6772,-8084,21670,0.0
-6738,-8302,21502,0.0
-6768,-8598,21539,0.0
-6760,-8848,21456,0.0
-6767,-9118,21416,0.0
-6760,-9371,21336,0.0
-6768,-9644,21299,0.0
-6764,-9902,21225,0.0
-6763,-10165,21160,0.0
-6773,-10446,21127,0.0
-6776,-10718,21076,0.0
-6777,-10989,21016,0.0
-6753,-11220,20877,0.0
-6781,-11537,20898,0.0
-6769,-11790,20797,0.0
-6790,-12100,20793,0.0
-6758,-12318,20627,0.0
-6745,-12571,20520,0.0
-6780,-12916,20559,0.0
-6775,-13186,20473,0.0
-6772,-13462,20394,0.0
-6796,-13797,20398,0.0
-6811,-14118,20373,0.0
-6666,-14100,19866,0.0
-6482,-13988,19246,0.0
-6624,-14580,19593,0.0
-6720,-15086,19803,0.0
-6848,-15674,20103,0.0
-6851,-15988,20037,0.0
-6876,-16352,20028,0.0
-6876,-16664,19949,0.0
-6265,-15468,18102,0.0
-6908,-17371,19874,0.0
-6937,-17767,19874,0.0
-6942,-18109,19805,0.0
-6950,-18458,19738,0.0
-6965,-18831,19692,0.0
-6969,-19179,19613,0.0
-6963,-19506,19506,0.0
-6950,-19811,19373,0.0
-6861,-19905,19036,0.0
-6994,-20645,19308,0.0
-23,-69,63,0.0
-24,-74,67,0.0
-20,-66,57,0.0
-29,-95,82,0.0
-20,-66,56,0.0
-23,-78,64,0.0
-25,-86,69,0.0
-28,-98,77,0.0
-27,-94,72,0.0
-24,-89,66,0.0
-30,-111,81,0.0
-28,-103,74,0.0
-28,-107,74,0.0
-32,-120,82,0.0
-24,-94,62,0.0
-31,-124,80,0.0
-503,-1982,1253,0.0
-504,-2020,1246,0.0
-30,-123,74,0.0
-32,-136,80,0.0
-31,-134,76,0.0
-32,-140,78,0.0
-36,-161,87,0.0
-35,-156,83,0.0
-36,-167,86,0.0
-40,-184,93,0.0
-40,-190,93,0.0
-40,-194,92,0.0
-40,-199,92,0.0
-40,-202,90,0.0
-43,-218,95,0.0
-47,-243,103,0.0
-45,-234,96,0.0
-46,-249,99,0.0
-46,-252,97,0.0
-55,-303,113,0.0
-58,-325,117,0.0
-57,-324,112,0.0
-56,-330,111,0.0
-55,-324,105,0.0
-55,-337,105,0.0
-54,-332,100,0.0
-51,-327,94,0.0
-51,-330,92,0.0
-2916,16356,15296,0.0
-2988,16310,15583,0.0
-3056,16238,15850,0.0
-3129,16185,16139,0.0
-3201,16114,16416,0.0
-3274,16051,16706,0.0
-3333,15908,16918,0.0
-3422,15906,17285,0.0
-3475,15725,17462,0.0
-3527,15542,17638,0.0
-3560,15278,17720,0.0
-3573,14934,17705,0.0
-3814,15525,18813,0.0
-3904,15476,19173,0.0
-3998,15437,19555,0.0
-4060,15262,19769,0.0
-4163,15240,20190,0.0
-4253,15158,20541,0.0
-4217,14632,20286,0.0
-4235,14303,20293,0.0
-4544,14934,21685,0.0
-4642,14848,22073,0.0
-4746,14772,22486,0.0
-4853,14691,22903,0.0
-4959,14605,23325,0.0
-5063,14498,23728,0.0
-5174,14403,24165,0.0
-5268,14253,24521,0.0
-5382,14148,24965,0.0
-5379,13734,24866,0.0
-5440,13487,25065,0.0
-5491,13214,25221,0.0
-5900,13777,27014,0.0
-6025,13645,27500,0.0
-6165,13535,28050,0.0
-6273,13347,28459,0.0
-6420,13229,29034,0.0
-6509,12984,29352,0.0
-6679,12889,30030,0.0
-6856,12789,30731,0.0
-7010,12635,31334,0.0
-7227,12577,32212,0.0
-7265,12197,32293,0.0
-7239,11713,32083,0.0
-7225,11258,31931,0.0
-7240,10855,31912,0.0
-5177,7461,22760,0.0
-5185,7173,22734,0.0
-5186,6880,22677,0.0
-5187,6588,22619,0.0
-5181,6292,22534,0.0
-5180,6006,22473,0.0
-5181,5726,22420,0.0
-5173,5438,22329,0.0
-5181,5170,22308,0.0
-5173,4888,22215,0.0
-5176,4620,22172,0.0
-5173,4349,22103,0.0
-5170,4081,22037,0.0
-5173,3820,21997,0.0
-5167,3555,21919,0.0
-5158,3290,21824,0.0
-5159,3034,21776,0.0
-5161,2781,21734,0.0
-5158,2527,21674,0.0
-5161,2277,21634,0.0
-5153,2025,21550,0.0
-5150,1777,21485,0.0
-5138,1527,21385,0.0
-5151,1288,21388,0.0
-5146,1044,21317,0.0
-5141,802,21245,0.0
-5146,562,21219,0.0
-5141,324,21150,0.0
-5127,85,21043,0.0
-5222,-152,21383,0.0
-5395,-404,22039,1.0
-5517,-665,22486,1.0
-5523,-916,22458,1.0
-5524,-1166,22409,1.0
-5518,-1414,22333,1.0
-5517,-1662,22278,1.0
-5510,-1907,22204,1.0
-5523,-2159,22203,1.0
-5510,-2400,22103,1.0
-5508,-2645,22044,1.0
-5524,-2898,22053,1.0
-5523,-3143,22002,1.0
-5530,-3392,21978,1.0
-5552,-3651,22015,1.0
-5546,-3893,21940,1.0
-5553,-4143,21918,1.0
-5551,-4387,21859,1.0
-5561,-4641,21846,1.0
-5553,-4880,21765,1.0
-5558,-5130,21734,1.0
-5558,-5377,21685,1.0
-5566,-5630,21663,1.0
-5575,-5886,21649,1.0
-5548,-6103,21490,1.0
-5570,-6376,21526,1.0
-5562,-6616,21445,1.0
-5557,-6858,21375,1.0
-5559,-7109,21330,1.0
-5540,-7332,21204,1.0
-5562,-7613,21240,1.0
-5543,-7836,21115,1.0
-5550,-8097,21088,1.0
-5547,-8346,21027,1.0
-5558,-8615,21015,1.0
-5537,-8835,20882,1.0
-5544,-9103,20859,1.0
-5533,-9340,20765,1.0
-5547,-9620,20762,1.0
-5538,-9863,20674,1.0
-5523,-10095,20565,1.0
-5507,-10325,20451,1.0
-5522,-10616,20455,1.0
-5561,-10956,20545,1.0
-5567,-11234,20510,1.0
-5571,-11510,20467,1.0
-5569,-11777,20406,1.0
-5588,-12091,20418,1.0
-5559,-12302,20254,1.0
-5538,-12532,20123,1.0
-5547,-12831,20099,1.0
-5533,-13076,19989,1.0
-5519,-13324,19880,1.0
-5533,-13642,19871,1.0
-5534,-13931,19815,1.0
-5514,-14171,19686,1.0
-5521,-14480,19651,1.0
-5511,-14748,19554,1.0
-5545,-15136,19611,1.0
-5541,-15426,19534,1.0
-5400,-15332,18976,1.0
-5319,-15396,18629,0.0
-5192,-15321,18126,0.0
-5070,-15250,17638,0.0
-5048,-15473,17501,0.0
-5058,-15800,17476,0.0
-5060,-16103,17419,0.0
-5063,-16416,17367,0.0
-5055,-16699,17278,0.0
-5054,-17005,17210,0.0
-5053,-17317,17142,0.0
-18,-65,63,0.0
-18,-67,64,0.0
-22,-83,77,0.0
-21,-80,72,0.0
-20,-78,69,0.0
-23,-88,77,0.0
-23,-90,76,0.0
-21,-86,71,0.0
-23,-94,77,0.0
-23,-95,76,0.0
-20,-84,65,0.0
-22,-98,74,0.0
-24,-104,78,0.0
-25,-112,81,0.0
-25,-112,79,0.0
-27,-123,86,0.0
-21,-99,67,0.0
-23,-112,73,0.0
-23,-115,74,0.0
-25,-123,78,0.0
-25,-128,78,0.0
-23,-122,73,0.0
-27,-143,84,0.0
-28,-151,86,0.0
-29,-158,87,0.0
-30,-165,89,0.0
-28,-158,83,0.0
-29,-169,86,0.0
-29,-174,87,0.0
-31,-185,89,0.0
-32,-196,92,0.0
-34,-212,97,0.0
-32,-204,90,0.0
-33,-214,92,0.0
-33,-218,91,0.0
-34,-231,94,0.0
-34,-238,93,0.0
-39,-272,104,0.0
-43,-310,115,0.0
-44,-322,115,0.0
-42,-318,110,0.0
-42,-320,106,0.0
-41,-326,105,0.0
-40,-320,99,0.0
-39,-322,96,0.0
-37,-316,90,0.0
0,0,0,0.0
0,0,0,0.0
-5013,33171,32720,0.0
-5038,32348,32599,0.0
-2870,17887,18414,0.0
-2780,16829,17701,0.0
-2794,16419,17646,0.0
-2793,15945,17509,0.0
-2816,15616,17522,0.0
-2783,14994,17194,0.0
-2872,15036,17621,0.0
-2990,15208,18217,0.0
-3001,14834,18164,0.0
-3576,17182,21508,0.0
-3558,16615,21265,0.0
-3613,16395,21458,0.0
-3624,15982,21394,0.0
-3550,15218,20839,0.0
-3483,14509,20327,0.0
-3596,14552,20863,0.0
-3609,14194,20827,0.0
-3666,14008,21043,0.0
-5362,19906,30618,0.0
-5448,19650,30956,0.0
-5463,19136,30884,0.0
-4266,14511,24000,0.0
-4334,14309,24260,0.0
-4438,14223,24729,0.0
-4544,14135,25208,0.0
-4645,14016,25651,0.0
-4661,13639,25623,0.0
-4729,13416,25883,0.0
-4765,13103,25971,0.0
-5109,13609,27728,0.0
-5223,13472,28226,0.0
-5334,13319,28713,0.0
-5420,13094,29060,0.0
-5526,12911,29516,0.0
-5657,12773,30097,0.0
-5962,13003,31603,0.0
-6030,12692,31836,0.0
0,0,0,0.0
0,0,0,0.0
0,0,0,0.0
0,0,0,0.0
-4378,7630,22707,0.0
-4396,7359,22725,0.0
-4398,7062,22661,0.0
-4402,6771,22602,0.0
-4399,6475,22517,0.0
-4404,6193,22471,0.0
-4404,5906,22393,0.0
-4406,5628,22337,0.0
-4403,5345,22253,0.0
-4406,5073,22198,0.0
-4409,4803,22144,0.0
-4409,4534,22082,0.0
-4409,4266,22012,0.0
-4411,4003,21959,0.0
-4412,3743,21906,0.0
-4409,3481,21828,0.0
-4410,3224,21767,0.0
-4412,2971,21722,0.0
-4405,2714,21627,0.0
-4401,2461,21546,0.0
-4410,2217,21531,0.0
-4414,1972,21494,0.0
-4410,1726,21420,0.0
-4408,1482,21352,0.0
-4407,1239,21290,0.0
-4411,1000,21257,0.0
-4412,762,21200,0.0
-4415,525,21160,0.0
-4412,288,21096,0.0
-4406,52,21013,0.0
-4529,-185,21548,0.0
-4640,-434,22022,1.0
-4783,-698,22644,1.0
-4780,-949,22574,1.0
-4790,-1201,22566,1.0
-4783,-1447,22479,1.0
-4778,-1693,22405,1.0
-4794,-1946,22421,1.0
-4835,-2212,22561,1.0
-4876,-2481,22700,1.0
-4890,-2739,22709,1.0
-4865,-2975,22542,1.0
-4894,-3241,22622,1.0
-4909,-3502,22637,1.0
-4921,-3762,22644,1.0
-4944,-4032,22698,1.0
-4938,-4279,22620,1.0
-4981,-4569,22763,1.0
-5007,-4848,22826,1.0
-5044,-5141,22946,1.0
-5046,-5400,22903,1.0
-5023,-5633,22748,1.0
-5047,-5915,22802,1.0
-5035,-6159,22698,1.0
-5007,-6384,22525,1.0
-5043,-6688,22637,1.0
-5004,-6893,22407,1.0
-4997,-7143,22329,1.0
-5000,-7406,22293,1.0
-4976,-7630,22138,1.0
-4942,-7834,21932,1.0
-4892,-8012,21665,1.0
-4883,-8254,21577,1.0
-4881,-8507,21520,1.0
-4905,-8809,21576,1.0
-4923,-9104,21610,1.0
-4937,-9394,21620,1.0
-4927,-9641,21530,1.0
-4944,-9941,21555,1.0
-4934,-10189,21460,1.0
-4905,-10399,21289,1.0
-4858,-10567,21036,1.0
-4935,-11009,21322,1.0
-4960,-11342,21381,1.0
-4978,-11664,21410,1.0
-4984,-11961,21387,1.0
-5001,-12286,21405,1.0
-5015,-12612,21420,1.0
-4961,-12764,21137,1.0
-4928,-12969,20948,1.0
-4898,-13181,20772,1.0
-4915,-13524,20799,1.0
-4898,-13769,20671,1.0
-4910,-14105,20675,1.0
-4862,-14268,20424,1.0
-4831,-14475,20241,1.0
-4799,-14684,20058,1.0
-4743,-14817,19778,1.0
-4715,-15033,19610,1.0
-4685,-15247,19440,1.0
-4608,-15301,19071,1.0
-4518,-15305,18651,0.0
-4404,-15219,18134,0.0
-4327,-15251,17770,0.0
-4288,-15412,17561,0.0
-4262,-15624,17411,0.0
-4279,-15990,17430,0.0
-4273,-16286,17363,0.0
-4269,-16586,17297,0.0
-4267,-16900,17240,0.0
-4260,-17197,17162,0.0
-15,-60,59,0.0
-15,-62,58,0.0
-17,-72,68,0.0
-20,-85,78,0.0
-18,-79,71,0.0
-21,-93,82,0.0
-18,-82,71,0.0
-18,-86,72,0.0
-21,-97,79,0.0
-18,-87,69,0.0
-20,-97,76,0.0
-21,-102,78,0.0
-20,-108,81,0.0
-20,-103,74,0.0
-19,-100,71,0.0
-20,-113,79,0.0
-19,-107,73,0.0
-20,-116,76,0.0
-17,-101,65,0.0
-21,-122,78,0.0
-20,-124,76,0.0
-24,-145,87,0.0
-23,-141,83,0.0
-22,-141,80,0.0
-22,-144,81,0.0
-25,-167,91,0.0
-23,-160,86,0.0
-26,-180,93,0.0
-24,-172,87,0.0
-26,-187,91,0.0
-26,-196,93,0.0
-26,-202,94,0.0
-26,-203,91,0.0
-27,-217,95,0.0
-28,-227,96,0.0
-28,-232,96,0.0
-28,-240,96,0.0
-28,-246,96,0.0
-34,-300,112,0.0
-35,-322,117,0.0
-34,-319,112,0.0
-33,-323,109,0.0
-32,-326,106,0.0
-32,-331,104,0.0
-31,-327,99,0.0
-30,-329,96,0.0
653,15087,14769,0.0
612,14735,14733,0.0
568,14263,14569,0.0
532,13974,14581,0.0
495,13616,14515,0.0
469,13595,14805,0.0
440,13465,14982,0.0
412,13316,15138,0.0
495,17047,19802,0.0
456,16763,19899,0.0
425,16821,20407,0.0
390,16731,20748,0.0
353,16552,20983,0.0
315,16301,21126,0.0
278,16085,21316,0.0
241,15845,21473,0.0
192,14667,20329,0.0
159,14593,20693,0.0
126,14541,21095,0.0
94,14456,21463,0.0
68,16493,25065,0.0
30,16175,25166,0.0
-8,15712,25035,0.0
-46,15407,25146,0.0
-83,15086,25228,0.0
-120,14827,25412,0.0
-155,14472,25430,0.0
-194,14417,25982,0.0
-233,14254,26353,0.0
-264,13752,26094,0.0
-305,13721,26730,0.0
-336,13296,26606,0.0
-365,12830,26382,0.0
-402,12678,26803,0.0
-440,12504,27192,0.0
-452,11646,26063,0.0
-492,11583,26695,0.0
-530,11445,27177,0.0
-638,12684,31055,0.0
-685,12560,31728,0.0
0,0,0,0.0
-758,11942,32182,0.0
0,0,0,0.0
-812,11051,31881,0.0
-595,7553,22579,0.0
-616,7296,22624,0.0
-633,6994,22518,0.0
-650,6706,22447,0.0
-666,6412,22344,0.0
-682,6138,22294,0.0
-698,5866,22250,0.0
-712,5589,22171,0.0
-728,5324,22129,0.0
-741,5052,22048,0.0
-755,4791,22000,0.0
-768,4534,21958,0.0
-782,4276,21906,0.0
-794,4019,21847,0.0
-805,3762,21773,0.0
-816,3509,21709,0.0
-827,3262,21676,0.0
-836,3012,21593,0.0
-846,2765,21530,0.0
-856,2523,21486,0.0
-864,2278,21402,0.0
-874,2042,21389,0.0
-881,1800,21296,0.0
-889,1563,21241,0.0
-897,1329,21196,0.0
-904,1097,21152,0.0
-910,863,21080,0.0
-917,634,21040,0.0
-924,405,21011,0.0
-918,174,20678,0.0
-944,-51,21106,0.0
-988,-290,21923,0.0
-1024,-544,22543,1.0
-1079,-824,23569,1.0
-1088,-1083,23617,1.0
-1096,-1341,23653,1.0
-1106,-1603,23724,1.0
-1119,-1873,23863,1.0
-1135,-2154,24086,1.0
-1145,-2425,24160,1.0
-1155,-2705,24284,1.0
-1163,-2979,24341,1.0
-1173,-3263,24470,1.0
-1178,-3537,24481,1.0
-1186,-3821,24563,1.0
-1186,-4083,24493,1.0
-1191,-4363,24534,1.0
-1206,-4687,24790,1.0
-1216,-4995,24933,1.0
-1223,-5303,25055,1.0
-1233,-5625,25222,1.0
-1231,-5898,25160,1.0
-1245,-6250,25418,1.0
-1243,-6534,25382,1.0
-1239,-6807,25302,1.0
-1237,-7090,25261,1.0
-1227,-7334,25077,1.0
-1211,-7536,24767,1.0
-1205,-7804,24688,1.0
-1189,-8004,24394,1.0
-1183,-8276,24327,1.0
-1166,-8470,24040,1.0
-1150,-8663,23762,1.0
-1134,-8865,23521,1.0
-1107,-8969,23035,1.0
-1090,-9151,22770,1.0
-1076,-9362,22585,1.0
-1074,-9666,22621,1.0
-1071,-9984,22682,1.0
-1067,-10303,22736,1.0
-1059,-10585,22700,1.0
-1048,-10849,22622,1.0
-1028,-11004,22321,1.0
-1003,-11121,21954,1.0
-984,-11288,21698,1.0
-972,-11546,21620,1.0
-969,-11923,21754,1.0
-962,-12262,21808,1.0
-958,-12652,21941,1.0
-949,-12993,21979,1.0
-942,-13370,22069,1.0
-933,-13736,22127,1.0
-911,-13924,21897,1.0
-888,-14096,21647,1.0
-872,-14370,21554,1.0
-839,-14403,21104,1.0
-807,-14402,20619,1.0
-779,-14493,20279,1.0
-752,-14568,19924,1.0
-727,-14707,19663,1.0
-706,-14922,19507,1.0
-681,-15048,19237,1.0
-658,-15237,19051,1.0
-626,-15195,18583,0.0
-600,-15315,18321,0.0
-567,-15257,17854,0.0
-539,-15304,17522,0.0
-519,-15567,17440,0.0
-498,-15828,17349,0.0
-477,-16140,17311,0.0
-455,-16409,17222,0.0
-432,-16711,17164,0.0
-409,-17017,17105,0.0
-1,-68,66,0.0
-1,-61,58,0.0
-1,-75,71,0.0
-1,-84,77,0.0
-2,-92,83,0.0
-1,-88,78,0.0
-1,-96,83,0.0
-1,-91,76,0.0
-1,-101,83,0.0
0,-95,77,0.0
-1,-106,84,0.0
-1,-108,83,0.0
0,-108,81,0.0
0,-108,80,0.0
0,-119,86,0.0
0,-131,92,0.0
0,-119,82,0.0
11,-1988,1342,0.0
15,-2014,1328,0.0
18,-1992,1283,0.0
21,-2039,1281,0.0
1,-141,86,0.0
1,-146,87,0.0
1,-148,86,0.0
2,-156,88,0.0
3,-171,95,0.0
2,-171,93,0.0
4,-179,94,0.0
4,-199,102,0.0
4,-207,103,0.0
4,-205,100,0.0
6,-224,106,0.0
7,-236,108,0.0
6,-226,101,0.0
7,-230,100,0.0
7,-232,98,0.0
7,-231,94,0.0
8,-256,102,0.0
9,-256,99,0.0
11,-304,113,0.0
12,-319,114,0.0
13,-320,111,0.0
13,-325,109,0.0
15,-328,106,0.0
15,-321,101,0.0
1637,13714,13504,0.0
1637,13772,13852,0.0
1614,13656,14031,0.0
1600,13586,14260,0.0
1581,13500,14475,0.0
1558,13359,14634,0.0
1545,13305,14891,0.0
1537,13299,15209,0.0
1520,13204,15430,0.0
1507,13149,15702,0.0
1494,13090,15977,0.0
1482,13030,16255,0.0
1469,12972,16542,0.0
1458,12912,16836,0.0
1445,12840,17117,0.0
1430,12758,17395,0.0
1418,12684,17688,0.0
1408,12634,18024,0.0
1399,12589,18378,0.0
1386,12506,18682,0.0
1381,12499,19112,0.0
1705,15456,24199,0.0
1658,15055,24137,0.0
1611,14657,24073,0.0
1562,14230,23948,0.0
1608,14661,25290,0.0
1605,14650,25908,0.0
1586,14484,26270,0.0
1555,14199,26423,0.0
1501,13703,26173,0.0
1444,13175,25837,0.0
1414,12888,25960,0.0
1484,13506,27957,0.0
1461,13270,28243,0.0
1465,13277,29067,0.0
1471,13288,29941,0.0
1427,12846,29808,0.0
1403,12579,30076,0.0
1426,12727,31377,0.0
1416,12564,31962,0.0
1394,12290,32280,0.0
1350,11814,32068,0.0
1311,11381,31953,0.0
1276,10979,31909,0.0
879,7488,22551,0.0
856,7214,22537,0.0
832,6928,22475,0.0
808,6640,22395,0.0
785,6352,22305,0.0
763,6071,22230,0.0
742,5802,22179,0.0
723,5538,22147,0.0
704,5271,22091,0.0
683,4995,21983,0.0
666,4740,21951,0.0
649,4482,21905,0.0
630,4219,21812,0.0
614,3967,21770,0.0
598,3712,21697,0.0
584,3471,21687,0.0
569,3218,21596,0.0
554,2975,21562,0.0
543,2736,21549,0.0
526,2478,21364,0.0
514,2243,21340,0.0
504,2012,21359,0.0
490,1768,21217,0.0
481,1538,21216,0.0
470,1303,21148,0.0
460,1073,21100,0.0
450,842,21050,0.0
441,613,20973,0.0
433,385,20946,0.0
413,154,20275,0.0
424,-67,21170,0.0
433,-305,21871,0.0
441,-558,22584,1.0
453,-834,23505,1.0
446,-1085,23417,1.0
443,-1346,23558,1.0
6,-28,419,0.0
441,-1881,23860,1.0
439,-2149,23958,1.0
438,-2421,24072,1.0
438,-2699,24213,1.0
436,-2965,24219,1.0
435,-3241,24299,1.0
437,-3524,24404,1.0
437,-3800,24454,1.0
437,-4070,24449,1.0
435,-4322,24341,1.0
0,0,0,0.0
445,-4948,24751,1.0
449,-5248,24849,1.0
452,-5539,24898,1.0
454,-5801,24811,1.0
460,-6109,24914,1.0
463,-6386,24883,1.0
467,-6670,24871,1.0
472,-6947,24832,1.0
475,-7202,24714,1.0
480,-7463,24614,1.0
483,-7704,24459,1.0
487,-7937,24280,1.0
493,-8186,24154,1.0
498,-8412,23970,1.0
501,-8607,23703,1.0
504,-8787,23409,1.0
500,-8823,22757,1.0
506,-9024,22550,1.0
513,-9258,22429,1.0
524,-9542,22431,1.0
538,-9869,22522,1.0
554,-10214,22639,1.0
569,-10545,22717,1.0
584,-10850,22731,1.0
600,-11191,22808,1.0
610,-11391,22596,1.0
615,-11484,22183,1.0
633,-11836,22269,1.0
652,-12169,22313,1.0
668,-12452,22257,1.0
689,-12815,22338,1.0
704,-13053,22195,1.0
718,-13268,22014,1.0
733,-13473,21819,1.0
748,-13703,21664,1.0
761,-13878,21427,1.0
777,-14060,21203,1.0
795,-14301,21070,1.0
810,-14473,20837,1.0
827,-14685,20663,1.0
841,-14830,20396,1.0
853,-14935,20083,1.0
867,-15067,19811,1.0
882,-15202,19547,1.0
898,-15332,19281,1.0
902,-15262,18774,1.0
915,-15350,18472,0.0
916,-15222,17920,0.0
924,-15224,17536,0.0
946,-15422,17382,0.0
971,-15676,17289,0.0
1001,-16006,17276,0.0
1028,-16286,17202,0.0
1058,-16582,17141,0.0
1088,-16877,17073,0.0
1119,-17187,17016,0.0
1151,-17483,16939,0.0
1183,-17779,16858,0.0
1217,-18099,16794,0.0
1252,-18419,16725,0.0
1287,-18736,16649,0.0
5,-84,72,0.0
1362,-19409,16511,0.0
7,-109,91,0.0
7,-109,89,0.0
7,-116,92,0.0
8,-116,90,0.0
7,-105,79,0.0
7,-112,84,0.0
1659,-21880,15937,0.0
1707,-22256,15847,0.0
1755,-22628,15747,0.0
1788,-22807,15511,0.0
159,-2020,1342,0.0
163,-2037,1322,0.0
165,-2039,1292,0.0
12,-158,97,0.0
12,-152,92,0.0
13,-161,95,0.0
14,-172,99,0.0
14,-173,98,0.0
15,-176,96,0.0
16,-191,101,0.0
17,-201,104,0.0
17,-193,97,0.0
18,-216,106,0.0
20,-226,108,0.0
21,-224,104,0.0
22,-241,109,0.0
22,-242,106,0.0
24,-252,107,0.0
23,-252,104,0.0
25,-257,102,0.0
26,-266,103,0.0
29,-294,111,0.0
32,-318,115,0.0
33,-331,116,0.0
33,-328,111,0.0
34,-329,108,0.0
34,-327,103,0.0
-3115,16378,15259,0.0
-3186,16314,15528,0.0
-3256,16239,15790,0.0
-3325,16157,16051,0.0
-3401,16098,16338,0.0
-3480,16050,16643,0.0
-3560,15993,16945,0.0
-3610,15803,17109,0.0
-3686,15725,17397,0.0
-3643,15143,17121,0.0
-3749,15185,17546,0.0
-3938,15543,18357,0.0
-4055,15596,18828,0.0
-4140,15516,19150,0.0
-4235,15463,19514,0.0
-4322,15373,19840,0.0
-4394,15228,20099,0.0
-4444,15001,20252,0.0
-4460,14660,20250,0.0
-4479,14341,20271,0.0
-4799,14959,21642,0.0
-4903,14881,22038,0.0
-5008,14794,22434,0.0
-5117,14713,22852,0.0
-5230,14632,23281,0.0
-5337,14524,23682,0.0
-5450,14421,24102,0.0
-5547,14272,24459,0.0
-5687,14222,25000,0.0
-5674,13788,24869,0.0
-5682,13410,24829,0.0
-6073,13919,26463,0.0
-6204,13800,26955,0.0
-6341,13683,27470,0.0
-6483,13567,28005,0.0
-6591,13369,28394,0.0
-6702,13171,28794,0.0
-7020,13358,30079,0.0
-7146,13158,30535,0.0
-7372,13125,31413,0.0
-7458,12835,31698,0.0
-7575,12586,32106,0.0
-7600,12187,32133,0.0
-7594,11740,32024,0.0
-7608,11331,32001,0.0
-7593,10883,31858,0.0
-5437,7490,22752,0.0
-5443,7202,22723,0.0
-5440,6903,22655,0.0
-5437,6608,22585,0.0
-5432,6313,22505,0.0
-5432,6030,22454,0.0
-5433,5748,22402,0.0
-5430,5467,22338,0.0
-5427,5188,22272,0.0
-5422,4910,22199,0.0
-5417,4635,22127,0.0
-5414,4365,22064,0.0
-5411,4096,21997,0.0
-5411,3834,21948,0.0
-5398,3564,21845,0.0
-5405,3310,21821,0.0
-5405,3053,21770,0.0
-5399,2796,21698,0.0
-5396,2541,21636,0.0
-5394,2290,21579,0.0
-5392,2039,21521,0.0
-5395,1794,21485,0.0
-5382,1543,21382,0.0
-5383,1299,21340,0.0
-5381,1056,21282,0.0
-5381,815,21237,0.0
-5382,575,21193,0.0
-5383,336,21144,0.0
-5365,97,21032,0.0
-5492,-141,21480,0.0
-5649,-393,22046,0.0
-5650,-640,21997,0.0
-5638,-884,21905,0.0
-5648,-1130,21891,0.0
-5635,-1371,21790,0.0
-5644,-1616,21775,0.0
-5633,-1856,21688,0.0
-5633,-2098,21635,0.0
-5642,-2342,21622,0.0
-5636,-2580,21548,0.0
-5628,-2816,21471,0.0
-5632,-3058,21435,0.0
-5626,-3293,21364,0.0
-5631,-3536,21336,0.0
-5624,-3770,21259,0.0
-5623,-4008,21207,0.0
-5624,-4246,21160,0.0
-5631,-4490,21138,0.0
-5635,-4732,21101,0.0
-5631,-4967,21037,0.0
-5626,-5203,20973,0.0
-5630,-5444,20935,0.0
-5629,-5682,20881,0.0
-5624,-5916,20811,0.0
-5618,-6148,20739,0.0
-5626,-6397,20720,0.0
-5623,-6635,20662,0.0
-5624,-6876,20611,0.0
-5622,-7115,20555,0.0
-5617,-7350,20485,0.0
-5615,-7590,20425,0.0
-5621,-7841,20394,0.0
-5617,-8080,20329,0.0
-5609,-8313,20247,0.0
-5623,-8579,20246,0.0
-5623,-8827,20197,0.0
-5619,-9068,20127,0.0
-5617,-9313,20067,0.0
-5609,-9550,19986,0.0
-5614,-9807,19946,0.0
-5615,-10063,19898,0.0
-5611,-10310,19829,0.0
-5612,-10567,19779,0.0
-5615,-10828,19732,0.0
-5612,-11080,19666,0.0
-5608,-11332,19595,0.0
-5601,-11580,19517,0.0
-5607,-11855,19479,0.0
-5607,-12119,19420,0.0
-5610,-12394,19373,0.0
-5612,-12666,19320,0.0
-5610,-12934,19255,0.0
-5605,-13197,19180,0.0
-5609,-13482,19132,0.0
-5611,-13765,19079,0.0
-5609,-14039,19008,0.0
-5609,-14324,18948,0.0
-5605,-14599,18870,0.0
-5610,-14900,18822,0.0
-5604,-15176,18737,0.0
-5542,-15298,18464,0.0
-5427,-15271,18019,0.0
-5335,-15300,17651,0.0
-5326,-15563,17555,0.0
-5329,-15866,17500,0.0
-5334,-16174,17448,0.0
-5330,-16462,17367,0.0
-5324,-16748,17281,0.0
-5327,-17067,17223,0.0
-15,-52,52,0.0
-15,-54,52,0.0
-24,-82,78,0.0
-22,-78,72,0.0
-26,-93,84,0.0
-24,-86,77,0.0
-25,-93,81,0.0
-19,-72,61,0.0
-23,-87,72,0.0
-18,-72,58,0.0
-19,-74,59,0.0
-23,-96,74,0.0
-21,-88,66,0.0
-22,-95,70,0.0
-23,-101,73,0.0
-20,-89,63,0.0
-22,-99,68,0.0
-21,-95,63,0.0
-446,-2005,1315,0.0
-22,-105,68,0.0
-24,-116,72,0.0
-25,-124,75,0.0
-26,-131,78,0.0
-25,-129,74,0.0
-28,-144,81,0.0
-23,-122,67,0.0
-28,-149,80,0.0
-29,-159,83,0.0
-27,-152,77,0.0
-28,-159,79,0.0
-28,-166,80,0.0
-32,-188,88,0.0
-33,-195,88,0.0
-33,-198,87,0.0
-34,-211,91,0.0
-36,-228,95,0.0
-36,-231,93,0.0
-36,-238,93,0.0
-42,-272,104,0.0
-47,-316,116,0.0
-45,-314,111,0.0
-45,-320,110,0.0
-44,-316,105,0.0
-45,-329,105,0.0
-43,-323,99,0.0
-43,-328,97,0.0
-42,-330,93,0.0
-2043,15700,14889,0.0
0,0,0,0.0
-2508,18088,17900,0.0
-2564,17921,18118,0.0
-2643,17909,18497,0.0
-2718,17859,18846,0.0
-2763,17612,18989,0.0
-2732,16890,18607,0.0
-2776,16655,18748,0.0
-2775,16159,18589,0.0
-2744,15503,18227,0.0
-2782,15264,18342,0.0
-2774,14776,18151,0.0
-3331,17228,21636,0.0
-3353,16841,21625,0.0
-3366,16419,21558,0.0
-3370,15963,21438,0.0
-3381,15554,21367,0.0
-3191,14255,20034,0.0
-3245,14075,20244,0.0
-3390,14281,21023,0.0
-3436,14051,21175,0.0
-5008,19884,30682,0.0
-5083,19593,30968,0.0
-5105,19099,30927,0.0
-4474,16245,26958,0.0
-4584,16149,27471,0.0
-4667,15951,27823,0.0
-4703,15589,27894,0.0
-4705,15120,27763,0.0
-4442,13839,26085,0.0
-4506,13603,26332,0.0
-4495,13148,26149,0.0
-4815,13636,27874,0.0
-4911,13461,28298,0.0
-5035,13355,28887,0.0
-5094,13065,29097,0.0
-5217,12934,29671,0.0
-5300,12696,30021,0.0
-5591,12929,31534,0.0
-5703,12724,32033,0.0
-5763,12398,32239,0.0
-5777,11975,32194,0.0
0,0,0,0.0
0,0,0,0.0
0,0,0,0.0
-4133,7318,22687,0.0
-4141,7031,22648,0.0
-4142,6735,22571,0.0
-4144,6445,22504,0.0
-4145,6157,22428,0.0
-4154,5884,22400,0.0
-4153,5601,22323,0.0
-4155,5324,22261,0.0
-4155,5048,22187,0.0
-4160,4780,22136,0.0
-4162,4512,22076,0.0
-4164,4247,22019,0.0
-4162,3981,21944,0.0
-4167,3723,21901,0.0
-4165,3463,21825,0.0
-4167,3207,21771,0.0
-4165,2950,21694,0.0
-4165,2698,21630,0.0
-4165,2448,21568,0.0
-4165,2199,21509,0.0
-4170,1955,21468,0.0
-4171,1711,21413,0.0
-4175,1470,21379,0.0
-4175,1228,21318,0.0
-4170,987,21237,0.0
-4169,749,21176,0.0
-4174,512,21145,0.0
-4170,277,21068,0.0
-4176,43,21047,0.0
-4307,-196,21650,0.0
-4418,-447,22154,1.0
-4531,-709,22658,1.0
-4543,-961,22664,1.0
-4545,-1211,22616,1.0
-4567,-1467,22672,1.0
-4575,-1719,22657,1.0
-4591,-1975,22677,1.0
-4647,-2251,22903,1.0
-4679,-2519,23004,1.0
-4710,-2790,23101,1.0
-4727,-3056,23131,1.0
-4715,-3302,23019,1.0
-4720,-3559,22988,1.0
-4754,-3840,23102,1.0
-4796,-4132,23253,1.0
-4794,-4386,23186,1.0
-4819,-4668,23252,1.0
-4837,-4946,23291,1.0
-4854,-5224,23322,1.0
-4841,-5469,23204,1.0
-4842,-5732,23159,1.0
-4842,-5991,23105,1.0
-4820,-6224,22948,1.0
-4817,-6481,22883,1.0
-4798,-6716,22746,1.0
-4822,-7012,22809,1.0
-4793,-7231,22623,1.0
-4780,-7472,22514,1.0
-4777,-7729,22448,1.0
-4752,-7952,22289,1.0
-4704,-8131,22015,1.0
-4702,-8389,21957,1.0
-4697,-8641,21886,1.0
-4716,-8942,21929,1.0
-4739,-9252,21989,1.0
-4750,-9543,21995,1.0
-4751,-9815,21949,1.0
-4759,-10105,21942,1.0
-4711,-10275,21675,1.0
-4641,-10393,21308,1.0
-4645,-10672,21278,1.0
-4683,-11035,21407,1.0
-4720,-11403,21532,1.0
-4718,-11681,21477,1.0
-4732,-12001,21494,1.0
-4752,-12339,21536,1.0
-4774,-12691,21592,1.0
-4775,-12991,21553,1.0
-4738,-13187,21338,1.0
-4717,-13426,21198,1.0
-4696,-13666,21058,1.0
-4663,-13869,20862,1.0
-4641,-14107,20720,1.0
-4614,-14329,20553,1.0
-4588,-14556,20395,1.0
-4550,-14744,20183,1.0
-4504,-14903,19935,1.0
-4471,-15104,19746,1.0
-4440,-15310,19564,1.0
-4334,-15252,19053,1.0
-4258,-15292,18676,0.0
-4146,-15193,18145,0.0
-4066,-15201,17752,0.0
-4032,-15376,17561,0.0
-4016,-15624,17453,0.0
-4024,-15968,17447,0.0
-4021,-16277,17395,0.0
-4013,-16567,17320,0.0
-4007,-16866,17249,0.0
-4003,-17182,17190,0.0
-15,-63,62,0.0
-14,-61,58,0.0
-13,-59,55,0.0
-16,-76,69,0.0
-17,-79,71,0.0
-18,-87,77,0.0
-19,-93,79,0.0
-19,-91,77,0.0
-19,-100,82,0.0
-19,-96,76,0.0
-19,-101,79,0.0
-19,-104,80,0.0
-19,-108,81,0.0
-21,-116,85,0.0
-20,-114,81,0.0
-21,-120,84,0.0
-18,-112,76,0.0
-18,-113,75,0.0
-19,-117,76,0.0
-20,-130,83,0.0
-21,-136,85,0.0
-18,-122,73,0.0
-22,-146,85,0.0
-23,-154,88,0.0
-22,-159,89,0.0
-23,-166,91,0.0
-22,-165,88,0.0
-25,-191,99,0.0
-24,-186,94,0.0
-24,-193,94,0.0
-26,-207,100,0.0
-25,-206,96,0.0
-26,-217,98,0.0
-26,-220,97,0.0
-26,-231,99,0.0
-27,-250,103,0.0
-27,-247,99,0.0
-27,-259,101,0.0
-31,-299,112,0.0
-31,-316,115,0.0
-31,-324,114,0.0
-30,-320,109,0.0
-29,-323,107,0.0
-29,-328,104,0.0
-28,-330,101,0.0
-27,-328,96,0.0
-2831,34827,33415,0.0
-1277,15051,14752,0.0
-1310,14825,14843,0.0
-2968,32240,32976,0.0
-2983,31133,32531,0.0
0,0,0,0.0
-3039,29358,32021,0.0
-3076,28607,31881,0.0
-3106,27834,31696,0.0
-3177,27447,31941,0.0
-1910,15914,18927,0.0
-1903,15297,18595,0.0
-1931,14979,18612,0.0
-1946,14579,18520,0.0
-2160,15627,20298,0.0
-3365,23514,31233,0.0
-3474,23463,31875,0.0
-2341,15282,21238,0.0
-2375,14989,21311,0.0
-2394,14607,21253,0.0
-2387,14088,20980,0.0
-3481,19860,30279,0.0
-3501,19319,30161,0.0
-3591,19160,30638,0.0
-3669,18937,31025,0.0
-4022,20079,33713,0.0
-3310,15978,27502,0.0
-3388,15813,27912,0.0
-3470,15660,28355,0.0
-3452,15061,27986,0.0
-3450,14550,27755,0.0
-3456,14083,27590,0.0
-3476,13684,27547,0.0
-3519,13383,27694,0.0
-3538,12988,27642,0.0
-3520,12472,27314,0.0
-3389,11585,26124,0.0
-3486,11495,26701,0.0
-4025,12791,30628,0.0
-4174,12778,31564,0.0
-4276,12602,32134,0.0
-4309,12223,32198,0.0
-4340,11837,32242,0.0
0,0,0,0.0
-4368,10988,32083,0.0
-3105,7494,22690,0.0
-3121,7216,22679,0.0
-3125,6918,22593,0.0
-3129,6623,22510,0.0
-3135,6336,22443,0.0
-3142,6054,22380,0.0
-3152,5783,22346,0.0
-3160,5510,22299,0.0
-3163,5232,22217,0.0
-3171,4966,22172,0.0
-3175,4695,22103,0.0
-3180,4431,22045,0.0
-3183,4165,21972,0.0
-3187,3905,21908,0.0
-3194,3650,21868,0.0
-3198,3394,21805,0.0
-3202,3141,21748,0.0
-3205,2889,21690,0.0
-3206,2637,21610,0.0
-3210,2390,21561,0.0
-3213,2145,21503,0.0
-3214,1901,21439,0.0
-3219,1660,21396,0.0
-3222,1419,21335,0.0
-3220,1179,21258,0.0
-3226,943,21232,0.0
-3226,707,21158,0.0
-3230,472,21114,0.0
-3229,239,21046,0.0
-3236,8,21026,0.0
-3339,-230,21626,0.0
-3408,-477,22013,1.0
-3549,-747,22858,1.0
-3612,-1014,23193,1.0
-3672,-1288,23511,1.0
-3678,-1546,23494,1.0
-3705,-1815,23601,1.0
-3731,-2086,23707,1.0
-3758,-2360,23805,1.0
-3776,-2632,23865,1.0
-3800,-2909,23949,1.0
-3822,-3188,24035,1.0
-3825,-3453,23994,1.0
-3853,-3741,24111,1.0
-3872,-4024,24174,1.0
-3871,-4288,24111,1.0
-3877,-4561,24099,1.0
-3959,-4927,24548,1.0
-4030,-5292,24938,1.0
-4035,-5575,24915,1.0
-4029,-5842,24820,1.0
-4013,-6097,24678,1.0
-4002,-6353,24552,1.0
-3983,-6599,24390,1.0
-3990,-6888,24387,1.0
-3970,-7128,24215,1.0
-3968,-7404,24165,1.0
-3966,-7676,24103,1.0
-3950,-7923,23960,1.0
-3938,-8178,23846,1.0
-3913,-8405,23654,1.0
-3870,-8589,23354,1.0
-3845,-8810,23162,1.0
-3802,-8985,22864,1.0
-3779,-9208,22690,1.0
-3779,-9484,22653,1.0
-3789,-9791,22683,1.0
-3793,-10082,22667,1.0
-3771,-10310,22508,1.0
-3730,-10479,22228,1.0
-3674,-10602,21862,1.0
-3649,-10814,21688,1.0
-3686,-11212,21878,1.0
-3708,-11568,21977,1.0
-3734,-11948,22104,1.0
-3745,-12287,22146,1.0
-3741,-12575,22089,1.0
-3753,-12926,22136,1.0
-3728,-13152,21966,1.0
-3710,-13405,21840,1.0
-3693,-13658,21712,1.0
-3665,-13871,21525,1.0
-3632,-14064,21307,1.0
-3611,-14308,21167,1.0
-3586,-14538,21006,1.0
-3560,-14756,20829,1.0
-3527,-14951,20622,1.0
-3482,-15091,20341,1.0
-3421,-15154,19966,1.0
-3373,-15275,19674,1.0
-3327,-15401,19393,1.0
-3226,-15259,18789,1.0
-3182,-15386,18526,0.0
-3094,-15284,17998,0.0
-3021,-15250,17566,0.0
-3009,-15525,17491,0.0
-2984,-15733,17340,0.0
-2988,-16096,17356,0.0
-2979,-16396,17295,0.0
-2969,-16697,17232,0.0
-13,-71,73,0.0
-10,-61,61,0.0
-13,-74,72,0.0
-13,-77,72,0.0
-11,-72,67,0.0
-11,-73,66,0.0
-14,-90,80,0.0
-14,-94,81,0.0
-17,-111,94,0.0
-14,-104,86,0.0
-13,-97,79,0.0
-14,-104,82,0.0
-15,-112,87,0.0
-15,-115,87,0.0
-15,-122,91,0.0
-14,-115,83,0.0
-15,-125,88,0.0
-14,-118,81,0.0
-220,-1907,1289,0.0
-15,-132,87,0.0
-16,-145,93,0.0
-16,-148,93,0.0
-15,-145,89,0.0
-15,-140,84,0.0
-16,-162,95,0.0
-16,-170,97,0.0
-17,-176,97,0.0
-17,-187,102,0.0
-16,-186,98,0.0
-17,-193,99,0.0
-17,-207,103,0.0
-17,-205,99,0.0
-17,-215,102,0.0
-18,-226,104,0.0
-17,-232,103,0.0
-18,-242,105,0.0
-17,-252,106,0.0
-17,-247,101,0.0
-17,-259,103,0.0
-16,-265,101,0.0
-18,-308,115,0.0
-18,-323,116,0.0
-18,-328,114,0.0
-18,-334,112,0.0
-17,-338,109,0.0
-17,-341,107,0.0
-15,-338,101,0.0
-1492,33709,32584,0.0
-694,14690,14504,0.0
-732,14564,14689,0.0
-765,14348,14783,0.0
-1767,31265,32910,0.0
-1772,29659,31895,0.0
-1828,29002,31863,0.0
-1927,29032,32592,0.0
0,0,0,0.0
-2028,27678,32446,0.0
-1995,25961,31103,0.0
-2053,25500,31226,0.0
-1332,15805,19784,0.0
-1364,15484,19815,0.0
-1386,15064,19710,0.0
-1446,15048,20135,0.0
-1546,15436,21125,0.0
-1593,15251,21351,0.0
-1614,14834,21247,0.0
-1653,14588,21382,0.0
-2371,20109,30169,0.0
-2439,19882,30537,0.0
-2473,19381,30483,0.0
-2540,19153,30855,0.0
-2574,18667,30812,0.0
-2849,19877,33624,0.0
-2877,19324,33512,0.0
-2325,15025,26722,0.0
-2402,14945,27266,0.0
-2471,14804,27718,0.0
-2493,14381,27645,0.0
-2519,13984,27608,0.0
-2545,13595,27580,0.0
-2585,13290,27716,0.0
-2618,12956,27790,0.0
-2606,12401,27372,0.0
-2618,11988,27247,0.0
-2631,11581,27117,0.0
-2859,12097,29201,0.0
-2889,11741,29236,0.0
0,0,0,0.0
-3231,12102,32146,0.0
-3247,11667,32042,0.0
-3265,11243,31960,0.0
0,0,0,0.0
-2353,7424,22672,0.0
-2364,7133,22613,0.0
-2369,6830,22509,0.0
-2379,6544,22442,0.0
-2392,6270,22410,0.0
-2401,5989,22349,0.0
-2407,5704,22252,0.0
-2420,5441,22235,0.0
-2424,5161,22131,0.0
-2434,4899,22097,0.0
-2442,4634,22042,0.0
-2451,4374,21996,0.0
-2458,4112,21930,0.0
-2467,3858,21891,0.0
-2467,3594,21782,0.0
-2477,3345,21753,0.0
-2484,3095,21706,0.0
-2488,2845,21639,0.0
-2492,2595,21567,0.0
-2499,2352,21531,0.0
-2503,2108,21473,0.0
-2509,1867,21422,0.0
-2511,1625,21350,0.0
-2520,1389,21330,0.0
-2518,1150,21235,0.0
-2524,914,21195,0.0
-2526,679,21128,0.0
-2530,447,21085,0.0
-2504,213,20782,0.0
-2536,-14,20978,0.0
-2662,-254,21934,0.0
-2731,-506,22433,1.0
-2850,-783,23326,1.0
-2892,-1051,23594,1.0
-2905,-1311,23633,1.0
-2935,-1582,23797,1.0
-2944,-1845,23796,1.0
-2973,-2123,23961,1.0
-2989,-2393,24021,1.0
-3017,-2677,24183,1.0
-3029,-2949,24209,1.0
-3042,-3225,24248,1.0
-3060,-3508,24336,1.0
-3077,-3793,24412,1.0
-3098,-4084,24513,1.0
-3100,-4354,24474,1.0
-3107,-4632,24475,1.0
-3132,-4940,24623,1.0
-3226,-5367,25304,1.0
-3237,-5665,25337,1.0
-3221,-5916,25162,1.0
-3206,-6167,24997,1.0
-3200,-6435,24910,1.0
-3184,-6681,24735,1.0
-3180,-6954,24669,1.0
-3168,-7207,24537,1.0
-3172,-7500,24532,1.0
-3177,-7792,24524,1.0
-3158,-8032,24351,1.0
-3142,-8273,24188,1.0
-3110,-8475,23919,1.0
-3075,-8661,23617,1.0
-3050,-8873,23401,1.0
-3020,-9069,23149,1.0
-3024,-9365,23156,1.0
-3027,-9659,23147,1.0
-3036,-9981,23200,1.0
-3031,-10263,23153,1.0
-2995,-10433,22858,1.0
-2927,-10487,22325,1.0
-2895,-10664,22073,1.0
-2877,-10888,21920,1.0
-2920,-11350,22237,1.0
-2936,-11721,22355,1.0
-2947,-12078,22437,1.0
-2961,-12454,22541,1.0
-2973,-12824,22621,1.0
-2953,-13063,22468,1.0
-2936,-13321,22346,1.0
-2913,-13553,22180,1.0
-2884,-13753,21964,1.0
-2860,-13974,21785,1.0
-2834,-14190,21598,1.0
-2802,-14377,21370,1.0
-2784,-14627,21238,1.0
-2751,-14806,21003,1.0
-2713,-14958,20735,1.0
-2658,-15009,20333,1.0
-2620,-15149,20061,1.0
-2585,-15303,19812,1.0
-2532,-15353,19435,1.0
-2457,-15258,18887,1.0
-2416,-15364,18599,0.0
-2342,-15252,18060,0.0
-2280,-15207,17613,0.0
-2264,-15470,17528,0.0
-2231,-15607,17301,0.0
-2239,-16047,17402,0.0
-2225,-16340,17338,0.0
-8,-61,64,0.0
-8,-59,60,0.0
-6,-50,50,0.0
-8,-70,69,0.0
-10,-79,76,0.0
-9,-75,69,0.0
-9,-80,72,0.0
-9,-81,72,0.0
-9,-79,68,0.0
-9,-90,77,0.0
-9,-84,70,0.0
-11,-110,90,0.0
-9,-99,79,0.0
-10,-114,89,0.0
-11,-117,89,0.0
-11,-124,92,0.0
-11,-122,89,0.0
-11,-123,88,0.0
-9,-112,78,0.0
-10,-120,81,0.0
-10,-128,84,0.0
-9,-124,80,0.0
-10,-139,88,0.0
-11,-148,92,0.0
-9,-138,83,0.0
-10,-151,88,0.0
-10,-157,90,0.0
-10,-167,94,0.0
-10,-176,97,0.0
-10,-174,93,0.0
-10,-190,98,0.0
-10,-190,96,0.0
-10,-202,99,0.0
-10,-213,102,0.0
-10,-225,104,0.0
-10,-226,102,0.0
-9,-230,101,0.0
-9,-234,99,0.0
-8,-234,96,0.0
-9,-243,97,0.0
-8,-255,98,0.0
-9,-299,113,0.0
-9,-327,119,0.0
-9,-333,118,0.0
-8,-338,115,0.0
-8,-341,112,0.0
-7,-335,106,0.0
-6,-339,103,0.0
-338,17416,16906,0.0
-348,15824,15691,0.0
-354,14347,14532,0.0
-388,14161,14654,0.0
-497,16467,17407,0.0
-520,15794,17057,0.0
-561,15668,17288,0.0
-595,15381,17340,0.0
-633,15157,17460,0.0
-1176,26276,30934,0.0
-1237,25829,31075,0.0
-1293,25348,31171,0.0
-1333,24562,30876,0.0
-908,15753,20244,0.0
-953,15626,20533,0.0
-967,14995,20150,0.0
-1043,15333,21073,0.0
-1085,15137,21281,0.0
-1115,14786,21269,0.0
-1619,20416,30053,0.0
-1668,20031,30180,0.0
-1735,19859,30633,0.0
-1773,19365,30590,0.0
-1830,19091,30889,0.0
-1865,18579,30801,0.0
-2073,19748,33551,0.0
-2108,19214,33467,0.0
-2140,18667,33345,0.0
-1878,15685,28744,0.0
-1839,14711,27666,0.0
-1867,14300,27610,0.0
-1891,13881,27528,0.0
-1930,13572,27658,0.0
-1966,13256,27771,0.0
-1996,12893,27781,0.0
-1994,12345,27375,0.0
-1992,11817,26983,0.0
-2027,11517,27093,0.0
-2211,12036,29190,0.0
-2243,11696,29265,0.0
-2493,12445,32149,0.0
-2522,12047,32156,0.0
-2546,11629,32095,0.0
-2569,11218,32045,0.0
-2581,10772,31878,0.0
-1850,7366,22609,0.0
-1862,7074,22542,0.0
-1873,6780,22461,0.0
-1882,6486,22361,0.0
-1896,6218,22344,0.0
-1904,5930,22245,0.0
-1917,5661,22205,0.0
-1931,5398,22180,0.0
-1940,5128,22118,0.0
-1949,4859,22049,0.0
-1962,4603,22028,0.0
-1969,4338,21950,0.0
-1976,4076,21879,0.0
-1986,3823,21837,0.0
-1994,3570,21786,0.0
-2002,3317,21727,0.0
-2009,3067,21672,0.0
-2017,2819,21617,0.0
-2021,2570,21536,0.0
-2026,2326,21474,0.0
-2034,2085,21437,0.0
-2040,1845,21386,0.0
-2042,1604,21303,0.0
-2045,1364,21221,0.0
-2054,1131,21208,0.0
-2056,896,21134,0.0
-2064,664,21109,0.0
-2068,433,21058,0.0
-2042,199,20707,0.0
-2086,-26,21061,0.0
-2185,-267,21970,0.0
-2243,-519,22459,1.0
-2347,-797,23423,1.0
-2359,-1055,23447,1.0
-2377,-1317,23541,1.0
-2405,-1588,23744,1.0
-2441,-1870,24011,1.0
-2446,-2131,23977,1.0
-2471,-2413,24149,1.0
-2482,-2684,24186,1.0
-2503,-2968,24321,1.0
-2520,-3252,24427,1.0
-2531,-3529,24461,1.0
-2545,-3813,24533,1.0
-2555,-4095,24572,1.0
-2561,-4373,24578,1.0
-2582,-4677,24715,1.0
-2649,-5076,25310,1.0
-2656,-5366,25314,1.0
-2664,-5662,25341,1.0
-2665,-5946,25310,1.0
-2665,-6229,25274,1.0
-2662,-6503,25198,1.0
-2661,-6783,25146,1.0
-2654,-7050,25045,1.0
-2645,-7313,24929,1.0
-2645,-7602,24903,1.0
-2631,-7849,24742,1.0
-2621,-8110,24627,1.0
-2582,-8276,24236,1.0
-2583,-8570,24228,1.0
-2548,-8742,23881,1.0
-2510,-8898,23509,1.0
-2487,-9104,23282,1.0
-2499,-9443,23392,1.0
-2505,-9760,23438,1.0
-2505,-10061,23436,1.0
-2494,-10319,23333,1.0
-2466,-10506,23072,1.0
-2433,-10671,22769,1.0
-2387,-10770,22346,1.0
-2356,-10936,22070,1.0
-2356,-11245,22083,1.0
-2355,-11550,22083,1.0
-2375,-11972,22295,1.0
-2382,-12335,22382,1.0
-2385,-12684,22433,1.0
-2395,-13077,22552,1.0
-2391,-13410,22555,1.0
-2362,-13594,22307,1.0
-2333,-13781,22071,1.0
-2308,-13996,21879,1.0
-2285,-14217,21700,1.0
-2253,-14386,21445,1.0
-2236,-14644,21324,1.0
-2213,-14874,21162,1.0
-2167,-14948,20784,1.0
-2118,-14983,20360,1.0
-2058,-14941,19847,1.0
-2028,-15110,19623,1.0
-2007,-15347,19488,1.0
-1946,-15265,18956,1.0
-1901,-15314,18600,0.0
-1837,-15191,18046,0.0
-1789,-15188,17650,0.0
-1767,-15408,17517,0.0
-1748,-15659,17417,0.0
-1737,-15975,17384,0.0
-1720,-16261,17314,0.0
-1705,-16562,17254,0.0
-1690,-16878,17205,0.0
-5,-45,45,0.0
-5,-51,50,0.0
-5,-61,58,0.0
-5,-65,61,0.0
-7,-89,81,0.0
-5,-67,61,0.0
-7,-88,77,0.0
-6,-81,70,0.0
-6,-87,72,0.0
-6,-88,72,0.0
-7,-103,82,0.0
-6,-97,76,0.0
-7,-101,77,0.0
-6,-105,78,0.0
-8,-116,85,0.0
-6,-104,74,0.0
-7,-119,83,0.0
-7,-124,84,0.0
-6,-112,75,0.0
-6,-108,70,0.0
-6,-120,76,0.0
-7,-139,86,0.0
-6,-142,86,0.0
-6,-150,89,0.0
-6,-147,85,0.0
-6,-160,90,0.0
-7,-179,98,0.0
-5,-169,90,0.0
-6,-180,94,0.0
-5,-182,92,0.0
-5,-184,91,0.0
-6,-202,98,0.0
-5,-209,97,0.0
-5,-211,97,0.0
-4,-214,94,0.0
-4,-228,98,0.0
-4,-227,95,0.0
-3,-238,96,0.0
-3,-251,98,0.0
-3,-276,105,0.0
-3,-321,117,0.0
-2,-327,116,0.0
-1,-331,113,0.0
-1,-324,107,0.0
0,-329,104,0.0
0,-331,102,0.0
93,16808,16377,0.0
54,16614,16536,0.0
17,16669,16947,0.0
-17,14013,14554,0.0
-56,15559,16509,0.0
-95,15792,17118,0.0
-132,15617,17296,0.0
-169,15365,17387,0.0
-234,17293,19996,0.0
-270,16801,19853,0.0
-483,25809,31167,0.0
-539,25214,31121,0.0
-595,24630,31077,0.0
-421,15649,20187,0.0
-705,23666,31215,0.0
-490,14972,20194,0.0
-550,15412,21261,0.0
-584,15077,21276,0.0
-618,14752,21300,0.0
-916,20292,29983,0.0
-967,19977,30215,0.0
-1027,19820,30690,0.0
-1066,19272,30559,0.0
-1120,19039,30924,0.0
-1268,20258,33715,0.0
-1310,19730,33650,0.0
-1346,19150,33485,0.0
-1386,18646,33438,0.0
-1170,14900,27412,0.0
-1222,14743,27836,0.0
-1250,14307,27733,0.0
-1273,13823,27522,0.0
-1312,13541,27705,0.0
-1332,13064,27477,0.0
-1421,13268,28704,0.0
-1492,13247,29494,0.0
-1390,11750,26938,0.0
-1425,11467,27088,0.0
-1662,12732,31009,0.0
-1719,12541,31509,0.0
-1772,12306,31925,0.0
-1811,11967,32078,0.0
0,0,0,0.0
0,0,0,0.0
-1887,10745,31941,0.0
-1355,7336,22617,0.0
-1371,7050,22567,0.0
-1384,6759,22490,0.0
-1398,6473,22422,0.0
-1410,6189,22347,0.0
-1424,5915,22297,0.0
-1435,5635,22212,0.0
-1450,5373,22194,0.0
-1459,5097,22096,0.0
-1470,4833,22045,0.0
-1482,4571,21988,0.0
-1494,4314,21949,0.0
-1504,4058,21901,0.0
-1513,3799,21823,0.0
-1522,3546,21770,0.0
-1528,3288,21675,0.0
-1539,3043,21643,0.0
-1546,2795,21580,0.0
-1554,2550,21522,0.0
-1560,2305,21456,0.0
-1569,2066,21423,0.0
-1575,1825,21359,0.0
-1582,1588,21313,0.0
-1589,1353,21263,0.0
-1589,1114,21148,0.0
-1600,883,21155,0.0
-1604,651,21098,0.0
-1609,420,21044,0.0
-1583,187,20586,0.0
-1625,-38,21024,0.0
-1703,-277,21927,0.0
-1750,-529,22432,1.0
-1837,-808,23442,1.0
-1851,-1067,23513,1.0
-1863,-1326,23564,1.0
-1875,-1588,23620,1.0
-1900,-1863,23839,1.0
-1924,-2145,24060,1.0
-1941,-2421,24177,1.0
-1949,-2689,24197,1.0
-1966,-2973,24328,1.0
-1985,-3264,24493,1.0
-1998,-3549,24579,1.0
-2014,-3842,24706,1.0
-2010,-4100,24599,1.0
-2016,-4378,24610,1.0
-2024,-4666,24661,1.0
-2065,-5033,25104,1.0
-2093,-5382,25405,1.0
-2110,-5705,25555,1.0
-2115,-6004,25577,1.0
-2127,-6326,25688,1.0
-2115,-6575,25505,1.0
-2109,-6845,25402,1.0
-2105,-7125,25337,1.0
-2102,-7405,25274,1.0
-2086,-7643,25072,1.0
-2062,-7843,24759,1.0
-2047,-8078,24567,1.0
-2035,-8325,24417,1.0
-2011,-8524,24140,1.0
-1994,-8746,23936,1.0
-1968,-8927,23630,1.0
-1937,-9084,23273,1.0
-1928,-9336,23171,1.0
-1929,-9644,23202,1.0
-1927,-9940,23202,1.0
-1923,-10233,23183,1.0
-1916,-10511,23129,1.0
-1901,-10746,22979,1.0
-1875,-10921,22707,1.0
-1840,-11035,22320,1.0
-1807,-11162,21971,1.0
-1794,-11412,21868,1.0
-1788,-11701,21841,1.0
-1803,-12146,22091,1.0
-1802,-12491,22146,1.0
-1802,-12853,22219,1.0
-1800,-13207,22268,1.0
-1798,-13575,22331,1.0
-1782,-13841,22223,1.0
-1758,-14040,22006,1.0
-1731,-14226,21771,1.0
-1713,-14483,21646,1.0
-1666,-14489,21155,1.0
-1622,-14518,20710,1.0
-1586,-14611,20370,1.0
-1555,-14739,20085,1.0
-1516,-14793,19706,1.0
-1482,-14896,19400,1.0
-1468,-15200,19358,1.0
-1434,-15288,19040,1.0
-1388,-15258,18585,0.0
-1344,-15232,18149,0.0
-1306,-15252,17778,0.0
-1273,-15347,17501,0.0
-1257,-15638,17446,0.0
-1240,-15923,17382,0.0
-1221,-16204,17308,0.0
-1202,-16488,17233,0.0
-1183,-16790,17172,0.0
-1166,-17117,17131,0.0
-4,-54,53,0.0
-4,-62,60,0.0
-5,-78,74,0.0
-5,-75,69,0.0
-5,-86,77,0.0
-5,-95,83,0.0
-4,-86,74,0.0
-5,-101,85,0.0
-5,-106,87,0.0
-4,-108,87,0.0
-5,-111,88,0.0
-5,-113,86,0.0
-5,-116,88,0.0
-4,-112,83,0.0
-4,-115,83,0.0
-4,-120,84,0.0
-721,-22786,15652,0.0
-58,-1962,1317,0.0
-56,-2010,1318,0.0
-3,-125,80,0.0
-3,-131,82,0.0
-3,-143,87,0.0
-2,-141,83,0.0
-2,-155,89,0.0
-2,-163,92,0.0
-2,-162,88,0.0
-2,-175,94,0.0
-2,-171,89,0.0
-2,-197,101,0.0
-2,-206,102,0.0
-1,-219,106,0.0
-1,-220,104,0.0
0,-225,103,0.0
0,-227,100,0.0
0,-237,102,0.0
0,-233,98,0.0
1,-242,98,0.0
1,-253,99,0.0
2,-272,103,0.0
3,-330,122,0.0
3,-331,119,0.0
4,-333,115,0.0
5,-337,112,0.0
5,-335,108,0.0
6,-336,104,0.0
1469,13778,13558,0.0
1463,13815,13887,0.0
1440,13698,14065,0.0
1431,13707,14377,0.0
1401,13519,14487,0.0
1383,13446,14719,0.0
1361,13321,14899,0.0
1350,13313,15214,0.0
1335,13261,15485,0.0
1501,15010,17913,0.0
1409,14187,17304,0.0
1294,13126,16364,0.0
1278,13059,16643,0.0
1639,16857,21963,0.0
1432,14837,19767,0.0
1409,14696,20022,0.0
1392,14618,20371,0.0
1403,14832,21146,0.0
1374,14634,21346,0.0
1346,14413,21517,0.0
1501,16182,24726,0.0
1637,17760,27786,0.0
1528,16681,26727,0.0
1461,16057,26354,0.0
1425,15746,26480,0.0
1321,14695,25329,0.0
1325,14821,26192,0.0
1289,14497,26275,0.0
1253,14168,26344,0.0
1205,13694,26135,0.0
1157,13218,25899,0.0
1123,12895,25954,0.0
1170,13489,27900,0.0
1148,13304,28295,0.0
1142,13290,29071,0.0
1209,14122,31795,0.0
1156,13538,31389,0.0
1119,13150,31418,0.0
1085,12789,31505,0.0
1069,12620,32077,0.0
1038,12273,32209,0.0
0,0,0,0.0
0,0,0,0.0
927,10977,31874,0.0
633,7490,22539,0.0
609,7211,22506,0.0
587,6923,22438,0.0
565,6633,22354,0.0
543,6357,22303,0.0
523,6085,22256,0.0
503,5816,22216,0.0
484,5537,22123,0.0
465,5280,22108,0.0
446,4996,21963,0.0
428,4735,21905,0.0
411,4478,21859,0.0
396,4225,21819,0.0
380,3973,21776,0.0
365,3721,21720,0.0
350,3468,21648,0.0
336,3222,21608,0.0
