//X,Y,Z,Classification
-11161,-10094,27744,2.0
-11096,-10369,27498,2.0
-10984,-10595,27139,2.0
-10846,-10790,26719,2.0
-10824,-11094,26579,2.0
-10991,-11599,26906,2.0
-11130,-12084,27158,2.0
-11187,-12486,27207,2.0
-11270,-12923,27321,2.0
-11273,-13271,27234,2.0
-11220,-13553,27014,2.0
-11200,-13873,26873,2.0
-11099,-14091,26537,2.0
-10970,-14268,26134,2.0
-10894,-14509,25861,2.0
-10894,-14848,25763,2.0
-10889,-15181,25653,2.0
-10821,-15428,25396,2.0
-10724,-15629,25071,2.0
-10648,-15856,24795,2.0
-10580,-16093,24537,2.0
-10535,-16362,24330,2.0
-10415,-16510,23952,2.0
-10214,-16524,23392,2.0
-9967,-16449,22728,0.0
-9687,-16304,21991,0.0
-9383,-16100,21203,0.0
-9220,-16126,20740,0.0
-9030,-16095,20218,0.0
-8921,-16200,19878,0.0
-8853,-16375,19631,0.0
-8916,-16796,19672,0.0
-8959,-17182,19666,0.0
-8954,-17482,19556,0.0
-8968,-17821,19482,0.0
-8977,-18153,19398,0.0
-8978,-18473,19293,0.0
-9019,-18876,19271,0.0
-9036,-19236,19197,0.0
-9044,-19580,19102,0.0
-9067,-19961,19036,0.0
-9071,-20303,18928,0.0
-9104,-20714,18878,0.0
-9107,-21062,18764,0.0
-9132,-21466,18691,0.0
-9156,-21872,18616,0.0
-9163,-22241,18502,0.0
-9195,-22678,18437,0.0
-9215,-23090,18344,0.0
-9207,-23436,18193,0.0
0,0,0,0.0
0,0,0,0.0
0,0,0,0.0
0,0,0,0.0
0,0,0,0.0
0,0,0,0.0
0,0,0,0.0
0,0,0,0.0
0,0,0,0.0
0,0,0,0.0
0,0,0,0.0
0,0,0,0.0
0,0,0,0.0
0,0,0,0.0
0,0,0,0.0
-645,-2100,1099,0.0
-637,-2103,1071,0.0
0,0,0,0.0
0,0,0,0.0
-52,-181,85,0.0
-49,-172,78,0.0
-53,-191,84,0.0
-58,-210,90,0.0
-63,-234,97,0.0
-71,-264,107,0.0
-73,-278,109,0.0
-82,-318,120,0.0
-87,-341,125,0.0
-87,-348,123,0.0
-84,-344,117,0.0
-84,-350,115,0.0
-82,-343,108,0.0
-82,-351,106,0.0
-81,-351,102,0.0
-79,-347,97,0.0
-76,-340,92,0.0
-78,-353,91,0.0
-4778,16168,14461,0.0
-4871,16123,14734,0.0
-4958,16051,14987,0.0
-5050,15990,15256,0.0
-5343,16548,16133,0.0
-5110,15480,15421,0.0
-5315,15746,16028,0.0
-5220,15124,15732,0.0
-5256,14891,15830,0.0
-5325,14751,16026,0.0
-6315,17103,18993,0.0
-6285,16639,18887,0.0
-6258,16196,18792,0.0
-6132,15508,18398,0.0
-6200,15324,18588,0.0
-6186,14938,18532,0.0
-6190,14601,18525,0.0
-6203,14296,18553,0.0
-10429,23466,31158,0.0
-10372,22788,30960,0.0
-10169,21811,30328,0.0
0,0,0,0.0
0,0,0,0.0
0,0,0,0.0
-10360,20131,30780,0.0
-10310,19533,30602,0.0
-10365,19140,30733,0.0
-10456,18814,30973,0.0
-11387,19958,33696,0.0
-11408,19467,33720,0.0
-11374,18891,33583,0.0
-11319,18292,33386,0.0
-11338,17818,33404,0.0
-11305,17270,33270,0.0
-11285,16749,33172,0.0
-11256,16223,33046,0.0
-11231,15712,32938,0.0
-11146,15126,32649,0.0
-10173,13382,29762,0.0
-10158,12946,29684,0.0
-10243,12638,29894,0.0
-10472,12500,30525,0.0
0,0,0,0.0
-10647,11864,30953,0.0
0,0,0,0.0
-11088,11492,32147,0.0
-11050,11031,31995,0.0
0,0,0,0.0
-10964,10115,31659,0.0
0,0,0,0.0
-10888,9235,31354,0.0
-11019,8941,31683,0.0
-11151,8643,32018,0.0
-8683,6415,24894,0.0
-8689,6107,24872,0.0
-8683,5795,24820,0.0
-8671,5480,24748,0.0
-8668,5174,24702,0.0
-8635,4853,24567,0.0
-8643,4557,24552,0.0
-8634,4255,24484,0.0
-8616,3951,24395,0.0
-8596,3650,24296,0.0
-8586,3355,24229,0.0
-8602,3072,24232,0.0
-8567,2773,24095,0.0
-8548,2483,24000,0.0
-8561,2203,23992,0.0
-8549,1918,23917,0.0
-8553,1639,23887,0.0
-8536,1357,23795,0.0
-8524,1078,23719,0.0
-8514,801,23645,0.0
-8513,527,23598,0.0
-8496,253,23505,0.0
-8489,-18,23441,0.0
-8486,-288,23385,0.0
-8340,-548,22938,0.0
-8474,-825,23261,0.0
-8860,-1142,24270,0.0
-9190,-1473,25119,0.0
-9779,-1875,26676,2.0
-9847,-2197,26803,2.0
-9864,-2508,26792,2.0
-9945,-2839,26954,2.0
-10049,-3181,27175,2.0
-10141,-3525,27365,2.0
-10186,-3857,27423,2.0
-10320,-4227,27720,2.0
-10366,-4566,27778,2.0
-10448,-4925,27933,2.0
-10458,-5253,27894,2.0
-10398,-5543,27666,2.0
-10330,-5826,27420,2.0
-10300,-6125,27270,2.0
-10351,-6474,27337,2.0
-10590,-6949,27896,2.0
-10669,-7329,28034,2.0
-10702,-7681,28047,2.0
-10851,-8121,28360,2.0
-10842,-8449,28260,2.0
-10856,-8795,28220,2.0
-10864,-9136,28162,2.0
-10822,-9435,27974,2.0
-10827,-9775,27909,2.0
-10801,-10086,27762,2.0
-10688,-10311,27390,2.0
-10544,-10501,26942,2.0
-10479,-10763,26698,2.0
-10501,-11112,26670,2.0
-10623,-11573,26896,2.0
-10699,-11990,27001,2.0
-10775,-12416,27109,2.0
-10836,-12826,27172,2.0
-10891,-13235,27221,2.0
-10902,-13593,27155,2.0
-10795,-13804,26800,2.0
-10717,-14045,26514,2.0
-10476,-14064,25824,2.0
-10486,-14415,25758,2.0
-10508,-14784,25718,2.0
-10507,-15122,25619,2.0
-10406,-15316,25279,2.0
-10374,-15608,25106,2.0
-10283,-15808,24789,2.0
-10252,-16099,24615,2.0
-10184,-16330,24354,2.0
-10087,-16511,24024,2.0
-9898,-16532,23474,2.0
-9645,-16435,22778,0.0
-9394,-16325,22088,0.0
-9107,-16139,21320,0.0
-8947,-16162,20852,0.0
-8763,-16130,20328,0.0
-8598,-16125,19852,0.0
-8534,-16304,19611,0.0
-8597,-16730,19663,0.0
-8614,-17065,19601,0.0
-8620,-17388,19518,0.0
-8647,-17753,19478,0.0
-8664,-18103,19414,0.0
-8665,-18423,19313,0.0
-8672,-18758,19222,0.0
-8698,-19137,19172,0.0
-8726,-19526,19123,0.0
-8734,-19875,19028,0.0
-8750,-20245,18950,0.0
-8756,-20598,18847,0.0
-8789,-21018,18801,0.0
-8806,-21406,18718,0.0
-8801,-21744,18586,0.0
-8826,-22159,18512,0.0
-8855,-22591,18447,0.0
-8862,-22972,18331,0.0
-8878,-23384,18235,0.0
-8793,-23527,17927,0.0
0,0,0,0.0
-655,-1811,1317,0.0
0,0,0,0.0
0,0,0,0.0
0,0,0,0.0
0,0,0,0.0
0,0,0,0.0
0,0,0,0.0
0,0,0,0.0
0,0,0,0.0
-645,-2049,1197,0.0
-631,-2036,1159,0.0
0,0,0,0.0
-613,-2037,1101,0.0
0,0,0,0.0
0,0,0,0.0
0,0,0,0.0
0,0,0,0.0
-53,-191,90,0.0
-52,-191,88,0.0
-54,-203,90,0.0
-56,-214,92,0.0
-59,-231,97,0.0
-66,-260,105,0.0
-71,-283,111,0.0
-81,-329,125,0.0
-81,-331,121,0.0
-80,-335,119,0.0
-80,-339,116,0.0
-78,-336,111,0.0
-78,-339,108,0.0
-76,-336,103,0.0
-77,-349,103,0.0
-74,-342,98,0.0
-72,-336,92,0.0
-71,-340,89,0.0
-4203,16116,14630,0.0
-4289,16064,14900,0.0
-4372,16005,15167,0.0
-4456,15937,15431,0.0
-4546,15887,15718,0.0
-4634,15826,15998,0.0
-4570,15249,15751,0.0
-4786,15602,16467,0.0
-4782,15229,16427,0.0
-4769,14839,16357,0.0
-5088,15464,17424,0.0
-5199,15434,17775,0.0
-5298,15363,18087,0.0
-5394,15275,18385,0.0
-5500,15207,18714,0.0
-5553,14993,18868,0.0
-5616,14800,19050,0.0
-5627,14474,19056,0.0
-5650,14185,19108,0.0
-9000,22046,30387,0.0
0,0,0,0.0
-8949,20860,30123,0.0
-7148,16246,24022,0.0
-7203,15961,24169,0.0
-7194,15536,24102,0.0
-7211,15175,24121,0.0
-7194,14745,24024,0.0
-7219,14410,24073,0.0
-7229,14049,24070,0.0
-7229,13670,24029,0.0
-7217,13276,23953,0.0
-7242,12955,24000,0.0
-10055,17482,33268,0.0
-10046,16970,33183,0.0
-10020,16435,33044,0.0
-9985,15897,32877,0.0
-9220,14241,30311,0.0
-9158,13714,30060,0.0
-9171,13306,30052,0.0
-9209,12939,30130,0.0
-9132,12414,29828,0.0
-9371,12318,30560,0.0
-9625,12222,31334,0.0
-9809,12025,31881,0.0
-9909,11716,32155,0.0
-9875,11250,31993,0.0
-9818,10766,31754,0.0
0,0,0,0.0
-9793,9915,31569,0.0
-9767,9483,31433,0.0
-9799,9111,31481,0.0
-9916,8814,31801,0.0
-7807,6624,24996,0.0
-7785,6294,24883,0.0
-7784,5984,24837,0.0
-7767,5664,24740,0.0
-7761,5356,24677,0.0
-7746,5045,24587,0.0
-7752,4750,24562,0.0
-7741,4446,24485,0.0
-7744,4153,24450,0.0
-7719,3848,24325,0.0
-7701,3550,24223,0.0
-7715,3269,24221,0.0
-7696,2975,24120,0.0
-7687,2688,24047,0.0
-7681,2405,23983,0.0
-7686,2125,23951,0.0
-7670,1843,23857,0.0
-7664,1565,23793,0.0
-7667,1290,23756,0.0
-7650,1014,23656,0.0
-7651,742,23614,0.0
-7640,470,23532,0.0
-7630,199,23456,0.0
-7624,-67,23389,0.0
-7628,-335,23355,0.0
-7554,-596,23081,0.0
-7623,-866,23244,0.0
-7962,-1181,24225,0.0
-8355,-1528,25367,2.0
-8702,-1892,26363,2.0
-8740,-2201,26422,2.0
-8825,-2526,26620,2.0
-8932,-2862,26885,2.0
-9022,-3199,27096,2.0
-9075,-3527,27195,2.0
-9178,-3880,27439,2.0
-9237,-4220,27554,2.0
-9298,-4563,27671,2.0
-9352,-4907,27766,2.0
-9392,-5246,27819,2.0
-9456,-5603,27944,2.0
-9439,-5912,27824,2.0
-9415,-6217,27690,2.0
-9391,-6518,27550,2.0
-9593,-6984,28074,2.0
-9638,-7342,28136,2.0
-9693,-7711,28220,2.0
-9796,-8126,28448,2.0
-9853,-8507,28538,2.0
-9849,-8838,28454,2.0
-9877,-9199,28457,2.0
-9831,-9490,28248,2.0
-9806,-9800,28099,2.0
-9735,-10062,27820,2.0
-9668,-10323,27549,2.0
-9660,-10646,27449,2.0
-9491,-10786,26890,2.0
-9558,-11192,27004,2.0
-9628,-11606,27122,2.0
-9700,-12028,27241,2.0
-9739,-12414,27267,2.0
-9810,-12845,27380,2.0
-9831,-13217,27354,2.0
-9829,-13559,27261,2.0
-9754,-13799,26967,2.0
-9674,-14029,26660,2.0
-9531,-14160,26180,2.0
-9507,-14463,26026,2.0
-9474,-14751,25846,2.0
-9436,-15031,25653,2.0
-9386,-15291,25429,2.0
-9337,-15550,25206,2.0
-9229,-15706,24821,2.0
-9179,-15961,24600,2.0
-9146,-16241,24419,2.0
-9070,-16443,24124,2.0
-8941,-16543,23688,2.0
-8737,-16494,23056,0.0
-8468,-16307,22257,0.0
-8254,-16209,21605,0.0
-8040,-16099,20959,0.0
-7878,-16079,20450,0.0
-7707,-16029,19919,0.0
-7645,-16201,19672,0.0
-7685,-16590,19687,0.0
-7695,-16920,19624,0.0
-7704,-17248,19554,0.0
-7721,-17600,19504,0.0
-7727,-17932,19428,0.0
-7732,-18262,19344,0.0
-7751,-18630,19293,0.0
-7741,-18933,19171,0.0
-7760,-19311,19119,0.0
-7779,-19690,19061,0.0
-7792,-20061,18990,0.0
-7799,-20422,18901,0.0
-7798,-20765,18791,0.0
-7815,-21162,18723,0.0
-7840,-21585,18671,0.0
-7843,-21951,18563,0.0
-7841,-22311,18445,0.0
-7866,-22749,18383,0.0
-7870,-23136,18274,0.0
-7817,-23356,18028,0.0
0,0,0,0.0
-605,-1870,1379,0.0
0,0,0,0.0
0,0,0,0.0
0,0,0,0.0
0,0,0,0.0
0,0,0,0.0
0,0,0,0.0
0,0,0,0.0
0,0,0,0.0
0,0,0,0.0
0,0,0,0.0
0,0,0,0.0
0,0,0,0.0
0,0,0,0.0
0,0,0,0.0
0,0,0,0.0
0,0,0,0.0
-542,-2199,1056,0.0
-38,-161,75,0.0
-47,-200,91,0.0
-48,-207,91,0.0
-52,-226,97,0.0
-58,-260,108,0.0
-60,-272,110,0.0
-66,-301,117,0.0
-69,-320,121,0.0
-71,-335,122,0.0
-71,-341,120,0.0
-70,-347,118,0.0
-69,-342,112,0.0
-68,-344,109,0.0
-68,-349,106,0.0
-65,-344,101,0.0
-64,-346,97,0.0
-64,-352,95,0.0
-3436,16063,14846,0.0
-3510,16000,15106,0.0
-3588,15952,15388,0.0
-3667,15902,15672,0.0
-3741,15825,15934,0.0
-3824,15779,16233,0.0
-3889,15654,16454,0.0
-3984,15638,16797,0.0
-4057,15535,17052,0.0
-4048,15122,16963,0.0
-4109,14969,17162,0.0
-4106,14591,17097,0.0
-4413,15296,18323,0.0
-4501,15214,18631,0.0
-4596,15150,18970,0.0
-4675,15025,19240,0.0
-4772,14952,19580,0.0
-4866,14866,19915,0.0
-4846,14430,19777,0.0
-4837,14039,19689,0.0
-5189,14671,21058,0.0
-5297,14593,21441,0.0
-5407,14510,21830,0.0
-5517,14420,22220,0.0
-5637,14344,22642,0.0
-5753,14249,23050,0.0
-5868,14143,23449,0.0
-5971,14001,23803,0.0
-6101,13912,24260,0.0
-6127,13584,24305,0.0
-6138,13226,24289,0.0
-6163,12902,24330,0.0
-8404,17085,33098,0.0
-7073,13958,27791,0.0
-8390,16064,32888,0.0
-8397,15593,32842,0.0
-8385,15091,32716,0.0
-7743,13500,30144,0.0
-7774,13122,30195,0.0
-7859,12836,30456,0.0
-8093,12779,31291,0.0
-8134,12410,31382,0.0
-8387,12353,32286,0.0
-8345,11857,32054,0.0
-8355,11439,32019,0.0
-8362,11023,31976,0.0
-8355,10592,31878,0.0
-8315,10127,31657,0.0
-8290,9688,31495,0.0
-8259,9248,31307,0.0
-8336,8932,31529,0.0
-8507,8708,32107,0.0
-6628,6471,24964,0.0
-6635,6167,24938,0.0
-6634,5857,24882,0.0
-6624,5543,24790,0.0
-6642,5253,24802,0.0
-6637,4950,24734,0.0
-6639,4652,24687,0.0
-6657,4368,24704,0.0
-6602,4040,24448,0.0
-6651,3778,24577,0.0
-6663,3494,24572,0.0
-6663,3205,24516,0.0
-6667,2920,24480,0.0
-6662,2633,24409,0.0
-6658,2349,24343,0.0
-6668,2070,24329,0.0
-6680,1793,24320,0.0
-6683,1515,24279,0.0
-6682,1237,24220,0.0
-6591,948,23843,0.0
-6677,685,24100,0.0
-6688,413,24091,0.0
-6700,140,24081,0.0
-6705,-131,24047,0.0
-6690,-401,23944,0.0
-6689,-670,23886,0.0
-6679,-938,23798,0.0
-6812,-1229,24220,0.0
-6812,-1501,24165,0.0
-6806,-1770,24092,0.0
-6799,-2037,24010,0.0
-6798,-2307,23958,0.0
-6798,-2575,23901,0.0
-6829,-2857,23958,0.0
-6803,-3113,23809,0.0
-6797,-3377,23734,0.0
-6803,-3647,23704,0.0
-6791,-3907,23608,0.0
-6809,-4184,23615,0.0
-6785,-4435,23476,0.0
-6783,-4698,23413,0.0
-6791,-4969,23387,0.0
-6792,-5236,23338,0.0
-6779,-5490,23235,0.0
-6793,-5767,23226,0.0
-6804,-6041,23207,0.0
-6771,-6278,23041,0.0
-6785,-6557,23032,0.0
-6769,-6806,22918,0.0
-6773,-7076,22874,0.0
-6778,-7349,22837,0.0
-6789,-7628,22813,0.0
-6785,-7893,22745,0.0
-6782,-8157,22674,0.0
-6795,-8442,22657,0.0
-6787,-8703,22573,0.0
-6770,-8951,22456,0.0
-6774,-9226,22407,0.0
-6786,-9516,22387,0.0
-6790,-9795,22337,0.0
-6797,-10080,22299,0.0
-6799,-10358,22241,0.0
-6783,-10611,22127,0.0
-6785,-10892,22070,0.0
-6780,-11162,21991,0.0
-6799,-11474,21985,0.0
-6801,-11760,21927,0.0
-6781,-12009,21798,0.0
-6790,-12311,21762,0.0
-6783,-12585,21672,0.0
-6780,-12867,21593,0.0
-6797,-13189,21579,0.0
-6794,-13476,21500,0.0
-6791,-13764,21421,0.0
-6795,-14068,21362,0.0
-6800,-14378,21307,0.0
-6790,-14657,21203,0.0
-6792,-14964,21136,0.0
-6796,-15280,21076,0.0
-6803,-15602,21020,0.0
-6798,-15902,20929,0.0
-6806,-16236,20878,0.0
-6693,-16276,20454,0.0
-7278,-18042,22158,0.0
-7294,-18428,22123,0.0
-7298,-18788,22049,0.0
-7304,-19154,21976,0.0
-6716,-17942,20127,0.0
-7311,-19890,21817,0.0
-7320,-20281,21754,0.0
-6731,-18988,19917,0.0
-7347,-21103,21646,0.0
-7343,-21469,21537,0.0
-7339,-21838,21425,0.0
-6724,-20366,19540,0.0
-7364,-22697,21297,0.0
-6706,-21036,19303,0.0
-6750,-21544,19333,0.0
-7385,-23981,21045,0.0
-7389,-24411,20947,0.0
-6715,-22566,18934,0.0
-6682,-22846,18741,0.0
-7110,-24726,19830,0.0
0,0,0,0.0
-506,-1820,1395,0.0
0,0,0,0.0
0,0,0,0.0
0,0,0,0.0
0,0,0,0.0
0,0,0,0.0
0,0,0,0.0
0,0,0,0.0
0,0,0,0.0
0,0,0,0.0
0,0,0,0.0
0,0,0,0.0
0,0,0,0.0
0,0,0,0.0
0,0,0,0.0
0,0,0,0.0
0,0,0,0.0
-34,-169,85,0.0
-36,-181,89,0.0
-35,-179,85,0.0
-36,-188,87,0.0
-39,-210,94,0.0
-41,-218,95,0.0
-43,-234,100,0.0
-44,-244,101,0.0
-49,-278,111,0.0
-52,-300,116,0.0
-56,-328,123,0.0
-58,-347,126,0.0
-56,-341,120,0.0
-55,-339,114,0.0
-54,-341,112,0.0
-54,-346,109,0.0
-53,-350,105,0.0
-51,-344,100,0.0
-51,-348,97,0.0
-4140,39135,37340,0.0
-1656,15098,14716,0.0
-1688,14856,14792,0.0
-2068,17577,17878,0.0
-3798,31188,32409,0.0
-3888,30853,32756,0.0
-2271,17428,18904,0.0
-2304,17100,18952,0.0
-2313,16611,18812,0.0
-2329,16192,18739,0.0
-2348,15797,18685,0.0
-2356,15358,18567,0.0
-2273,14349,17733,0.0
-2366,14468,18279,0.0
-2406,14252,18411,0.0
-2668,15320,20236,0.0
-2846,15836,21395,0.0
-2684,14475,20005,0.0
-2692,14075,19902,0.0
-2890,14648,21194,0.0
-2814,13819,20465,0.0
-2915,13882,21046,0.0
-2943,13580,21084,0.0
-4254,19031,30262,0.0
-4311,18690,30450,0.0
-4399,18478,30851,0.0
-3867,15740,26942,0.0
-3951,15583,27350,0.0
-4050,15471,27853,0.0
-4071,15059,27824,0.0
-4085,14628,27745,0.0
-3884,13464,26226,0.0
-4094,13729,27478,0.0
-4006,12992,26730,0.0
-4017,12600,26659,0.0
-4274,12958,28211,0.0
-4380,12829,28756,0.0
-4521,12786,29523,0.0
-4646,12681,30182,0.0
-4792,12617,30978,0.0
-4847,12304,31182,0.0
-5006,12241,32047,0.0
-5035,11852,32081,0.0
-5022,11370,31847,0.0
-5060,11010,31942,0.0
0,0,0,0.0
-5060,10141,31662,0.0
-5047,9691,31444,0.0
-5039,9259,31256,0.0
-5084,8930,31411,0.0
-5213,8738,32075,0.0
-5344,8535,32747,0.0
-4471,6794,27292,0.0
-4567,6589,27770,0.0
-4594,6280,27832,0.0
-4586,5926,27679,0.0
-4598,5603,27654,0.0
-4592,5259,27514,0.0
-4591,4927,27409,0.0
-4591,4600,27316,0.0
-4604,4287,27295,0.0
-4599,3962,27176,0.0
-4601,3646,27102,0.0
-4608,3336,27053,0.0
-4601,3018,26920,0.0
-4607,2714,26875,0.0
-4604,2405,26774,0.0
-4607,2101,26698,0.0
-4603,1798,26599,0.0
-4435,1444,25551,0.0
-4580,1195,26308,0.0
-4502,885,25783,0.0
-4524,602,25838,0.0
-4601,320,26204,0.0
-4608,30,26167,0.0
-4599,-257,26050,0.0
-4592,-543,25937,0.0
-4592,-828,25870,0.0
-4599,-1113,25838,0.0
-4596,-1396,25752,0.0
-4594,-1676,25677,0.0
-4587,-1954,25572,0.0
-4592,-2236,25534,0.0
-4592,-2515,25470,0.0
-4588,-2791,25390,0.0
-4585,-3065,25305,0.0
-4582,-3340,25231,0.0
-4582,-3616,25167,0.0
-4576,-3887,25081,0.0
-4574,-4160,25006,0.0
-4580,-4441,24981,0.0
-4574,-4710,24893,0.0
-4562,-4973,24773,0.0
-4560,-5245,24708,0.0
-4565,-5526,24679,0.0
-4557,-5790,24583,0.0
-4553,-6060,24508,0.0
-4547,-6328,24429,0.0
-4539,-6590,24327,0.0
-4537,-6863,24267,0.0
-4539,-7143,24231,0.0
-4527,-7401,24117,0.0
-4525,-7674,24055,0.0
-4526,-7956,24015,0.0
-4526,-8234,23966,0.0
-4520,-8504,23888,0.0
-4513,-8773,23804,0.0
-4512,-9054,23752,0.0
-4509,-9333,23692,0.0
-4509,-9616,23643,0.0
-4509,-9905,23602,0.0
-4510,-10196,23561,0.0
-4502,-10467,23472,0.0
-4491,-10736,23376,0.0
-4496,-11042,23360,0.0
-4482,-11304,23246,0.0
-4484,-11609,23217,0.0
-4475,-11884,23125,0.0
-4480,-12201,23110,0.0
-4474,-12490,23038,0.0
-4476,-12807,23013,0.0
-4469,-13097,22936,0.0
-4470,-13414,22900,0.0
-4464,-13714,22831,0.0
-4466,-14041,22801,0.0
-4463,-14357,22749,0.0
-4452,-14649,22655,0.0
-4455,-14994,22637,0.0
-4452,-15315,22578,0.0
-4445,-15634,22511,0.0
-4436,-15948,22431,0.0
-4441,-16311,22415,0.0
-4431,-16628,22331,0.0
-4430,-16986,22294,0.0
-4420,-17308,22207,0.0
-4419,-17666,22160,0.0
-4399,-17958,22026,0.0
-4401,-18345,22002,0.0
-4394,-18703,21937,0.0
-4400,-19119,21932,0.0
-4383,-19445,21818,0.0
-4379,-19825,21759,0.0
-4368,-20192,21679,0.0
-4363,-20583,21619,0.0
-4354,-20963,21540,0.0
-4343,-21340,21452,0.0
-4334,-21739,21380,0.0
-4324,-22137,21300,0.0
-7,-35,32,0.0
-4306,-22965,21146,0.0
-4304,-23431,21108,0.0
-4280,-23782,20957,0.0
-4275,-24246,20900,0.0
-4265,-24699,20824,0.0
-14,-80,67,0.0
-4071,-24574,19818,0.0
0,0,0,0.0
-15,-97,75,0.0
-293,-1889,1424,0.0
-290,-1902,1402,0.0
-290,-1947,1402,0.0
-286,-1964,1382,0.0
0,0,0,0.0
0,0,0,0.0
0,0,0,0.0
0,0,0,0.0
0,0,0,0.0
0,0,0,0.0
0,0,0,0.0
-257,-2112,1227,0.0
-253,-2132,1209,0.0
-18,-154,84,0.0
-18,-157,84,0.0
-19,-171,90,0.0
-19,-174,89,0.0
-19,-182,91,0.0
-20,-197,95,0.0
-21,-203,96,0.0
-21,-225,103,0.0
-22,-236,105,0.0
-22,-248,106,0.0
-23,-256,107,0.0
-23,-272,110,0.0
-26,-302,118,0.0
-26,-325,124,0.0
-27,-335,124,0.0
-25,-332,118,0.0
-25,-337,116,0.0
-25,-342,114,0.0
-24,-345,110,0.0
-24,-349,108,0.0
-23,-354,105,0.0
-532,16703,16180,0.0
-572,16494,16321,0.0
-611,16296,16473,0.0
-569,14083,14542,0.0
-600,13858,14619,0.0
-1366,29475,31766,0.0
-1428,28900,31822,0.0
-1477,28103,31618,0.0
-1548,27762,31915,0.0
-1593,26980,31697,0.0
-1604,25711,30869,0.0
-1668,25352,31111,0.0
-1713,24715,31004,0.0
-1737,23827,30558,0.0
-1172,15308,20073,0.0
-1869,23283,31221,0.0
-1231,14627,20061,0.0
-1323,15018,21071,0.0
-1364,14801,21245,0.0
-1388,14407,21164,0.0
-2046,20334,30573,0.0
-2047,19481,29987,0.0
-2127,19408,30592,0.0
-2160,18896,30510,0.0
-2221,18639,30835,0.0
-2253,18147,30767,0.0
-2495,19296,33539,0.0
-2526,18749,33419,0.0
-2555,18217,33311,0.0
-2584,17700,33215,0.0
-2179,14338,27624,0.0
-2206,13945,27594,0.0
-2228,13529,27508,0.0
-2254,13149,27485,0.0
-2284,12797,27514,0.0
-2326,12520,27699,0.0
-2314,11956,27238,0.0
-2333,11569,27154,0.0
-2344,11159,27001,0.0
-2551,11649,29079,0.0
-2582,11306,29140,0.0
-2865,12024,32017,0.0
-2901,11662,32113,0.0
0,0,0,0.0
-2928,10783,31837,0.0
-2953,10396,31828,0.0
0,0,0,0.0
-2967,9519,31450,0.0
-2977,9109,31325,0.0
-3028,8816,31599,0.0
-3117,8630,32288,0.0
-2612,6867,26863,0.0
-2711,6758,27690,0.0
-2746,6476,27851,0.0
-2751,6124,27704,0.0
-2764,5799,27664,0.0
-2772,5463,27561,0.0
-2777,5131,27452,0.0
-2784,4805,27355,0.0
-2796,4489,27303,0.0
-2800,4165,27185,0.0
-2810,3855,27137,0.0
-2814,3538,27025,0.0
-2823,3231,26968,0.0
-2826,2921,26866,0.0
-2837,2622,26832,0.0
-2840,2317,26728,0.0
-2853,2023,26728,0.0
-2797,1687,26081,0.0
-2757,1375,25598,0.0
-2776,1097,25659,0.0
-2771,812,25510,0.0
-2802,536,25686,0.0
-2868,260,26186,0.0
-2869,-25,26094,0.0
-2865,-309,25957,0.0
-2873,-593,25933,0.0
-2877,-874,25879,0.0
-2880,-1155,25814,0.0
-2879,-1433,25720,0.0
-2876,-1708,25604,0.0
-2883,-1989,25592,0.0
-2878,-2260,25471,0.0
-2883,-2538,25437,0.0
-2879,-2807,25322,0.0
-2880,-3082,25271,0.0
-2879,-3352,25189,0.0
-2878,-3622,25113,0.0
-2878,-3893,25054,0.0
-2878,-4165,24993,0.0
-2877,-4435,24929,0.0
-2876,-4706,24865,0.0
-2873,-4971,24780,0.0
-2871,-5239,24710,0.0
-2865,-5500,24611,0.0
-2863,-5769,24548,0.0
-2860,-6036,24476,0.0
-2856,-6299,24398,0.0
-2852,-6565,24325,0.0
-2849,-6835,24264,0.0
-2844,-7100,24188,0.0
-2841,-7370,24127,0.0
-2836,-7636,24052,0.0
-2833,-7910,24001,0.0
-2832,-8187,23956,0.0
-2830,-8467,23917,0.0
-2819,-8721,23805,0.0
-2817,-9003,23763,0.0
-2810,-9269,23684,0.0
-2805,-9547,23627,0.0
-2797,-9815,23544,0.0
-2795,-10108,23520,0.0
-2790,-10392,23470,0.0
-2777,-10643,23346,0.0
-2775,-10943,23324,0.0
-2696,-10933,22656,0.0
-2740,-11422,23024,0.0
-2756,-11808,23161,0.0
-2752,-12115,23137,0.0
-2745,-12411,23085,0.0
-2738,-12704,23023,0.0
-2728,-12995,22954,0.0
-2724,-13313,22929,0.0
-2712,-13604,22852,0.0
-2640,-13581,22257,0.0
-2628,-13866,22176,0.0
-2676,-14477,22601,0.0
-2673,-14832,22609,0.0
-2662,-15144,22543,0.0
-2652,-15462,22483,0.0
-2643,-15802,22450,0.0
-2635,-16145,22413,0.0
-2622,-16465,22340,0.0
-2610,-16799,22280,0.0
-2595,-17120,22199,0.0
-2588,-17505,22195,0.0
-2567,-17795,22064,0.0
-2556,-18169,22033,0.0
-2539,-18500,21941,0.0
-2523,-18848,21867,0.0
-2510,-19224,21819,0.0
-2493,-19586,21748,0.0
-2476,-19944,21667,0.0
-2456,-20298,21575,0.0
-2437,-20662,21488,0.0
-2426,-21106,21479,0.0
-2403,-21464,21373,0.0
-2387,-21889,21327,0.0
-2368,-22299,21259,0.0
-2345,-22684,21160,0.0
-2324,-23103,21086,0.0
-2302,-23528,21011,0.0
-2279,-23947,20922,0.0
-2255,-24375,20835,0.0
-2235,-24859,20786,0.0
-9,-101,82,0.0
-2092,-24682,19744,0.0
0,0,0,0.0
-158,-1979,1514,0.0
0,0,0,0.0
0,0,0,0.0
-139,-1924,1375,0.0
0,0,0,0.0
0,0,0,0.0
0,0,0,0.0
0,0,0,0.0
0,0,0,0.0
0,0,0,0.0
0,0,0,0.0
0,0,0,0.0
0,0,0,0.0
-107,-2141,1205,0.0
0,0,0,0.0
-7,-169,90,0.0
-7,-171,89,0.0
-7,-166,83,0.0
-7,-182,90,0.0
-8,-213,102,0.0
-8,-222,104,0.0
-7,-237,107,0.0
-7,-239,105,0.0
-8,-253,108,0.0
-7,-262,109,0.0
-6,-267,108,0.0
-7,-285,110,0.0
-6,-322,121,0.0
-6,-335,122,0.0
-6,-349,123,0.0
-5,-344,117,0.0
-4,-349,115,0.0
-3,-352,112,0.0
-2,-346,106,0.0
258,14305,13962,0.0
522,32592,32493,0.0
213,15314,15596,0.0
192,16320,16979,0.0
131,13626,14481,0.0
99,13388,14536,0.0
81,15597,17302,0.0
44,15125,17144,0.0
9,14983,17354,0.0
-29,16909,20014,0.0
-67,16410,19849,0.0
-105,16205,20036,0.0
-144,15994,20215,0.0
-273,23620,30519,0.0
-330,23336,30831,0.0
-382,22766,30759,0.0
-283,14544,20099,0.0
-333,14990,21191,0.0
-367,14657,21199,0.0
-401,14330,21211,0.0
0,0,0,0.0
-666,19604,30408,0.0
-704,18987,30160,0.0
-756,18770,30540,0.0
-805,18468,30787,0.0
-925,19675,33616,0.0
-964,19100,33456,0.0
-1004,18552,33327,0.0
-825,14260,26282,0.0
-1081,17522,33141,0.0
-933,14192,27560,0.0
-964,13803,27531,0.0
-992,13383,27431,0.0
-1029,13094,27591,0.0
-1034,12421,26922,0.0
-1073,12185,27181,0.0
-1186,12741,29263,0.0
-1107,11262,26653,0.0
-1149,11062,26993,0.0
-1403,12792,32203,0.0
-1421,12275,31905,0.0
-1456,11921,32017,0.0
-1485,11522,32001,0.0
-1505,11069,31822,0.0
0,0,0,0.0
0,0,0,0.0
0,0,0,0.0
-1583,9364,31226,0.0
-1614,9028,31339,0.0
-1656,8755,31677,0.0
-1719,8583,32426,0.0
-1464,6891,27225,0.0
-1513,6707,27759,0.0
-1530,6378,27714,0.0
-1547,6053,27676,0.0
-1563,5727,27619,0.0
-1572,5386,27471,0.0
-1586,5065,27407,0.0
-1599,4745,27337,0.0
-1612,4430,27272,0.0
-1621,4106,27136,0.0
-1634,3799,27101,0.0
-1643,3487,27007,0.0
-1653,3180,26927,0.0
-1663,2876,26862,0.0
-1650,2539,26424,0.0
-1608,2175,25545,0.0
-1617,1892,25497,0.0
-1625,1610,25435,0.0
-1632,1327,25348,0.0
-1640,1050,25309,0.0
-1649,774,25281,0.0
-1653,496,25190,0.0
-1663,223,25183,0.0
-1686,-50,25376,0.0
-1712,-330,25633,0.0
-1740,-616,25911,0.0
-1744,-895,25841,0.0
-1749,-1174,25787,0.0
-1751,-1450,25686,0.0
-1751,-1722,25575,0.0
-1756,-2000,25545,0.0
-1760,-2276,25495,0.0
-1760,-2546,25401,0.0
-1762,-2817,25326,0.0
-1765,-3092,25293,0.0
-1765,-3362,25218,0.0
-1763,-3626,25106,0.0
-1763,-3894,25037,0.0
-1763,-4163,24974,0.0
-1764,-4436,24932,0.0
-1763,-4703,24863,0.0
-1695,-4782,23859,0.0
-1679,-4994,23580,0.0
-1740,-5443,24389,0.0
-1754,-5761,24552,0.0
-1750,-6024,24473,0.0
-1739,-6257,24280,0.0
-1744,-6555,24339,0.0
-1742,-6827,24294,0.0
-1738,-7092,24225,0.0
-1731,-7348,24122,0.0
-1729,-7627,24092,0.0
-1721,-7881,23987,0.0
-1702,-8080,23719,0.0
-1670,-8217,23287,0.0
-1664,-8476,23214,0.0
-1697,-8946,23698,0.0
-1687,-9200,23592,0.0
-1684,-9495,23586,0.0
-1679,-9782,23557,0.0
-1671,-10046,23470,0.0
-1664,-10332,23431,0.0
-1658,-10625,23402,0.0
-1648,-10896,23322,0.0
-1626,-11084,23067,0.0
-1630,-11457,23195,0.0
-1622,-11757,23165,0.0
-1611,-12037,23091,0.0
-1601,-12326,23032,0.0
-1591,-12624,22985,0.0
-1581,-12925,22939,0.0
-1569,-13210,22861,0.0
-1555,-13498,22785,0.0
-1547,-13832,22782,0.0
-1533,-14132,22716,0.0
-1521,-14448,22671,0.0
-1508,-14760,22615,0.0
-1494,-15074,22558,0.0
-1479,-15400,22513,0.0
-1462,-15696,22420,0.0
-1448,-16032,22381,0.0
-1432,-16359,22320,0.0
-1415,-16691,22262,0.0
-1396,-16999,22169,0.0
-1381,-17364,22142,0.0
-1360,-17682,22052,0.0
-1341,-18018,21979,0.0
-1323,-18391,21943,0.0
-1304,-18762,21898,0.0
-1281,-19086,21796,0.0
-1259,-19453,21733,0.0
-1237,-19824,21672,0.0
-1214,-20199,21607,0.0
-1190,-20566,21528,0.0
-1165,-20942,21450,0.0
-1141,-21351,21401,0.0
-1113,-21717,21301,0.0
-1087,-22117,21229,0.0
-1060,-22551,21181,0.0
-1032,-22961,21102,0.0
-1001,-23348,20997,0.0
-970,-23773,20918,0.0
-938,-24190,20825,0.0
-907,-24646,20758,0.0
-868,-24894,20511,0.0
-58,-1761,1419,0.0
0,0,0,0.0
-55,-1899,1464,0.0
-51,-1881,1418,0.0
-49,-1943,1432,0.0
0,0,0,0.0
0,0,0,0.0
0,0,0,0.0
0,0,0,0.0
0,0,0,0.0
0,0,0,0.0
0,0,0,0.0
0,0,0,0.0
0,0,0,0.0
0,0,0,0.0
0,0,0,0.0
0,0,0,0.0
-4,-2174,1174,0.0
0,-173,91,0.0
0,-191,98,0.0
0,-183,91,0.0
0,-205,99,0.0
1,-199,94,0.0
1,-238,109,0.0
1,-228,102,0.0
2,-249,108,0.0
2,-259,108,0.0
3,-257,105,0.0
4,-290,114,0.0
5,-315,121,0.0
6,-338,125,0.0
7,-337,120,0.0
7,-349,120,0.0
9,-354,118,0.0
9,-349,112,0.0
10,-352,110,0.0
1219,15016,14751,0.0
1071,13379,13425,0.0
1050,13311,13644,0.0
1045,13433,14066,0.0
1044,13621,14570,0.0
997,13214,14440,0.0
980,13187,14725,0.0
1040,14227,16231,0.0
1020,14177,16526,0.0
920,13001,15488,0.0
895,12873,15673,0.0
867,12697,15803,0.0
1226,18256,23225,0.0
1198,18160,23620,0.0
1515,23397,31116,0.0
918,14462,19668,0.0
893,14343,19952,0.0
868,14236,20259,0.0
874,14629,21300,0.0
825,14099,21009,0.0
802,14027,21396,0.0
1086,19422,30330,0.0
1048,19200,30706,0.0
867,16271,26653,0.0
824,15861,26622,0.0
777,15369,26440,0.0
704,14330,25275,0.0
682,14290,25850,0.0
655,14124,26213,0.0
615,13694,26084,0.0
571,13151,25720,0.0
534,12736,25584,0.0
511,12638,26090,0.0
509,13072,27745,0.0
479,12855,28063,0.0
417,11694,26275,0.0
381,11211,25939,0.0
363,11233,26782,0.0
335,10956,26934,0.0
365,12662,32116,0.0
331,12271,32137,0.0
296,11829,32012,0.0
263,11413,31945,0.0
231,10983,31824,0.0
200,10563,31714,0.0
169,10173,31678,0.0
140,9777,31619,0.0
110,9273,31180,0.0
85,8973,31406,0.0
59,8725,31840,0.0
33,8538,32534,0.0
9,8382,33402,0.0
-14,6647,27760,0.0
-34,6312,27681,0.0
-55,5997,27675,0.0
-74,5655,27529,0.0
-92,5336,27481,0.0
-110,5006,27365,0.0
-127,4681,27246,0.0
-144,4377,27239,0.0
-160,4054,27092,0.0
-175,3749,27054,0.0
-190,3441,26970,0.0
-204,3133,26872,0.0
-217,2831,26801,0.0
-230,2535,26759,0.0
-242,2231,26623,0.0
-243,1851,25380,0.0
-254,1572,25332,0.0
-264,1296,25293,0.0
-278,1034,25608,0.0
-285,749,25355,0.0
-297,479,25540,0.0
-312,207,26108,0.0
-321,-75,26056,0.0
-328,-355,25974,0.0
-335,-634,25878,0.0
-341,-911,25787,0.0
-347,-1188,25745,0.0
-352,-1461,25642,0.0
-357,-1738,25617,0.0
-361,-2006,25492,0.0
-366,-2278,25416,0.0
-369,-2551,25374,0.0
-372,-2821,25302,0.0
-375,-3091,25250,0.0
-377,-3360,25178,0.0
-379,-3629,25121,0.0
-380,-3892,25032,0.0
-381,-4159,24959,0.0
-381,-4423,24887,0.0
-381,-4689,24821,0.0
-380,-4956,24759,0.0
-379,-5217,24678,0.0
-378,-5492,24656,0.0
-375,-5745,24537,0.0
-372,-6009,24471,0.0
-370,-6273,24406,0.0
-366,-6538,24342,0.0
-363,-6804,24281,0.0
-359,-7062,24189,0.0
-354,-7333,24145,0.0
-344,-7501,23772,0.0
-335,-7670,23421,0.0
-329,-7922,23337,0.0
-326,-8290,23577,0.0
-324,-8669,23829,0.0
-315,-8923,23725,0.0
-307,-9169,23602,0.0
-300,-9471,23621,0.0
-291,-9740,23549,0.0
-281,-10008,23477,0.0
-271,-10273,23396,0.0
-261,-10570,23380,0.0
-250,-10823,23267,0.0
-240,-11120,23245,0.0
-228,-11415,23213,0.0
-215,-11689,23137,0.0
-203,-11976,23081,0.0
-189,-12273,23041,0.0
-175,-12555,22971,0.0
-161,-12847,22912,0.0
-145,-13118,22813,0.0
-130,-13456,22826,0.0
-113,-13759,22775,0.0
-96,-14072,22734,0.0
-79,-14345,22625,0.0
-61,-14668,22592,0.0
-42,-14983,22540,0.0
-22,-15061,22136,0.0
-2,-15229,21870,0.0
17,-15520,21783,0.0
40,-16232,22267,0.0
62,-16595,22258,0.0
84,-16907,22173,0.0
108,-17230,22097,0.0
133,-17558,22022,0.0
158,-17927,21994,0.0
184,-18265,21920,0.0
211,-18605,21845,0.0
239,-18978,21801,0.0
268,-19350,21750,0.0
298,-19712,21681,0.0
328,-20063,21593,0.0
359,-20441,21530,0.0
392,-20812,21451,0.0
426,-21221,21406,0.0
461,-21630,21353,0.0
496,-22008,21262,0.0
532,-22398,21176,0.0
570,-22821,21114,0.0
608,-23185,20992,0.0
649,-23644,20947,0.0
690,-24053,20850,0.0
732,-24479,20761,0.0
777,-24953,20705,0.0
801,-24761,20099,0.0
0,0,0,0.0
0,0,0,0.0
0,0,0,0.0
0,0,0,0.0
0,0,0,0.0
0,0,0,0.0
76,-1898,1316,0.0
0,0,0,0.0
0,0,0,0.0
88,-2004,1296,0.0
0,0,0,0.0
0,0,0,0.0
0,0,0,0.0
101,-2051,1204,0.0
0,0,0,0.0
0,0,0,0.0
113,-2139,1165,0.0
7,-153,81,0.0
9,-169,88,0.0
9,-168,85,0.0
10,-185,90,0.0
11,-203,97,0.0
11,-200,92,0.0
13,-220,99,0.0
14,-231,101,0.0
14,-225,96,0.0
15,-238,98,0.0
16,-257,102,0.0
18,-279,108,0.0
23,-331,124,0.0
23,-340,123,0.0
25,-346,121,0.0
24,-340,115,0.0
25,-342,112,0.0
26,-344,108,0.0
1946,13424,13230,0.0
1938,13385,13475,0.0
1941,13422,13804,0.0
1916,13266,13937,0.0
1982,13733,14738,0.0
1905,13212,14487,0.0
1895,13148,14730,0.0
2000,13884,15893,0.0
1988,13797,16139,0.0
1743,12102,14467,0.0
1738,12064,14739,0.0
1957,13578,16956,0.0
1944,13484,17213,0.0
1820,12615,16465,0.0
1807,12512,16697,0.0
1796,12417,16948,0.0
1788,12341,17229,0.0
1789,12321,17596,0.0
1781,12243,17890,0.0
1774,12164,18191,0.0
1769,12094,18513,0.0
1763,12015,18832,0.0
1760,11946,19175,0.0
1754,11864,19507,0.0
1749,11777,19843,0.0
1746,11697,20200,0.0
1741,11605,20548,0.0
1739,11524,20927,0.0
1735,11433,21301,0.0
1735,11354,21711,0.0
1733,11262,22112,0.0
1730,11153,22492,0.0
1733,11077,22957,0.0
1731,10973,23383,0.0
1731,10871,23828,0.0
1733,10768,24295,0.0
1733,10652,24748,0.0
1738,10556,25272,0.0
1739,10431,25751,0.0
1744,10320,26286,0.0
0,0,0,0.0
2045,11749,31934,0.0
2010,11361,31941,0.0
1968,10931,31810,0.0
1931,10532,31760,0.0
1895,10132,31694,0.0
1854,9705,31527,0.0
1802,9224,31155,0.0
1780,8892,31272,0.0
1787,8702,31904,0.0
1475,6982,26733,0.0
1821,8372,33528,0.0
1485,6615,27763,0.0
1459,6283,27689,0.0
1434,5953,27610,0.0
1409,5625,27527,0.0
1384,5297,27429,0.0
1360,4971,27322,0.0
1339,4657,27257,0.0
1318,4345,27193,0.0
1292,4014,26986,0.0
1239,3610,26213,0.0
1257,3413,26931,0.0
1239,3110,26850,0.0
1222,2809,26779,0.0
1206,2511,26716,0.0
1189,2214,26634,0.0
1173,1918,26523,0.0
1116,1567,25495,0.0
1140,1331,26270,0.0
1102,1022,25623,0.0
1078,735,25269,0.0
1064,460,25146,0.0
1031,185,24555,0.0
1019,-79,24458,0.0
1073,-362,25895,0.0
1065,-641,25859,0.0
1057,-918,25796,0.0
1049,-1193,25732,0.0
1029,-1450,25362,0.0
1031,-1734,25500,0.0
1026,-2009,25492,0.0
998,-2229,24862,0.0
995,-2496,24833,0.0
974,-2714,24360,0.0
1010,-3091,25262,0.0
1007,-3361,25213,0.0
1002,-3620,25096,0.0
999,-3885,25015,0.0
997,-4146,24923,0.0
994,-4405,24825,0.0
996,-4677,24802,0.0
995,-4939,24724,0.0
996,-5207,24681,0.0
996,-5462,24573,0.0
999,-5731,24532,0.0
1001,-5989,24447,0.0
1003,-6250,24375,0.0
1005,-6501,24266,0.0
994,-6664,23846,0.0
1012,-7022,24119,0.0
1017,-7281,24042,0.0
1010,-7456,23694,0.0
1001,-7598,23269,0.0
986,-7684,22698,0.0
1039,-8300,23679,0.0
995,-8145,22455,0.0
999,-8365,22308,0.0
1016,-8680,22413,0.0
1019,-8886,22232,0.0
1032,-9158,22215,0.0
1103,-9968,23458,0.0
1111,-10206,23317,0.0
1115,-10399,23079,0.0
1081,-10234,22074,0.0
1092,-10473,21966,0.0
1110,-10776,21989,0.0
1185,-11638,23113,0.0
1192,-11837,22895,0.0
1216,-12192,22971,0.0
1224,-12386,22741,0.0
1241,-12665,22668,0.0
1263,-12989,22670,0.0
1246,-12906,21975,0.0
1237,-12895,21425,0.0
1255,-13154,21330,0.0
1278,-13464,21316,0.0
1300,-13761,21276,0.0
1323,-14056,21225,0.0
1345,-14340,21156,0.0
1366,-14615,21070,0.0
1390,-14908,21005,0.0
1415,-15210,20949,0.0
1439,-15492,20861,0.0
1465,-15792,20793,0.0
1492,-16088,20715,0.0
1496,-16131,20315,0.0
1486,-16024,19740,0.0
1507,-16243,19574,0.0
1539,-16573,19540,0.0
1568,-16868,19457,0.0
1600,-17186,19399,0.0
1630,-17479,19307,0.0
1664,-17807,19248,0.0
1697,-18112,19160,0.0
1733,-18444,19094,0.0
1771,-18801,19048,0.0
1805,-19096,18934,0.0
1848,-19493,18915,0.0
1889,-19841,18842,0.0
1926,-20155,18732,0.0
1965,-20487,18632,0.0
2011,-20869,18573,0.0
2056,-21253,18508,0.0
2099,-21594,18401,0.0
2148,-21987,18329,0.0
2196,-22369,18244,0.0
2245,-22753,18152,0.0
2298,-23163,18074,0.0
2338,-23452,17897,0.0
0,0,0,0.0
0,0,0,0.0
0,0,0,0.0
0,0,0,0.0
0,0,0,0.0
0,0,0,0.0
0,0,0,0.0
0,0,0,0.0
0,0,0,0.0
0,0,0,0.0
0,0,0,0.0
0,0,0,0.0
0,0,0,0.0
235,-2161,1183,0.0
236,-2154,1150,0.0
20,-183,94,0.0
21,-193,97,0.0
21,-193,95,0.0
21,-202,96,0.0
23,-214,99,0.0
26,-233,105,0.0
28,-248,109,0.0
28,-244,104,0.0
28,-246,102,0.0
32,-281,113,0.0
34,-295,114,0.0
37,-321,121,0.0
41,-352,128,0.0
42,-354,125,0.0
44,-358,122,0.0
42,-352,116,0.0
44,-355,112,0.0
-4584,16142,14511,0.0
-4674,16091,14780,0.0
-4762,16034,15047,0.0
-4852,15974,15317,0.0
-4941,15903,15583,0.0
-5025,15814,15833,0.0
-5115,15740,16102,0.0
-5066,15241,15933,0.0
-5155,15161,16198,0.0
-5811,16704,18239,0.0
-5939,16685,18621,0.0
-6010,16501,18824,0.0
-5976,16038,18702,0.0
-5872,15398,18358,0.0
-5905,15127,18442,0.0
-5976,14956,18645,0.0
-5973,14599,18614,0.0
-5988,14294,18642,0.0
-6044,14087,18797,0.0
-9826,22354,30521,0.0
-9752,21653,30259,0.0
0,0,0,0.0
-9767,20643,30235,0.0
-9848,20303,30453,0.0
-9792,19681,30242,0.0
-9931,19458,30637,0.0
-9979,19053,30747,0.0
-10048,18689,30922,0.0
-10052,18208,30898,0.0
-10957,19324,33641,0.0
-10938,18771,33540,0.0
-10911,18215,33415,0.0
-10891,17678,33313,0.0
-10851,17118,33146,0.0
-10857,16640,33124,0.0
-10821,16103,32972,0.0
-9919,14324,30184,0.0
-9772,13685,29696,0.0
-9825,13337,29818,0.0
-9859,12963,29881,0.0
-9888,12585,29927,0.0
-10069,12396,30434,0.0
-10400,12373,31389,0.0
0,0,0,0.0
0,0,0,0.0
-10619,11346,31915,0.0
-10634,10939,31913,0.0
-10754,10639,32225,0.0
-10517,9996,31469,0.0
-10559,9628,31551,0.0
-10505,9176,31341,0.0
-10619,8873,31633,0.0
-8383,6689,24935,0.0
-8390,6379,24915,0.0
-8379,6060,24843,0.0
-8360,5739,24750,0.0
-8361,5435,24712,0.0
-8355,5127,24652,0.0
-8331,4813,24545,0.0
-8332,4515,24506,0.0
-8323,4214,24442,0.0
-8311,3915,24362,0.0
-8295,3615,24274,0.0
-8312,3333,24281,0.0
-8269,3029,24113,0.0
-8269,2743,24070,0.0
-8271,2460,24035,0.0
-8257,2174,23951,0.0
-8248,1891,23882,0.0
-8246,1612,23832,0.0
-8222,1331,23720,0.0
-8232,1056,23702,0.0
-8213,780,23601,0.0
-8214,507,23561,0.0
-8208,235,23497,0.0
-8197,-35,23419,0.0
-8197,-304,23373,0.0
-8081,-564,22999,0.0
-8201,-841,23290,0.0
-8565,-1156,24274,0.0
-8856,-1483,25046,0.0
-9416,-1882,26576,2.0
-9484,-2201,26708,2.0
-9560,-2527,26866,2.0
-9604,-2847,26928,2.0
-9693,-3185,27121,2.0
-9779,-3525,27297,2.0
-9822,-3855,27356,2.0
-9942,-4219,27626,2.0
-10001,-4563,27727,2.0
-10090,-4924,27908,2.0
-10096,-5250,27860,2.0
-10060,-5550,27694,2.0
-10044,-5860,27581,2.0
-10004,-6154,27403,2.0
-10060,-6508,27491,2.0
-10269,-6969,27989,2.0
-10344,-7347,28122,2.0
-10425,-7736,28268,2.0
-10379,-8032,28071,2.0
-10423,-8397,28114,2.0
-10450,-8751,28111,2.0
-10443,-9078,28017,2.0
-10460,-9427,27986,2.0
-10445,-9746,27867,2.0
-10440,-10074,27772,2.0
-10351,-10320,27458,2.0
-10281,-10579,27190,2.0
-10133,-10753,26721,2.0
-10169,-11119,26734,2.0
-10258,-11547,26886,2.0
-10327,-11959,26982,2.0
-10418,-12402,27135,2.0
-10462,-12794,27162,2.0
-10558,-13256,27321,2.0
-10487,-13511,27052,2.0
-10421,-13766,26787,2.0
-10380,-14056,26594,2.0
-10181,-14123,25993,2.0
-10103,-14351,25704,2.0
-10174,-14790,25793,2.0
-10138,-15078,25608,2.0
-10081,-15332,25371,2.0
-10015,-15571,25111,2.0
-9975,-15847,24915,2.0
-9881,-16035,24584,2.0
-9831,-16291,24363,2.0
-9807,-16590,24207,2.0
-9609,-16588,23621,2.0
-9347,-16462,22882,0.0
-9075,-16303,22123,0.0
-8800,-16120,21362,0.0
-8657,-16165,20920,0.0
-8459,-16098,20351,0.0
-8305,-16105,19890,0.0
-8232,-16262,19625,0.0
-8297,-16695,19686,0.0
-8321,-17050,19648,0.0
-8329,-17375,19569,0.0
-8345,-17720,19508,0.0
-8360,-18066,19443,0.0
-8347,-18359,19314,0.0
-8347,-18679,19210,0.0
-8384,-19087,19191,0.0
-8400,-19450,19119,0.0
-8405,-19795,19025,0.0
-8417,-20156,18938,0.0
-8430,-20528,18857,0.0
-8453,-20926,18793,0.0
-8463,-21299,18699,0.0
-8494,-21730,18649,0.0
-8525,-22164,18595,0.0
-8520,-22514,18462,0.0
-8532,-22912,18362,0.0
-8546,-23316,18261,0.0
-8503,-23574,18042,0.0
0,0,0,0.0
0,0,0,0.0
0,0,0,0.0
0,0,0,0.0
0,0,0,0.0
0,0,0,0.0
0,0,0,0.0
0,0,0,0.0
0,0,0,0.0
0,0,0,0.0
0,0,0,0.0
0,0,0,0.0
0,0,0,0.0
0,0,0,0.0
0,0,0,0.0
0,0,0,0.0
0,0,0,0.0
0,0,0,0.0
-45,-170,80,0.0
-51,-196,90,0.0
-53,-208,93,0.0
-52,-206,89,0.0
-57,-232,97,0.0
-60,-248,102,0.0
-66,-275,108,0.0
-72,-301,115,0.0
-81,-342,127,0.0
-79,-343,123,0.0
-78,-347,120,0.0
-77,-344,115,0.0
-74,-340,110,0.0
-74,-344,107,0.0
-73,-347,104,0.0
-72,-349,101,0.0
-71,-345,95,0.0
-70,-348,92,0.0
-4395,16132,14575,0.0
-4480,16075,14838,0.0
-4566,16015,15104,0.0
-4656,15964,15383,0.0
-4720,15815,15571,0.0
-4836,15841,15938,0.0
-4886,15642,16081,0.0
-4950,15488,16271,0.0
-4933,15085,16195,0.0
-4974,14863,16307,0.0
-5295,15459,17337,0.0
-5799,16545,18965,0.0
-9673,26960,31591,0.0
-5529,15055,18035,0.0
-5717,15204,18624,0.0
-5512,14314,17930,0.0
-5761,14611,18719,0.0
-5798,14357,18815,0.0
-5817,14060,18851,0.0
-9800,23116,31714,0.0
0,0,0,0.0
-7209,16189,23270,0.0
-7213,15798,23251,0.0
-7204,15386,23190,0.0
-7204,14999,23159,0.0
-7201,14612,23118,0.0
-7184,14204,23033,0.0
-7163,13792,22931,0.0
-7193,13485,22996,0.0
-10496,19153,33507,0.0
-10487,18619,33432,0.0
-10491,18116,33398,0.0
-10484,17601,33331,0.0
-10450,17047,33174,0.0
-10413,16500,33012,0.0
-10421,16028,32987,0.0
-10412,15538,32910,0.0
-9476,13714,29909,0.0
-9468,13279,29842,0.0
-9542,12960,30028,0.0
-9704,12756,30493,0.0
-9744,12386,30573,0.0
-9985,12266,31283,0.0
-10271,12182,32130,0.0
-10265,11745,32063,0.0
-10276,11329,32045,0.0
-10240,10870,31886,0.0
0,0,0,0.0
-10175,9975,31587,0.0
-10171,9564,31523,0.0
-10118,9113,31309,0.0
-10259,8835,31691,0.0
-8105,6665,24999,0.0
-8106,6351,24961,0.0
-8064,6010,24790,0.0
-8081,5714,24799,0.0
-8074,5404,24738,0.0
-8060,5092,24653,0.0
-8035,4777,24536,0.0
-8037,4481,24499,0.0
-8027,4180,24429,0.0
-8017,3882,24353,0.0
-8009,3587,24286,0.0
-7997,3294,24206,0.0
-7982,3001,24116,0.0
-7984,2718,24079,0.0
-7972,2431,24001,0.0
-7962,2147,23926,0.0
-7963,1868,23886,0.0
-7947,1586,23794,0.0
-7956,1312,23774,0.0
-7935,1034,23666,0.0
-7924,760,23588,0.0
-7929,488,23555,0.0
-7923,217,23493,0.0
-7927,-52,23458,0.0
-7903,-320,23339,0.0
-7835,-582,23090,0.0
-7904,-853,23246,0.0
-8257,-1168,24233,0.0
-8638,-1511,25300,2.0
-9083,-1892,26545,2.0
-9124,-2205,26610,2.0
-9192,-2527,26751,2.0
-9281,-2859,26951,2.0
-9362,-3194,27126,2.0
-9401,-3518,27176,2.0
-9511,-3873,27433,2.0
-9525,-4192,27410,2.0
-9666,-4571,27751,2.0
-9720,-4917,27843,2.0
-9819,-5289,28060,2.0
-9744,-5569,27779,2.0
-9701,-5862,27588,2.0
-9709,-6185,27543,2.0
-9755,-6534,27607,2.0
-9910,-6963,27974,2.0
-9980,-7337,28102,2.0
-10063,-7729,28261,2.0
-10105,-8092,28305,2.0
-10200,-8503,28497,2.0
-10164,-8806,28320,2.0
-10155,-9132,28220,2.0
-10158,-9469,28149,2.0
-10144,-9791,28035,2.0
-10067,-10049,27743,2.0
-10027,-10340,27552,2.0
-9955,-10595,27276,2.0
-9823,-10782,26838,2.0
-9815,-11100,26737,2.0
-9940,-11572,26996,2.0
-10018,-11998,27122,2.0
-10050,-12373,27125,2.0
-10108,-12785,27198,2.0
-10142,-13170,27200,2.0
-10112,-13473,27032,2.0
-10083,-13777,26867,2.0
-10004,-14012,26569,2.0
-9889,-14188,26173,2.0
-9772,-14356,25775,2.0
-9801,-14737,25761,2.0
-9791,-15063,25646,2.0
-9712,-15279,25346,2.0
-9677,-15562,25162,2.0
-9609,-15793,24895,2.0
-9556,-16042,24660,2.0
-9465,-16228,24336,2.0
-9411,-16471,24100,2.0
-9249,-16520,23590,2.0
-9041,-16478,22970,0.0
-8810,-16375,22287,0.0
-8540,-16188,21515,0.0
-8354,-16144,20957,0.0
-8164,-16081,20392,0.0
-7994,-16046,19878,0.0
-7922,-16200,19610,0.0
-7994,-16652,19698,0.0
-8007,-16986,19638,0.0
-8009,-17300,19549,0.0
-8012,-17616,19460,0.0
-8027,-17965,19400,0.0
-8051,-18339,19361,0.0
-8058,-18675,19274,0.0
-8070,-19030,19202,0.0
-8082,-19388,19128,0.0
-8085,-19727,19029,0.0
-8101,-20104,18961,0.0
-8101,-20445,18852,0.0
-8126,-20852,18799,0.0
-8139,-21231,18712,0.0
-8150,-21614,18623,0.0
-8173,-22033,18559,0.0
-8186,-22429,18468,0.0
-8197,-22828,18372,0.0
-8207,-23228,18270,0.0
-8092,-23274,17890,0.0
0,0,0,0.0
0,0,0,0.0
0,0,0,0.0
0,0,0,0.0
0,0,0,0.0
0,0,0,0.0
0,0,0,0.0
0,0,0,0.0
0,0,0,0.0
0,0,0,0.0
0,0,0,0.0
0,0,0,0.0
0,0,0,0.0
0,0,0,0.0
0,0,0,0.0
0,0,0,0.0
0,0,0,0.0
-47,-181,89,0.0
-41,-163,78,0.0
-47,-191,89,0.0
-52,-212,95,0.0
-55,-227,99,0.0
-56,-232,99,0.0
-60,-256,105,0.0
-65,-282,112,0.0
-68,-298,115,0.0
-71,-320,119,0.0
-74,-338,122,0.0
-73,-335,117,0.0
-72,-339,115,0.0
-69,-334,109,0.0
-70,-338,106,0.0
-70,-343,103,0.0
-69,-347,100,0.0
-67,-343,95,0.0
-66,-345,93,0.0
-3244,16054,14897,0.0
-3318,16002,15171,0.0
-3392,15943,15441,0.0
-3466,15886,15719,0.0
-3545,15835,16009,0.0
-3620,15767,16287,0.0
-3686,15649,16517,0.0
-3764,15582,16804,0.0
-3700,14932,16455,0.0
-3908,15374,17315,0.0
-3935,15094,17373,0.0
-3918,14649,17235,0.0
-4179,15235,18322,0.0
-4282,15215,18707,0.0
-4373,15148,19043,0.0
-4443,15001,19286,0.0
-4527,14897,19588,0.0
-4407,14134,19009,0.0
-4566,14269,19633,0.0
-4648,14151,19925,0.0
-4934,14630,21083,0.0
-5047,14576,21503,0.0
-5156,14499,21902,0.0
-5264,14411,22295,0.0
-5376,14325,22704,0.0
-5485,14223,23101,0.0
-5602,14130,23524,0.0
-5716,14022,23936,0.0
-5833,13916,24366,0.0
-5819,13490,24236,0.0
-5893,13273,24477,0.0
-5928,12970,24562,0.0
-6362,13513,26289,0.0
-6498,13394,26779,0.0
-6642,13280,27302,0.0
-6755,13095,27698,0.0
-6860,12886,28055,0.0
-7397,13459,30179,0.0
-7412,13053,30165,0.0
-7574,12902,30745,0.0
-7718,12709,31257,0.0
-7822,12443,31604,0.0
-7992,12270,32211,0.0
-7979,11812,32079,0.0
-7960,11356,31930,0.0
-7972,10947,31904,0.0
-7994,10554,31910,0.0
-7934,10063,31604,0.0
-7977,9705,31699,0.0
-7887,9191,31265,0.0
-7972,8889,31536,0.0
-8154,8682,32177,0.0
-6854,6960,26988,0.0
-7070,6833,27777,0.0
-6461,5929,25325,0.0
-7109,6183,27804,0.0
-7111,5845,27748,0.0
-7119,5514,27717,0.0
-7101,5168,27586,0.0
-6538,4453,25343,0.0
-6521,4141,25221,0.0
-6480,3818,25007,0.0
-6561,3568,25266,0.0
-6528,3255,25081,0.0
-6564,2978,25162,0.0
-6554,2681,25069,0.0
-6558,2393,25030,0.0
-6546,2101,24931,0.0
-6544,1814,24867,0.0
-6559,1532,24869,0.0
-6545,1247,24764,0.0
-6528,962,24644,0.0
-6485,678,24430,0.0
-6550,406,24617,0.0
-6545,128,24546,0.0
-6535,-147,24455,0.0
-6541,-423,24424,0.0
-6397,-681,23831,0.0
-6499,-963,24159,0.0
-6530,-1240,24218,0.0
-6526,-1510,24150,0.0
-6525,-1780,24096,0.0
-6523,-2049,24029,0.0
-6520,-2316,23968,0.0
-6523,-2585,23923,0.0
-6515,-2849,23842,0.0
-6535,-3124,23858,0.0
-6517,-3382,23740,0.0
-6516,-3648,23682,0.0
-6519,-3915,23640,0.0
-6510,-4175,23551,0.0
-6524,-4449,23550,0.0
-6505,-4700,23421,0.0
-6489,-4954,23314,0.0
-6488,-5217,23257,0.0
-6503,-5493,23252,0.0
-6524,-5775,23272,0.0
-6524,-6041,23218,0.0
-6498,-6281,23069,0.0
-6493,-6540,22993,0.0
-6503,-6817,22974,0.0
-6509,-7089,22937,0.0
-6511,-7359,22890,0.0
-6508,-7622,22821,0.0
-6600,-8000,23082,0.0
-6501,-8149,22680,0.0
-6611,-8560,23005,0.0
-6504,-8691,22574,0.0
-6663,-9180,23066,0.0
-6511,-9243,22482,0.0
-6679,-9761,23001,0.0
-6741,-10135,23152,0.0
-6501,-10048,22268,0.0
-6504,-10329,22219,0.0
-6504,-10605,22155,0.0
-6512,-10896,22121,0.0
-6857,-11768,23227,0.0
-6857,-12065,23163,0.0
-6664,-12013,22443,0.0
-6610,-12205,22197,0.0
-6873,-12993,23015,0.0
-6852,-13254,22872,0.0
-6668,-13196,22193,0.0
-6504,-13162,21582,0.0
-6506,-13459,21521,0.0
-6496,-13731,21418,0.0
-6512,-14063,21403,0.0
-6662,-14697,21830,0.0
-6662,-15004,21757,0.0
-6896,-15853,22446,0.0
-6927,-16253,22472,0.0
-6732,-16115,21765,0.0
-6580,-16066,21200,0.0
-6510,-16210,20901,0.0
-6417,-16293,20529,0.0
-6484,-16784,20670,0.0
-6500,-17148,20642,0.0
-6501,-17478,20568,0.0
-6540,-17917,20615,0.0
-6536,-18242,20522,0.0
-6538,-18589,20449,0.0
-6550,-18966,20402,0.0
-6552,-19320,20324,0.0
-6550,-19669,20236,0.0
-6544,-20005,20128,0.0
-6548,-20380,20056,0.0
-6540,-20721,19944,0.0
-6537,-21082,19844,0.0
-28,-96,89,0.0
-21,-73,66,0.0
-25,-86,76,0.0
-22,-80,69,0.0
-21,-74,62,0.0
-6899,-24709,20340,0.0
-6789,-24744,19915,0.0
0,0,0,0.0
0,0,0,0.0
0,0,0,0.0
0,0,0,0.0
0,0,0,0.0
0,0,0,0.0
0,0,0,0.0
0,0,0,0.0
0,0,0,0.0
0,0,0,0.0
0,0,0,0.0
0,0,0,0.0
0,0,0,0.0
0,0,0,0.0
0,0,0,0.0
0,0,0,0.0
-437,-2145,1148,0.0
0,0,0,0.0
-31,-163,82,0.0
-34,-179,88,0.0
-34,-184,88,0.0
-36,-196,91,0.0
-38,-216,98,0.0
-41,-232,102,0.0
-44,-255,109,0.0
-45,-266,111,0.0
-45,-271,109,0.0
-49,-296,115,0.0
-52,-326,124,0.0
-53,-332,121,0.0
-51,-331,116,0.0
-52,-336,115,0.0
-50,-337,111,0.0
-50,-342,108,0.0
-49,-345,105,0.0
-47,-341,100,0.0
-46,-343,96,0.0
-2437,15795,14878,0.0
-2475,15582,14994,0.0
-5426,33175,32614,0.0
-5467,32480,32620,0.0
-3049,17606,18065,0.0
-3097,17375,18213,0.0
-3059,16682,17868,0.0
-3202,16977,18580,0.0
-3271,16866,18862,0.0
-3299,16541,18904,0.0
-3365,16408,19165,0.0
-3121,14800,17670,0.0
-3181,14667,17899,0.0
-3223,14454,18033,0.0
-3461,15100,19262,0.0
-3529,14974,19535,0.0
-3620,14938,19931,0.0
-3685,14789,20183,0.0
-3767,14702,20528,0.0
-3842,14581,20833,0.0
-3843,14183,20741,0.0
-3853,13823,20695,0.0
-4138,14431,22124,0.0
-4235,14357,22541,0.0
-4329,14256,22933,0.0
-4425,14162,23343,0.0
-4529,14078,23789,0.0
-4629,13973,24211,0.0
-4732,13865,24643,0.0
-4811,13684,24957,0.0
-4939,13631,25517,0.0
-4986,13346,25659,0.0
-4997,12969,25615,0.0
-5300,13331,27066,0.0
-5421,13209,27579,0.0
-5548,13091,28120,0.0
-5668,12943,28624,0.0
-5750,12703,28936,0.0
-5868,12534,29429,0.0
-5993,12368,29949,0.0
-6278,12511,31269,0.0
-6394,12294,31736,0.0
-6493,12037,32121,0.0
-6493,11597,32019,0.0
-6509,11187,31988,0.0
-6504,10750,31867,0.0
-6521,10353,31846,0.0
-6488,9883,31587,0.0
-6455,9424,31334,0.0
-6492,9071,31415,0.0
-6589,8799,31790,0.0
-6773,8630,32581,0.0
-5668,6878,27181,0.0
-5814,6709,27804,0.0
-5836,6388,27830,0.0
-5851,6062,27822,0.0
-5836,5709,27674,0.0
-5835,5374,27592,0.0
-5841,5047,27546,0.0
-5849,4725,27507,0.0
-5837,4390,27376,0.0
-5835,4065,27290,0.0
-5818,3735,27143,0.0
-5820,3420,27079,0.0
-5828,3110,27050,0.0
-5824,2796,26957,0.0
-5816,2484,26853,0.0
-5806,2173,26733,0.0
-5777,1858,26540,0.0
-5578,1504,25558,0.0
-5805,1264,26532,0.0
-5694,947,25961,0.0
-5657,652,25725,0.0
-5789,372,26263,0.0
-5796,79,26234,0.0
-5787,-212,26129,0.0
-5785,-502,26053,0.0
-5781,-790,25973,0.0
-5787,-1080,25939,0.0
-5774,-1363,25820,0.0
-5731,-1637,25569,0.0
-5773,-1934,25695,0.0
-5623,-2159,24965,0.0
-5606,-2429,24835,0.0
-5596,-2697,24730,0.0
-5756,-3056,25380,0.0
-5745,-3330,25273,0.0
-5749,-3612,25233,0.0
-5744,-3888,25148,0.0
-5738,-4163,25070,0.0
-5730,-4435,24975,0.0
-5719,-4704,24871,0.0
-5727,-4988,24849,0.0
-5709,-5249,24713,0.0
-5723,-5539,24715,0.0
-5710,-5805,24608,0.0
-5707,-6078,24533,0.0
-5700,-6346,24449,0.0
-5697,-6621,24380,0.0
-5687,-6887,24285,0.0
-5696,-7176,24266,0.0
-5689,-7446,24181,0.0
-5691,-7726,24131,0.0
-5680,-7993,24034,0.0
-5681,-8275,23983,0.0
-5685,-8561,23939,0.0
-5680,-8836,23868,0.0
-5675,-9110,23788,0.0
-5675,-9395,23733,0.0
-5671,-9673,23660,0.0
-5676,-9970,23629,0.0
-5649,-10207,23460,0.0
-5679,-10552,23531,0.0
-5671,-10827,23440,0.0
-5541,-10866,22851,0.0
-5458,-10985,22452,0.0
-5451,-11255,22370,0.0
-5440,-11520,22273,0.0
-5449,-11825,22255,0.0
-5448,-12115,22199,0.0
-5448,-12409,22147,0.0
-5446,-12697,22082,0.0
-5651,-13481,22852,0.0
-5668,-13836,22869,0.0
-5664,-14138,22792,0.0
-5674,-14482,22778,0.0
-5671,-14792,22705,0.0
-5670,-15113,22644,0.0
-5528,-15053,22020,0.0
-5525,-15362,21947,0.0
-5604,-15911,22202,0.0
-5656,-16396,22350,0.0
-5668,-16770,22336,0.0
-5672,-17125,22291,0.0
-5654,-17419,22161,0.0
-5667,-17808,22147,0.0
-5675,-18192,22117,0.0
-5674,-18546,22047,0.0
-5669,-18898,21967,0.0
-5667,-19260,21893,0.0
-5676,-19667,21864,0.0
-5671,-20029,21777,0.0
-5664,-20392,21687,0.0
-5669,-20803,21641,0.0
-5658,-21160,21531,0.0
-5667,-21595,21494,0.0
-5660,-21980,21400,0.0
-14,-56,54,0.0
-18,-71,67,0.0
-18,-76,69,0.0
-16,-65,58,0.0
-20,-87,75,0.0
-18,-74,63,0.0
-5636,-24940,20796,0.0
0,0,0,0.0
0,0,0,0.0
-392,-1835,1431,0.0
-24,-113,87,0.0
-393,-1911,1423,0.0
-377,-1867,1359,0.0
0,0,0,0.0
0,0,0,0.0
-371,-1946,1320,0.0
0,0,0,0.0
0,0,0,0.0
0,0,0,0.0
