//X,Y,Z,Classification
-13809.0,1264.0,32713.0,2.0
-13893.0,883.0,32853.0,2.0
-13922.0,496.0,32861.0,2.0
-13799.0,109.0,32511.0,2.0
-13760.0,-272.0,32361.0,2.0
0.0,0.0,0.0,0.0
0.0,0.0,0.0,0.0
-13365.0,-1368.0,31247.0,2.0
-13323.0,-1729.0,31087.0,2.0
0.0,0.0,0.0,0.0
0.0,0.0,0.0,0.0
-13201.0,-2793.0,30611.0,2.0
-13254.0,-3164.0,30666.0,2.0
-13364.0,-3552.0,30852.0,2.0
0.0,0.0,0.0,0.0
-13604.0,-4350.0,31266.0,2.0
-13670.0,-4740.0,31344.0,2.0
-13702.0,-5119.0,31345.0,2.0
0.0,0.0,0.0,0.0
-13866.0,-5926.0,31567.0,2.0
0.0,0.0,0.0,0.0
0.0,0.0,0.0,0.0
0.0,0.0,0.0,0.0
0.0,0.0,0.0,0.0
0.0,0.0,0.0,0.0
-14191.0,-8344.0,31813.0,2.0
-14234.0,-8750.0,31821.0,2.0
-14174.0,-9092.0,31600.0,2.0
-14148.0,-9454.0,31452.0,2.0
0.0,0.0,0.0,0.0
-14003.0,-10108.0,30952.0,2.0
-13879.0,-10389.0,30588.0,2.0
-13869.0,-10753.0,30473.0,2.0
-13783.0,-11057.0,30192.0,2.0
-13722.0,-11377.0,29966.0,2.0
-13648.0,-11682.0,29708.0,2.0
-902.0,-797.0,1959.0,0.0
-13439.0,-12227.0,29064.0,2.0
-862.0,-807.0,1860.0,0.0
-905.0,-871.0,1944.0,0.0
-13203.0,-13086.0,28265.0,2.0
-13144.0,-13385.0,28040.0,2.0
-887.0,-928.0,1888.0,0.0
-891.0,-956.0,1887.0,0.0
-12821.0,-14106.0,27054.0,2.0
-890.0,-1004.0,1873.0,0.0
-894.0,-1033.0,1873.0,0.0
-889.0,-1052.0,1856.0,0.0
-850.0,-1030.0,1768.0,0.0
-891.0,-1104.0,1845.0,0.0
-12933.0,-16375.0,26651.0,2.0
-871.0,-1128.0,1789.0,0.0
-892.0,-1180.0,1824.0,0.0
-890.0,-1203.0,1812.0,0.0
-875.0,-1208.0,1775.0,0.0
-13082.0,-18409.0,26377.0,2.0
-860.0,-1235.0,1727.0,0.0
-12914.0,-18913.0,25797.0,2.0
-854.0,-1277.0,1700.0,0.0
-856.0,-1304.0,1695.0,0.0
-865.0,-1343.0,1705.0,0.0
-842.0,-1331.0,1651.0,0.0
-839.0,-1352.0,1636.0,0.0
-29.0,-48.0,57.0,0.0
-839.0,-1402.0,1619.0,0.0
-821.0,-1396.0,1575.0,0.0
-25.0,-44.0,49.0,0.0
-23.0,-41.0,45.0,0.0
-27.0,-49.0,52.0,0.0
-29.0,-54.0,57.0,0.0
-31.0,-58.0,58.0,0.0
-29.0,-56.0,55.0,0.0
-39.0,-76.0,73.0,0.0
-42.0,-82.0,78.0,0.0
-42.0,-83.0,76.0,0.0
-40.0,-81.0,73.0,0.0
-42.0,-87.0,77.0,0.0
-47.0,-98.0,84.0,0.0
-44.0,-95.0,80.0,0.0
-46.0,-100.0,82.0,0.0
-48.0,-106.0,85.0,0.0
-48.0,-106.0,82.0,0.0
-50.0,-111.0,85.0,0.0
-50.0,-115.0,86.0,0.0
-49.0,-115.0,84.0,0.0
-51.0,-120.0,85.0,0.0
-53.0,-127.0,87.0,0.0
-55.0,-134.0,90.0,0.0
-54.0,-134.0,89.0,0.0
-57.0,-145.0,93.0,0.0
-59.0,-152.0,95.0,0.0
-57.0,-150.0,91.0,0.0
-59.0,-157.0,93.0,0.0
-56.0,-151.0,88.0,0.0
-62.0,-167.0,94.0,0.0
-56.0,-156.0,86.0,0.0
-60.0,-167.0,90.0,0.0
-61.0,-173.0,91.0,0.0
-57.0,-166.0,84.0,0.0
-63.0,-182.0,90.0,0.0
-64.0,-190.0,91.0,0.0
-62.0,-185.0,87.0,0.0
-63.0,-192.0,87.0,0.0
-61.0,-190.0,83.0,0.0
-59.0,-183.0,78.0,0.0
-61.0,-196.0,81.0,0.0
-60.0,-192.0,77.0,0.0
-58.0,-189.0,73.0,0.0
-62.0,-208.0,79.0,0.0
-82.0,-278.0,101.0,0.0
-84.0,-288.0,102.0,0.0
-84.0,-290.0,99.0,0.0
-82.0,-288.0,95.0,0.0
-80.0,-284.0,90.0,0.0
-77.0,-278.0,85.0,0.0
-76.0,-280.0,82.0,0.0
-77.0,-285.0,80.0,0.0
-76.0,-289.0,78.0,0.0
-76.0,-290.0,75.0,0.0
-75.0,-292.0,72.0,0.0
-13236.0,38808.0,33952.0,0.0
-13251.0,38046.0,34013.0,0.0
-13302.0,37400.0,34166.0,0.0
-12973.0,35712.0,33337.0,0.0
-12919.0,34819.0,33214.0,0.0
0.0,0.0,0.0,0.0
-13025.0,33643.0,33515.0,0.0
-12625.0,31919.0,32496.0,0.0
-12632.0,31256.0,32522.0,0.0
-12651.0,30636.0,32581.0,0.0
-12582.0,29814.0,32408.0,0.0
-12632.0,29286.0,32542.0,0.0
-12327.0,27957.0,31759.0,0.0
0.0,0.0,0.0,0.0
0.0,0.0,0.0,0.0
-12358.0,26217.0,31840.0,0.0
-12219.0,25345.0,31482.0,0.0
-12562.0,25470.0,32363.0,0.0
-12532.0,24831.0,32279.0,0.0
-13619.0,26367.0,35073.0,0.0
-13590.0,25704.0,34991.0,0.0
-13564.0,25057.0,34917.0,0.0
-13494.0,24337.0,34725.0,0.0
-13422.0,23631.0,34530.0,0.0
-13393.0,23012.0,34443.0,0.0
-13356.0,22389.0,34335.0,0.0
-13332.0,21797.0,34259.0,0.0
0.0,0.0,0.0,0.0
0.0,0.0,0.0,0.0
0.0,0.0,0.0,0.0
-13121.0,19341.0,33647.0,0.0
-13120.0,18830.0,33630.0,0.0
-13101.0,18296.0,33558.0,0.0
-13049.0,17724.0,33404.0,0.0
-10407.0,13742.0,26623.0,0.0
-9494.0,12183.0,24274.0,0.0
-9477.0,11808.0,24209.0,0.0
-9434.0,11410.0,24084.0,0.0
-9420.0,11051.0,24027.0,0.0
-9395.0,10684.0,23945.0,0.0
-9378.0,10331.0,23881.0,0.0
-9358.0,9978.0,23809.0,0.0
-9327.0,9620.0,23711.0,0.0
-9318.0,9287.0,23665.0,0.0
-9290.0,8940.0,23571.0,0.0
-9269.0,8604.0,23495.0,0.0
-9256.0,8279.0,23437.0,0.0
-9228.0,7945.0,23341.0,0.0
-9220.0,7631.0,23297.0,0.0
-9203.0,7314.0,23230.0,0.0
-9176.0,6993.0,23136.0,0.0
-9164.0,6686.0,23078.0,0.0
-9166.0,6392.0,23054.0,0.0
-9139.0,6080.0,22959.0,0.0
-9123.0,5779.0,22891.0,0.0
-9104.0,5480.0,22815.0,0.0
-9078.0,5180.0,22721.0,0.0
-9073.0,4894.0,22678.0,0.0
-9058.0,4605.0,22610.0,0.0
-9047.0,4321.0,22551.0,0.0
-9028.0,4036.0,22474.0,0.0
-9024.0,3760.0,22431.0,0.0
-9011.0,3482.0,22364.0,0.0
-8992.0,3204.0,22284.0,0.0
-8995.0,2936.0,22261.0,0.0
-8977.0,2662.0,22180.0,0.0
-8971.0,2395.0,22129.0,0.0
-9128.0,2168.0,22480.0,0.0
-9389.0,1954.0,23086.0,0.0
-9542.0,1707.0,23424.0,0.0
-9966.0,1492.0,24420.0,0.0
-13311.0,1608.0,32559.0,2.0
0.0,0.0,0.0,0.0
-13491.0,853.0,32884.0,2.0
-13601.0,470.0,33092.0,2.0
-13469.0,81.0,32708.0,2.0
-13369.0,-299.0,32405.0,2.0
-13306.0,-675.0,32192.0,2.0
-13212.0,-1044.0,31901.0,2.0
0.0,0.0,0.0,0.0
-13035.0,-1765.0,31349.0,2.0
0.0,0.0,0.0,0.0
-12898.0,-2468.0,30889.0,2.0
0.0,0.0,0.0,0.0
-12833.0,-3172.0,30603.0,2.0
-12822.0,-3525.0,30509.0,2.0
0.0,0.0,0.0,0.0
0.0,0.0,0.0,0.0
-13135.0,-4703.0,31043.0,2.0
-13219.0,-5098.0,31167.0,2.0
0.0,0.0,0.0,0.0
-13305.0,-5864.0,31219.0,2.0
-13378.0,-6266.0,31317.0,2.0
-13442.0,-6665.0,31386.0,2.0
-13482.0,-7056.0,31400.0,2.0
0.0,0.0,0.0,0.0
0.0,0.0,0.0,0.0
-878.0,-532.0,2031.0,0.0
-13649.0,-8642.0,31454.0,2.0
0.0,0.0,0.0,0.0
-878.0,-604.0,2014.0,0.0
-13452.0,-9625.0,30742.0,2.0
0.0,0.0,0.0,0.0
0.0,0.0,0.0,0.0
0.0,0.0,0.0,0.0
0.0,0.0,0.0,0.0
0.0,0.0,0.0,0.0
0.0,0.0,0.0,0.0
-873.0,-793.0,1954.0,0.0
-846.0,-793.0,1889.0,0.0
-822.0,-792.0,1828.0,0.0
-876.0,-868.0,1942.0,0.0
-12719.0,-12971.0,28081.0,2.0
-887.0,-929.0,1952.0,0.0
-867.0,-933.0,1902.0,0.0
-862.0,-950.0,1883.0,0.0
-12407.0,-14046.0,27008.0,2.0
-12406.0,-14394.0,26904.0,2.0
-861.0,-1024.0,1863.0,0.0
-861.0,-1049.0,1855.0,0.0
-856.0,-1066.0,1835.0,0.0
-866.0,-1104.0,1851.0,0.0
-12595.0,-16408.0,26784.0,2.0
-845.0,-1125.0,1789.0,0.0
-854.0,-1162.0,1804.0,0.0
-867.0,-1207.0,1823.0,0.0
-825.0,-1171.0,1726.0,0.0
-12716.0,-18413.0,26467.0,2.0
-820.0,-1212.0,1700.0,0.0
-12540.0,-18899.0,25864.0,2.0
-844.0,-1297.0,1734.0,0.0
-830.0,-1302.0,1697.0,0.0
-847.0,-1352.0,1722.0,0.0
-838.0,-1364.0,1697.0,0.0
-26.0,-44.0,55.0,0.0
-21.0,-35.0,42.0,0.0
-22.0,-38.0,45.0,0.0
-29.0,-52.0,59.0,0.0
-24.0,-44.0,48.0,0.0
-31.0,-56.0,61.0,0.0
-24.0,-45.0,49.0,0.0
-29.0,-56.0,58.0,0.0
-38.0,-73.0,74.0,0.0
-35.0,-67.0,67.0,0.0
-37.0,-73.0,71.0,0.0
-40.0,-82.0,78.0,0.0
-38.0,-78.0,72.0,0.0
-42.0,-88.0,80.0,0.0
-46.0,-99.0,88.0,0.0
-42.0,-91.0,78.0,0.0
-46.0,-102.0,85.0,0.0
-46.0,-103.0,84.0,0.0
-45.0,-101.0,81.0,0.0
-50.0,-116.0,91.0,0.0
-52.0,-120.0,93.0,0.0
-50.0,-118.0,88.0,0.0
-54.0,-130.0,95.0,0.0
-54.0,-132.0,94.0,0.0
-56.0,-138.0,96.0,0.0
-51.0,-129.0,87.0,0.0
-53.0,-136.0,90.0,0.0
-56.0,-146.0,95.0,0.0
-57.0,-151.0,95.0,0.0
-59.0,-156.0,96.0,0.0
-56.0,-153.0,92.0,0.0
-55.0,-152.0,89.0,0.0
-58.0,-163.0,93.0,0.0
-56.0,-160.0,89.0,0.0
-56.0,-163.0,88.0,0.0
-61.0,-178.0,94.0,0.0
-61.0,-182.0,93.0,0.0
-60.0,-181.0,90.0,0.0
-61.0,-187.0,91.0,0.0
-58.0,-183.0,86.0,0.0
-64.0,-203.0,93.0,0.0
-61.0,-195.0,86.0,0.0
-62.0,-202.0,88.0,0.0
-61.0,-202.0,85.0,0.0
-60.0,-200.0,81.0,0.0
-56.0,-190.0,74.0,0.0
-59.0,-203.0,77.0,0.0
-78.0,-272.0,100.0,0.0
-80.0,-283.0,101.0,0.0
-80.0,-288.0,99.0,0.0
-80.0,-292.0,96.0,0.0
-78.0,-287.0,92.0,0.0
-76.0,-284.0,87.0,0.0
-76.0,-286.0,84.0,0.0
-75.0,-289.0,82.0,0.0
-75.0,-292.0,79.0,0.0
-72.0,-287.0,75.0,0.0
-72.0,-291.0,72.0,0.0
-12668.0,38417.0,33804.0,0.0
0.0,0.0,0.0,0.0
-12403.0,36048.0,33119.0,0.0
-7256.0,20644.0,19381.0,0.0
-7337.0,20432.0,19602.0,0.0
-12494.0,34056.0,33386.0,0.0
-12092.0,32257.0,32316.0,0.0
-12166.0,31762.0,32518.0,0.0
-12164.0,31073.0,32512.0,0.0
-12058.0,30139.0,32231.0,0.0
-12210.0,29857.0,32636.0,0.0
-11881.0,28422.0,31758.0,0.0
0.0,0.0,0.0,0.0
-650.0,1489.0,1739.0,0.0
-11925.0,26681.0,31861.0,0.0
-11912.0,26057.0,31821.0,0.0
-12027.0,25716.0,32120.0,0.0
-12094.0,25274.0,32290.0,0.0
-12091.0,24688.0,32271.0,0.0
-13148.0,26229.0,35081.0,0.0
-13105.0,25533.0,34952.0,0.0
-13053.0,24835.0,34801.0,0.0
-13008.0,24163.0,34665.0,0.0
-12962.0,23499.0,34526.0,0.0
-12941.0,22892.0,34453.0,0.0
-12875.0,22218.0,34261.0,0.0
-12855.0,21630.0,34186.0,0.0
0.0,0.0,0.0,0.0
-12756.0,20391.0,33884.0,0.0
0.0,0.0,0.0,0.0
-12697.0,19252.0,33682.0,0.0
-12671.0,18702.0,33591.0,0.0
-12619.0,18123.0,33430.0,0.0
-12569.0,17553.0,33272.0,0.0
-9185.0,12469.0,24295.0,0.0
-9176.0,12101.0,24250.0,0.0
-9157.0,11728.0,24183.0,0.0
-9128.0,11344.0,24084.0,0.0
-9120.0,10992.0,24042.0,0.0
-9086.0,10615.0,23930.0,0.0
-9073.0,10266.0,23876.0,0.0
-9041.0,9901.0,23767.0,0.0
-9030.0,9564.0,23716.0,0.0
-9008.0,9219.0,23633.0,0.0
-8980.0,8871.0,23534.0,0.0
-8971.0,8548.0,23486.0,0.0
-8949.0,8215.0,23403.0,0.0
-8928.0,7889.0,23324.0,0.0
-8928.0,7583.0,23299.0,0.0
-8911.0,7265.0,23225.0,0.0
-8901.0,6956.0,23170.0,0.0
-8874.0,6639.0,23073.0,0.0
-8859.0,6334.0,23006.0,0.0
-8834.0,6024.0,22910.0,0.0
-8824.0,5729.0,22854.0,0.0
-8810.0,5434.0,22789.0,0.0
-8801.0,5144.0,22735.0,0.0
-8803.0,4863.0,22711.0,0.0
-8778.0,4569.0,22612.0,0.0
-8780.0,4293.0,22585.0,0.0
-8785.0,4018.0,22566.0,0.0
-8785.0,3743.0,22531.0,0.0
-8781.0,3469.0,22490.0,0.0
-8755.0,3187.0,22389.0,0.0
-8798.0,2933.0,22462.0,0.0
-8803.0,2664.0,22439.0,0.0
-8817.0,2400.0,22439.0,0.0
-8824.0,2135.0,22419.0,0.0
-9087.0,1924.0,23050.0,0.0
-9263.0,1683.0,23455.0,0.0
-9646.0,1464.0,24382.0,0.0
-12896.0,1574.0,32541.0,2.0
-9058.0,837.0,22816.0,0.0
-9056.0,569.0,22769.0,0.0
-9038.0,301.0,22682.0,0.0
-9050.0,36.0,22670.0,0.0
-9018.0,-227.0,22548.0,0.0
-9030.0,-490.0,22533.0,0.0
-9000.0,-750.0,22415.0,0.0
-9030.0,-1014.0,22443.0,0.0
-9016.0,-1272.0,22364.0,0.0
-9020.0,-1533.0,22329.0,0.0
-9016.0,-1792.0,22273.0,0.0
-8993.0,-2044.0,22167.0,0.0
-9002.0,-2304.0,22141.0,0.0
-9012.0,-2564.0,22116.0,0.0
-8996.0,-2816.0,22027.0,0.0
-9019.0,-3080.0,22033.0,0.0
-8997.0,-3328.0,21932.0,0.0
-8998.0,-3584.0,21881.0,0.0
-9001.0,-3840.0,21837.0,0.0
-8998.0,-4094.0,21779.0,0.0
-9024.0,-4361.0,21786.0,0.0
-8993.0,-4600.0,21659.0,0.0
-9005.0,-4860.0,21632.0,0.0
-8999.0,-5112.0,21564.0,0.0
-9017.0,-5376.0,21550.0,0.0
-9000.0,-5619.0,21453.0,0.0
-8998.0,-5871.0,21389.0,0.0
-9003.0,-6130.0,21346.0,0.0
-9012.0,-6390.0,21306.0,0.0
-9007.0,-6641.0,21235.0,0.0
-8999.0,-6889.0,21156.0,0.0
-9021.0,-7161.0,21147.0,0.0
-9041.0,-7433.0,21130.0,0.0
-9016.0,-7668.0,21010.0,0.0
-9041.0,-7946.0,21002.0,0.0
-9034.0,-8197.0,20921.0,0.0
-9036.0,-8456.0,20862.0,0.0
-9032.0,-8709.0,20785.0,0.0
-9030.0,-8965.0,20713.0,0.0
-9031.0,-9225.0,20648.0,0.0
-9052.0,-9505.0,20625.0,0.0
-9053.0,-9768.0,20559.0,0.0
-9060.0,-10037.0,20504.0,0.0
-9062.0,-10300.0,20434.0,0.0
-9060.0,-10561.0,20358.0,0.0
-9082.0,-10850.0,20332.0,0.0
-9094.0,-11129.0,20282.0,0.0
-9092.0,-11392.0,20201.0,0.0
-9102.0,-11673.0,20148.0,0.0
-9108.0,-11949.0,20081.0,0.0
-9105.0,-12214.0,19994.0,0.0
-9080.0,-12450.0,19858.0,0.0
-9118.0,-12774.0,19860.0,0.0
-9118.0,-13046.0,19776.0,0.0
-836.0,-1222.0,1807.0,0.0
-799.0,-1193.0,1721.0,0.0
-831.0,-1266.0,1782.0,0.0
-824.0,-1279.0,1758.0,0.0
-808.0,-1279.0,1715.0,0.0
-21.0,-35.0,47.0,0.0
-25.0,-42.0,54.0,0.0
-28.0,-48.0,60.0,0.0
-30.0,-53.0,65.0,0.0
-21.0,-38.0,46.0,0.0
-26.0,-47.0,55.0,0.0
-28.0,-53.0,60.0,0.0
-33.0,-63.0,70.0,0.0
-25.0,-49.0,54.0,0.0
-30.0,-57.0,61.0,0.0
-33.0,-64.0,67.0,0.0
-32.0,-62.0,64.0,0.0
-35.0,-71.0,71.0,0.0
-39.0,-80.0,78.0,0.0
-39.0,-82.0,78.0,0.0
-41.0,-87.0,81.0,0.0
-39.0,-84.0,76.0,0.0
-44.0,-97.0,87.0,0.0
-44.0,-99.0,86.0,0.0
-45.0,-102.0,86.0,0.0
-45.0,-105.0,86.0,0.0
-45.0,-107.0,86.0,0.0
-53.0,-126.0,99.0,0.0
-50.0,-122.0,94.0,0.0
-54.0,-132.0,99.0,0.0
-55.0,-137.0,101.0,0.0
-53.0,-135.0,96.0,0.0
-53.0,-136.0,95.0,0.0
-56.0,-146.0,99.0,0.0
-53.0,-141.0,94.0,0.0
-56.0,-150.0,98.0,0.0
-57.0,-153.0,97.0,0.0
-57.0,-156.0,97.0,0.0
-55.0,-156.0,94.0,0.0
-56.0,-161.0,94.0,0.0
-58.0,-169.0,97.0,0.0
-56.0,-167.0,94.0,0.0
-55.0,-166.0,90.0,0.0
-59.0,-178.0,94.0,0.0
-59.0,-183.0,94.0,0.0
-55.0,-172.0,86.0,0.0
-55.0,-175.0,85.0,0.0
-61.0,-193.0,92.0,0.0
-56.0,-182.0,84.0,0.0
-60.0,-197.0,88.0,0.0
-56.0,-187.0,81.0,0.0
-59.0,-199.0,84.0,0.0
-57.0,-196.0,80.0,0.0
-56.0,-195.0,77.0,0.0
-54.0,-195.0,74.0,0.0
-70.0,-251.0,93.0,0.0
-79.0,-289.0,104.0,0.0
-79.0,-294.0,101.0,0.0
-79.0,-300.0,100.0,0.0
-78.0,-296.0,95.0,0.0
-77.0,-300.0,93.0,0.0
-75.0,-296.0,88.0,0.0
-74.0,-297.0,85.0,0.0
-74.0,-299.0,82.0,0.0
-72.0,-296.0,78.0,0.0
-71.0,-299.0,76.0,0.0
-6661.0,20921.0,18511.0,0.0
-6802.0,20910.0,18906.0,0.0
-6936.0,20867.0,19277.0,0.0
-11967.0,35232.0,33259.0,0.0
-11773.0,33921.0,32721.0,0.0
-11824.0,33336.0,32860.0,0.0
-11661.0,32168.0,32403.0,0.0
-11726.0,31648.0,32579.0,0.0
-11687.0,30860.0,32466.0,0.0
-11794.0,30467.0,32758.0,0.0
-11649.0,29434.0,32348.0,0.0
0.0,0.0,0.0,0.0
0.0,0.0,0.0,0.0
-11341.0,26796.0,31462.0,0.0
-11356.0,26233.0,31495.0,0.0
-11512.0,25991.0,31912.0,0.0
-11680.0,25774.0,32364.0,0.0
-11643.0,25106.0,32248.0,0.0
-12734.0,26824.0,35251.0,0.0
-12656.0,26043.0,35020.0,0.0
-12634.0,25387.0,34938.0,0.0
-12597.0,24715.0,34817.0,0.0
-12538.0,24011.0,34635.0,0.0
-12502.0,23365.0,34514.0,0.0
-12475.0,22744.0,34416.0,0.0
-12409.0,22065.0,34211.0,0.0
-12405.0,21506.0,34174.0,0.0
-12364.0,20891.0,34036.0,0.0
-12325.0,20293.0,33906.0,0.0
-12244.0,19636.0,33658.0,0.0
-12257.0,19138.0,33665.0,0.0
-12246.0,18608.0,33605.0,0.0
-12203.0,18038.0,33460.0,0.0
-12093.0,17383.0,33132.0,0.0
-8881.0,12407.0,24310.0,0.0
-8856.0,12019.0,24221.0,0.0
-8839.0,11646.0,24151.0,0.0
-8817.0,11271.0,24065.0,0.0
-8802.0,10912.0,24004.0,0.0
-8782.0,10551.0,23924.0,0.0
-8767.0,10200.0,23858.0,0.0
-8747.0,9847.0,23777.0,0.0
-8739.0,9513.0,23732.0,0.0
-8733.0,9185.0,23689.0,0.0
-8725.0,8858.0,23641.0,0.0
-8726.0,8542.0,23616.0,0.0
-8730.0,8233.0,23600.0,0.0
-8743.0,7933.0,23606.0,0.0
-8753.0,7634.0,23607.0,0.0
-8749.0,7324.0,23565.0,0.0
-8746.0,7018.0,23527.0,0.0
-8754.0,6723.0,23519.0,0.0
-8762.0,6428.0,23507.0,0.0
-8747.0,6121.0,23438.0,0.0
-8745.0,5824.0,23400.0,0.0
-8739.0,5528.0,23352.0,0.0
-8768.0,5255.0,23396.0,0.0
-8727.0,4942.0,23252.0,0.0
-8738.0,4661.0,23248.0,0.0
-8734.0,4375.0,23205.0,0.0
-8738.0,4093.0,23178.0,0.0
-8716.0,3802.0,23086.0,0.0
-8645.0,3495.0,22863.0,0.0
-8715.0,3245.0,23013.0,0.0
-8725.0,2973.0,23002.0,0.0
-8725.0,2698.0,22964.0,0.0
-9400.0,2612.0,24698.0,0.0
-8659.0,2136.0,22715.0,0.0
-8808.0,1900.0,23065.0,0.0
-8799.0,1625.0,23003.0,0.0
-8806.0,1355.0,22978.0,0.0
-8790.0,1085.0,22895.0,0.0
-8777.0,815.0,22821.0,0.0
-8784.0,548.0,22798.0,0.0
-8788.0,283.0,22767.0,0.0
-8780.0,18.0,22701.0,0.0
-8777.0,-245.0,22651.0,0.0
-8759.0,-507.0,22558.0,0.0
-8765.0,-769.0,22529.0,0.0
-8754.0,-1028.0,22455.0,0.0
-8752.0,-1288.0,22406.0,0.0
-8748.0,-1547.0,22350.0,0.0
-8718.0,-1799.0,22228.0,0.0
-8744.0,-2063.0,22246.0,0.0
-8736.0,-2317.0,22176.0,0.0
-8750.0,-2578.0,22164.0,0.0
-8735.0,-2830.0,22074.0,0.0
-8737.0,-3086.0,22030.0,0.0
-8734.0,-3341.0,21974.0,0.0
-8739.0,-3596.0,21932.0,0.0
-8727.0,-3846.0,21853.0,0.0
-8729.0,-4102.0,21806.0,0.0
-8729.0,-4355.0,21753.0,0.0
-8722.0,-4606.0,21682.0,0.0
-8717.0,-4856.0,21614.0,0.0
-8733.0,-5119.0,21601.0,0.0
-8733.0,-5372.0,21544.0,0.0
-8725.0,-5619.0,21467.0,0.0
-8736.0,-5880.0,21439.0,0.0
-8740.0,-6137.0,21390.0,0.0
-8736.0,-6388.0,21321.0,0.0
-8735.0,-6640.0,21258.0,0.0
-8767.0,-6920.0,21277.0,0.0
-8751.0,-7162.0,21177.0,0.0
-8735.0,-7404.0,21079.0,0.0
-8745.0,-7668.0,21040.0,0.0
-8724.0,-7903.0,20925.0,0.0
-8706.0,-8142.0,20820.0,0.0
-8764.0,-8452.0,20890.0,0.0
-8718.0,-8664.0,20718.0,0.0
-8748.0,-8951.0,20722.0,0.0
-8752.0,-9212.0,20663.0,0.0
-8783.0,-9505.0,20668.0,0.0
-8776.0,-9758.0,20583.0,0.0
-8770.0,-10011.0,20499.0,0.0
-8778.0,-10281.0,20444.0,0.0
-8778.0,-10543.0,20373.0,0.0
-8788.0,-10819.0,20324.0,0.0
-8805.0,-11104.0,20289.0,0.0
-22.0,-28.0,50.0,0.0
-8809.0,-11642.0,20147.0,0.0
-25.0,-34.0,60.0,0.0
-35.0,-48.0,80.0,0.0
-28.0,-40.0,65.0,0.0
-27.0,-39.0,62.0,0.0
-21.0,-32.0,49.0,0.0
-29.0,-44.0,67.0,0.0
-22.0,-34.0,51.0,0.0
-22.0,-37.0,52.0,0.0
-22.0,-36.0,51.0,0.0
-23.0,-39.0,52.0,0.0
-28.0,-48.0,63.0,0.0
-27.0,-47.0,62.0,0.0
-21.0,-37.0,47.0,0.0
-22.0,-40.0,49.0,0.0
-25.0,-46.0,56.0,0.0
-24.0,-47.0,55.0,0.0
-27.0,-52.0,60.0,0.0
-29.0,-57.0,63.0,0.0
-32.0,-62.0,68.0,0.0
-31.0,-62.0,66.0,0.0
-35.0,-71.0,74.0,0.0
-37.0,-76.0,77.0,0.0
-39.0,-84.0,83.0,0.0
-39.0,-85.0,83.0,0.0
-36.0,-79.0,75.0,0.0
-42.0,-93.0,86.0,0.0
-46.0,-100.0,92.0,0.0
-46.0,-105.0,94.0,0.0
-48.0,-108.0,95.0,0.0
-46.0,-109.0,93.0,0.0
-52.0,-124.0,102.0,0.0
-50.0,-120.0,97.0,0.0
-45.0,-112.0,89.0,0.0
-50.0,-125.0,97.0,0.0
-49.0,-124.0,94.0,0.0
-54.0,-138.0,102.0,0.0
-52.0,-137.0,98.0,0.0
-51.0,-137.0,96.0,0.0
-53.0,-142.0,98.0,0.0
-54.0,-148.0,99.0,0.0
-56.0,-154.0,101.0,0.0
-55.0,-153.0,97.0,0.0
-57.0,-165.0,102.0,0.0
-57.0,-165.0,100.0,0.0
-55.0,-164.0,97.0,0.0
-54.0,-163.0,94.0,0.0
-59.0,-179.0,101.0,0.0
-56.0,-173.0,95.0,0.0
-56.0,-175.0,93.0,0.0
-58.0,-183.0,95.0,0.0
-57.0,-183.0,93.0,0.0
-60.0,-196.0,96.0,0.0
-59.0,-193.0,93.0,0.0
-57.0,-194.0,90.0,0.0
-58.0,-199.0,89.0,0.0
-55.0,-191.0,83.0,0.0
-55.0,-192.0,81.0,0.0
-53.0,-193.0,79.0,0.0
-53.0,-191.0,77.0,0.0
-52.0,-191.0,74.0,0.0
-65.0,-244.0,91.0,0.0
-77.0,-293.0,105.0,0.0
-77.0,-299.0,104.0,0.0
-76.0,-295.0,100.0,0.0
-73.0,-292.0,95.0,0.0
-73.0,-294.0,92.0,0.0
-73.0,-298.0,90.0,0.0
-72.0,-302.0,87.0,0.0
-69.0,-295.0,82.0,0.0
-69.0,-299.0,79.0,0.0
-70.0,-302.0,77.0,0.0
-6416.0,20900.0,18593.0,0.0
-6540.0,20846.0,18949.0,0.0
-6656.0,20758.0,19280.0,0.0
-6784.0,20698.0,19645.0,0.0
-6857.0,20469.0,19851.0,0.0
-11470.0,33494.0,33192.0,0.0
-11212.0,32031.0,32437.0,0.0
-11259.0,31461.0,32557.0,0.0
-11099.0,30336.0,32083.0,0.0
-11178.0,29878.0,32296.0,0.0
-11301.0,29540.0,32635.0,0.0
0.0,0.0,0.0,0.0
0.0,0.0,0.0,0.0
-11076.0,27057.0,31936.0,0.0
-11167.0,26664.0,32181.0,0.0
-11063.0,25814.0,31859.0,0.0
-11090.0,25287.0,31919.0,0.0
-11214.0,24980.0,32255.0,0.0
-12221.0,26591.0,35127.0,0.0
-12199.0,25923.0,35040.0,0.0
-12138.0,25184.0,34840.0,0.0
-12108.0,24522.0,34728.0,0.0
-12048.0,23815.0,34530.0,0.0
-12065.0,23267.0,34549.0,0.0
-10862.0,20433.0,31082.0,0.0
-10829.0,19864.0,30962.0,0.0
-11933.0,21339.0,34090.0,0.0
-10870.0,18942.0,31024.0,0.0
-11904.0,20210.0,33947.0,0.0
-11842.0,19578.0,33737.0,0.0
-11780.0,18959.0,33530.0,0.0
-11803.0,18485.0,33563.0,0.0
-11783.0,17948.0,33472.0,0.0
-11682.0,17300.0,33152.0,0.0
-8666.0,12470.0,24568.0,0.0
-8685.0,12139.0,24598.0,0.0
-8684.0,11783.0,24569.0,0.0
-8674.0,11418.0,24515.0,0.0
-8685.0,11085.0,24521.0,0.0
-8657.0,10706.0,24413.0,0.0
-8691.0,10408.0,24483.0,0.0
-8692.0,10071.0,24456.0,0.0
-9551.0,10698.0,26840.0,0.0
-8551.0,9252.0,24002.0,0.0
-8440.0,8814.0,23664.0,0.0
-8441.0,8499.0,23634.0,0.0
-9419.0,9134.0,26339.0,0.0
-8589.0,8013.0,23989.0,0.0
-9423.0,8448.0,26282.0,0.0
-9396.0,8083.0,26171.0,0.0
-9374.0,7729.0,26077.0,0.0
-9357.0,7382.0,25994.0,0.0
-9336.0,7035.0,25900.0,0.0
-9317.0,6695.0,25810.0,0.0
-9070.0,6202.0,25091.0,0.0
-9283.0,6029.0,25645.0,0.0
-9262.0,5697.0,25550.0,0.0
-9231.0,5364.0,25427.0,0.0
-9228.0,5050.0,25377.0,0.0
-8565.0,4399.0,23518.0,0.0
-8552.0,4107.0,23449.0,0.0
-8558.0,3826.0,23426.0,0.0
-8498.0,3519.0,23226.0,0.0
-8470.0,3229.0,23110.0,0.0
-8529.0,2974.0,23234.0,0.0
-8521.0,2694.0,23172.0,0.0
-8534.0,2423.0,23171.0,0.0
-8513.0,2144.0,23073.0,0.0
-8513.0,1871.0,23033.0,0.0
-8511.0,1601.0,22987.0,0.0
-8515.0,1332.0,22954.0,0.0
-8501.0,1061.0,22877.0,0.0
-8496.0,794.0,22822.0,0.0
-8500.0,528.0,22788.0,0.0
-8503.0,263.0,22753.0,0.0
-8487.0,0.0,22666.0,0.0
-8488.0,-262.0,22625.0,0.0
-8482.0,-523.0,22566.0,0.0
-8474.0,-783.0,22501.0,0.0
-8896.0,-1094.0,23571.0,0.0
-8456.0,-1299.0,22362.0,0.0
-8471.0,-1560.0,22353.0,0.0
-8456.0,-1814.0,22268.0,0.0
-8468.0,-2073.0,22250.0,0.0
-8458.0,-2326.0,22175.0,0.0
-8451.0,-2580.0,22110.0,0.0
-8453.0,-2836.0,22067.0,0.0
-8452.0,-3090.0,22013.0,0.0
-8188.0,-3239.0,21278.0,0.0
-8464.0,-3603.0,21942.0,0.0
-8441.0,-3846.0,21830.0,0.0
-8459.0,-4107.0,21824.0,0.0
-8456.0,-4360.0,21766.0,0.0
-8438.0,-4603.0,21668.0,0.0
-8448.0,-4860.0,21636.0,0.0
-8458.0,-5120.0,21609.0,0.0
-8458.0,-5371.0,21552.0,0.0
-8459.0,-5624.0,21498.0,0.0
-8456.0,-5875.0,21434.0,0.0
-8450.0,-6123.0,21363.0,0.0
-8448.0,-6374.0,21299.0,0.0
-8456.0,-6634.0,21263.0,0.0
-8459.0,-6890.0,21211.0,0.0
-8448.0,-7134.0,21122.0,0.0
-8468.0,-7404.0,21112.0,0.0
-8473.0,-7663.0,21061.0,0.0
-8469.0,-7914.0,20988.0,0.0
-8480.0,-8180.0,20952.0,0.0
-8479.0,-8435.0,20888.0,0.0
-8487.0,-8700.0,20842.0,0.0
-8494.0,-8964.0,20792.0,0.0
-9.0,-9.0,22.0,0.0
-8553.0,-9547.0,20804.0,0.0
-8536.0,-9788.0,20693.0,0.0
-12.0,-15.0,31.0,0.0
-3.0,-4.0,9.0,0.0
-8509.0,-10540.0,20415.0,0.0
-11.0,-14.0,28.0,0.0
-16.0,-21.0,40.0,0.0
-9.0,-13.0,23.0,0.0
-17.0,-24.0,43.0,0.0
-15.0,-21.0,37.0,0.0
-16.0,-23.0,39.0,0.0
-11.0,-16.0,27.0,0.0
-18.0,-27.0,44.0,0.0
-23.0,-37.0,56.0,0.0
-21.0,-33.0,51.0,0.0
-8585.0,-13610.0,19746.0,0.0
-22.0,-37.0,52.0,0.0
-18.0,-31.0,43.0,0.0
-22.0,-37.0,50.0,0.0
-22.0,-38.0,50.0,0.0
-23.0,-41.0,54.0,0.0
-23.0,-42.0,54.0,0.0
-25.0,-46.0,57.0,0.0
-20.0,-38.0,46.0,0.0
-31.0,-60.0,72.0,0.0
-29.0,-58.0,67.0,0.0
-27.0,-53.0,60.0,0.0
-30.0,-60.0,66.0,0.0
-33.0,-69.0,74.0,0.0
-30.0,-62.0,65.0,0.0
-36.0,-76.0,78.0,0.0
-38.0,-82.0,82.0,0.0
-39.0,-86.0,85.0,0.0
-38.0,-84.0,81.0,0.0
-39.0,-89.0,84.0,0.0
-41.0,-95.0,87.0,0.0
-37.0,-87.0,77.0,0.0
-42.0,-99.0,87.0,0.0
-46.0,-110.0,95.0,0.0
-45.0,-112.0,93.0,0.0
-46.0,-114.0,94.0,0.0
-45.0,-115.0,92.0,0.0
-46.0,-119.0,92.0,0.0
-47.0,-121.0,92.0,0.0
-47.0,-124.0,92.0,0.0
-49.0,-132.0,96.0,0.0
-47.0,-132.0,93.0,0.0
-52.0,-144.0,100.0,0.0
-49.0,-139.0,94.0,0.0
-48.0,-140.0,92.0,0.0
-51.0,-149.0,95.0,0.0
-50.0,-147.0,92.0,0.0
-53.0,-158.0,97.0,0.0
-53.0,-161.0,96.0,0.0
-49.0,-152.0,88.0,0.0
-49.0,-154.0,87.0,0.0
-50.0,-160.0,88.0,0.0
-51.0,-163.0,87.0,0.0
-51.0,-166.0,87.0,0.0
-54.0,-181.0,93.0,0.0
-53.0,-178.0,89.0,0.0
-52.0,-179.0,86.0,0.0
-52.0,-180.0,84.0,0.0
-54.0,-190.0,86.0,0.0
-52.0,-187.0,82.0,0.0
-51.0,-186.0,80.0,0.0
-49.0,-182.0,75.0,0.0
-49.0,-185.0,75.0,0.0
-48.0,-188.0,73.0,0.0
-55.0,-216.0,81.0,0.0
-74.0,-291.0,107.0,0.0
-72.0,-289.0,102.0,0.0
-71.0,-292.0,100.0,0.0
-70.0,-291.0,96.0,0.0
-70.0,-295.0,94.0,0.0
-68.0,-291.0,89.0,0.0
-69.0,-301.0,88.0,0.0
-68.0,-296.0,83.0,0.0
-67.0,-300.0,81.0,0.0
-67.0,-301.0,78.0,0.0
-6158.0,20835.0,18635.0,0.0
-6558.0,21706.0,19836.0,0.0
-6446.0,20869.0,19486.0,0.0
-6532.0,20685.0,19734.0,0.0
-6609.0,20469.0,19954.0,0.0
-11015.0,33365.0,33236.0,0.0
-10764.0,31887.0,32459.0,0.0
-10793.0,31267.0,32526.0,0.0
-10902.0,30884.0,32832.0,0.0
-10855.0,30066.0,32665.0,0.0
-10523.0,28498.0,31646.0,0.0
-10560.0,27954.0,31731.0,0.0
-10529.0,27246.0,31617.0,0.0
-10410.0,26328.0,31234.0,0.0
-10539.0,26048.0,31597.0,0.0
-10541.0,25453.0,31574.0,0.0
-10785.0,25442.0,32279.0,0.0
-10764.0,24804.0,32190.0,0.0
-11754.0,26449.0,35118.0,0.0
-11702.0,25711.0,34932.0,0.0
-11682.0,25056.0,34842.0,0.0
-11668.0,24427.0,34769.0,0.0
-11614.0,23724.0,34576.0,0.0
-10480.0,20882.0,31167.0,0.0
-11564.0,22472.0,34358.0,0.0
-10825.0,20508.0,32128.0,0.0
-10822.0,19984.0,32088.0,0.0
-10775.0,19387.0,31916.0,0.0
-10781.0,18894.0,31901.0,0.0
-10892.0,18587.0,32195.0,0.0
-10972.0,18223.0,32396.0,0.0
-11352.0,18345.0,33483.0,0.0
-11354.0,17842.0,33449.0,0.0
-11281.0,17233.0,33198.0,0.0
-9171.0,13612.0,26958.0,0.0
-9377.0,13516.0,27533.0,0.0
-9404.0,13154.0,27577.0,0.0
-9353.0,12692.0,27397.0,0.0
-9325.0,12267.0,27281.0,0.0
-9306.0,11858.0,27189.0,0.0
-9287.0,11458.0,27102.0,0.0
-9249.0,11039.0,26957.0,0.0
-8441.0,9739.0,24571.0,0.0
-8118.0,9046.0,23601.0,0.0
-8147.0,8759.0,23652.0,0.0
-8148.0,8446.0,23626.0,0.0
-8418.0,8403.0,24376.0,0.0
-8413.0,8078.0,24328.0,0.0
-8398.0,7748.0,24250.0,0.0
-8393.0,7430.0,24203.0,0.0
-8382.0,7109.0,24136.0,0.0
-8363.0,6787.0,24049.0,0.0
-8362.0,6480.0,24009.0,0.0
-8345.0,6166.0,23927.0,0.0
-8324.0,5851.0,23830.0,0.0
-8338.0,5564.0,23831.0,0.0
-8334.0,5266.0,23783.0,0.0
-8317.0,4963.0,23700.0,0.0
-8327.0,4680.0,23691.0,0.0
-8328.0,4391.0,23657.0,0.0
-8322.0,4102.0,23601.0,0.0
-8333.0,3821.0,23595.0,0.0
-8326.0,3535.0,23535.0,0.0
-8312.0,3249.0,23459.0,0.0
-8344.0,2980.0,23508.0,0.0
-8319.0,2693.0,23397.0,0.0
-8343.0,2423.0,23424.0,0.0
-8336.0,2145.0,23361.0,0.0
-8335.0,1870.0,23316.0,0.0
-8650.0,1657.0,24157.0,0.0
-8725.0,1387.0,24320.0,0.0
-8707.0,1102.0,24225.0,0.0
-8698.0,819.0,24158.0,0.0
-8687.0,538.0,24080.0,0.0
-8708.0,260.0,24089.0,0.0
-8336.0,-17.0,23018.0,0.0
-8673.0,-294.0,23901.0,0.0
-8687.0,-570.0,23890.0,0.0
-8355.0,-813.0,22931.0,0.0
-8676.0,-1118.0,23765.0,0.0
-8670.0,-1391.0,23701.0,0.0
-8637.0,-1656.0,23559.0,0.0
-8654.0,-1931.0,23557.0,0.0
-8669.0,-2204.0,23547.0,0.0
-8665.0,-2474.0,23486.0,0.0
-8663.0,-2742.0,23427.0,0.0
-8660.0,-3011.0,23367.0,0.0
-8652.0,-3275.0,23292.0,0.0
-7921.0,-3245.0,21278.0,0.0
-8179.0,-3603.0,21918.0,0.0
-8180.0,-3856.0,21867.0,0.0
-8646.0,-4342.0,23060.0,0.0
-8653.0,-4612.0,23024.0,0.0
-8648.0,-4877.0,22956.0,0.0
-8360.0,-4972.0,22134.0,0.0
-8638.0,-5403.0,22815.0,0.0
-8661.0,-5684.0,22815.0,0.0
-8640.0,-5935.0,22702.0,0.0
-8641.0,-6202.0,22643.0,0.0
-8647.0,-6472.0,22601.0,0.0
-8647.0,-6739.0,22541.0,0.0
-8610.0,-6975.0,22383.0,0.0
-8652.0,-7276.0,22429.0,0.0
-8631.0,-7526.0,22314.0,0.0
-8334.0,-7524.0,21484.0,0.0
-8568.0,-8000.0,22022.0,0.0
-8567.0,-8265.0,21955.0,0.0
-8352.0,-8317.0,21341.0,0.0
-8524.0,-8754.0,21716.0,0.0
-8602.0,-9103.0,21847.0,0.0
-4.0,-5.0,13.0,0.0
-8627.0,-9669.0,21774.0,0.0
-10.0,-12.0,29.0,0.0
-15.0,-18.0,40.0,0.0
-15.0,-19.0,39.0,0.0
-15.0,-19.0,39.0,0.0
-16.0,-22.0,44.0,0.0
-10.0,-14.0,28.0,0.0
-13.0,-18.0,34.0,0.0
-15.0,-21.0,38.0,0.0
-16.0,-22.0,41.0,0.0
-10.0,-14.0,26.0,0.0
-18.0,-27.0,46.0,0.0
-19.0,-28.0,47.0,0.0
-16.0,-25.0,41.0,0.0
-16.0,-27.0,42.0,0.0
-15.0,-23.0,36.0,0.0
-18.0,-30.0,45.0,0.0
-21.0,-35.0,51.0,0.0
-25.0,-44.0,62.0,0.0
-22.0,-41.0,56.0,0.0
-30.0,-54.0,72.0,0.0
-22.0,-41.0,53.0,0.0
-24.0,-44.0,56.0,0.0
-28.0,-55.0,67.0,0.0
-23.0,-44.0,53.0,0.0
-30.0,-60.0,72.0,0.0
-30.0,-61.0,70.0,0.0
-31.0,-63.0,72.0,0.0
-33.0,-67.0,75.0,0.0
-30.0,-65.0,70.0,0.0
-32.0,-70.0,74.0,0.0
-35.0,-75.0,78.0,0.0
-39.0,-88.0,88.0,0.0
-35.0,-79.0,78.0,0.0
-38.0,-90.0,86.0,0.0
-41.0,-98.0,91.0,0.0
-46.0,-108.0,99.0,0.0
-48.0,-116.0,104.0,0.0
-43.0,-106.0,93.0,0.0
-40.0,-102.0,87.0,0.0
-43.0,-109.0,91.0,0.0
-48.0,-123.0,101.0,0.0
-43.0,-113.0,90.0,0.0
-48.0,-127.0,99.0,0.0
-45.0,-121.0,93.0,0.0
-46.0,-127.0,95.0,0.0
-47.0,-134.0,97.0,0.0
-50.0,-142.0,101.0,0.0
-46.0,-131.0,91.0,0.0
-48.0,-140.0,95.0,0.0
-54.0,-158.0,105.0,0.0
-51.0,-155.0,100.0,0.0
-54.0,-167.0,105.0,0.0
-52.0,-162.0,100.0,0.0
-53.0,-166.0,99.0,0.0
-50.0,-162.0,94.0,0.0
-52.0,-170.0,96.0,0.0
-52.0,-172.0,95.0,0.0
-55.0,-184.0,99.0,0.0
-51.0,-173.0,91.0,0.0
-54.0,-187.0,96.0,0.0
-49.0,-174.0,86.0,0.0
-51.0,-183.0,89.0,0.0
-53.0,-191.0,90.0,0.0
-53.0,-194.0,89.0,0.0
-52.0,-193.0,86.0,0.0
-47.0,-182.0,78.0,0.0
-46.0,-179.0,75.0,0.0
-46.0,-178.0,72.0,0.0
-45.0,-180.0,71.0,0.0
-48.0,-195.0,74.0,0.0
-66.0,-273.0,100.0,0.0
-68.0,-284.0,101.0,0.0
-68.0,-288.0,99.0,0.0
-67.0,-286.0,95.0,0.0
-66.0,-289.0,92.0,0.0
-66.0,-291.0,90.0,0.0
-66.0,-297.0,88.0,0.0
-63.0,-292.0,84.0,0.0
-63.0,-293.0,80.0,0.0
-62.0,-296.0,78.0,0.0
-6056.0,21325.0,19169.0,0.0
-6060.0,20862.0,19162.0,0.0
-6162.0,20745.0,19469.0,0.0
-6255.0,20592.0,19746.0,0.0
-10476.0,33715.0,33035.0,0.0
-10254.0,32270.0,32309.0,0.0
-10325.0,31770.0,32502.0,0.0
-10313.0,31021.0,32431.0,0.0
-10394.0,30564.0,32654.0,0.0
-10394.0,29877.0,32624.0,0.0
-10087.0,28341.0,31629.0,0.0
0.0,0.0,0.0,0.0
0.0,0.0,0.0,0.0
0.0,0.0,0.0,0.0
-10315.0,26422.0,32210.0,0.0
-10250.0,25647.0,31973.0,0.0
-10351.0,25297.0,32255.0,0.0
-10329.0,24654.0,32154.0,0.0
-11262.0,26243.0,35017.0,0.0
-11229.0,25546.0,34880.0,0.0
-11208.0,24886.0,34775.0,0.0
-11195.0,24253.0,34693.0,0.0
-11159.0,23585.0,34544.0,0.0
-11113.0,22908.0,34362.0,0.0
-11104.0,22319.0,34295.0,0.0
-10080.0,19749.0,31095.0,0.0
-10080.0,19245.0,31058.0,0.0
-10259.0,19083.0,31572.0,0.0
-10364.0,18773.0,31858.0,0.0
-10989.0,19379.0,33737.0,0.0
-10931.0,18757.0,33515.0,0.0
-10946.0,18271.0,33519.0,0.0
-10908.0,17707.0,33365.0,0.0
-8696.0,13719.0,26565.0,0.0
-8841.0,13550.0,26974.0,0.0
-9049.0,13465.0,27572.0,0.0
-9033.0,13044.0,27488.0,0.0
-9003.0,12609.0,27359.0,0.0
-8984.0,12194.0,27265.0,0.0
-8954.0,11772.0,27135.0,0.0
-8929.0,11365.0,27028.0,0.0
-8907.0,10965.0,26922.0,0.0
-8230.0,9791.0,24839.0,0.0
-8081.0,9285.0,24357.0,0.0
-8065.0,8940.0,24275.0,0.0
-8180.0,8740.0,24585.0,0.0
-8211.0,8447.0,24645.0,0.0
-8781.0,8688.0,26315.0,0.0
-8767.0,8332.0,26233.0,0.0
-8728.0,7959.0,26080.0,0.0
-8719.0,7616.0,26013.0,0.0
-8708.0,7275.0,25938.0,0.0
-8695.0,6937.0,25861.0,0.0
-8277.0,6295.0,24582.0,0.0
-8602.0,6223.0,25507.0,0.0
-8627.0,5924.0,25541.0,0.0
-8625.0,5606.0,25492.0,0.0
-8608.0,5282.0,25402.0,0.0
-8585.0,4959.0,25290.0,0.0
-8583.0,4651.0,25244.0,0.0
-8560.0,4335.0,25136.0,0.0
-8543.0,4023.0,25043.0,0.0
-8528.0,3717.0,24958.0,0.0
-8519.0,3416.0,24889.0,0.0
-8506.0,3116.0,24808.0,0.0
-8491.0,2817.0,24716.0,0.0
-8319.0,2474.0,24176.0,0.0
-8457.0,2226.0,24532.0,0.0
-8451.0,1938.0,24469.0,0.0
-8436.0,1649.0,24382.0,0.0
-8376.0,1356.0,24162.0,0.0
-8369.0,1074.0,24097.0,0.0
-8396.0,798.0,24131.0,0.0
-8393.0,518.0,24074.0,0.0
-8405.0,241.0,24061.0,0.0
-8221.0,-35.0,23489.0,0.0
-8373.0,-311.0,23873.0,0.0
-8384.0,-586.0,23859.0,0.0
-8256.0,-846.0,23447.0,0.0
-8375.0,-1131.0,23735.0,0.0
-8374.0,-1402.0,23682.0,0.0
-8379.0,-1674.0,23648.0,0.0
-8350.0,-1938.0,23518.0,0.0
-8372.0,-2213.0,23526.0,0.0
-8370.0,-2481.0,23469.0,0.0
-8359.0,-2745.0,23386.0,0.0
-8357.0,-3013.0,23330.0,0.0
-8360.0,-3281.0,23284.0,0.0
-7748.0,-3288.0,21532.0,0.0
-7899.0,-3604.0,21899.0,0.0
-7898.0,-3855.0,21845.0,0.0
-8355.0,-4344.0,23055.0,0.0
-8362.0,-4613.0,23017.0,0.0
-8358.0,-4877.0,22952.0,0.0
-8202.0,-5046.0,22468.0,0.0
-8354.0,-5404.0,22828.0,0.0
-8356.0,-5671.0,22777.0,0.0
-8370.0,-5945.0,22756.0,0.0
-8369.0,-6210.0,22693.0,0.0
-8347.0,-6460.0,22577.0,0.0
-8354.0,-6729.0,22532.0,0.0
-8361.0,-7002.0,22493.0,0.0
-8356.0,-7264.0,22418.0,0.0
-8364.0,-7537.0,22378.0,0.0
-8205.0,-7655.0,21888.0,0.0
-8371.0,-8078.0,22268.0,0.0
-8366.0,-8341.0,22192.0,0.0
-8175.0,-8414.0,21623.0,0.0
-8348.0,-8859.0,22014.0,0.0
-6.0,-6.0,17.0,0.0
-7728.0,-8699.0,20257.0,0.0
-10.0,-12.0,29.0,0.0
-10.0,-12.0,29.0,0.0
-10.0,-12.0,27.0,0.0
-8.0,-10.0,22.0,0.0
-11.0,-16.0,33.0,0.0
-7.0,-10.0,21.0,0.0
-14.0,-20.0,39.0,0.0
-6.0,-9.0,18.0,0.0
-14.0,-21.0,38.0,0.0
-11.0,-18.0,32.0,0.0
-18.0,-27.0,47.0,0.0
-13.0,-19.0,34.0,0.0
-13.0,-21.0,35.0,0.0
-18.0,-29.0,48.0,0.0
-23.0,-37.0,57.0,0.0
-21.0,-36.0,55.0,0.0
-23.0,-39.0,58.0,0.0
-19.0,-34.0,49.0,0.0
-23.0,-41.0,57.0,0.0
-20.0,-38.0,53.0,0.0
-23.0,-43.0,58.0,0.0
-20.0,-40.0,52.0,0.0
-17.0,-34.0,44.0,0.0
-24.0,-48.0,59.0,0.0
-26.0,-52.0,63.0,0.0
-25.0,-51.0,61.0,0.0
-29.0,-60.0,70.0,0.0
-28.0,-59.0,66.0,0.0
-30.0,-65.0,72.0,0.0
-32.0,-71.0,76.0,0.0
-30.0,-67.0,71.0,0.0
-32.0,-75.0,77.0,0.0
-32.0,-73.0,75.0,0.0
-32.0,-75.0,74.0,0.0
-37.0,-88.0,84.0,0.0
-37.0,-90.0,85.0,0.0
-38.0,-95.0,88.0,0.0
-39.0,-98.0,89.0,0.0
-37.0,-95.0,84.0,0.0
-41.0,-106.0,92.0,0.0
-42.0,-111.0,93.0,0.0
-39.0,-105.0,86.0,0.0
-39.0,-105.0,84.0,0.0
-41.0,-113.0,89.0,0.0
-39.0,-110.0,84.0,0.0
-41.0,-118.0,88.0,0.0
-44.0,-128.0,94.0,0.0
-42.0,-126.0,90.0,0.0
-44.0,-133.0,93.0,0.0
-42.0,-128.0,87.0,0.0
-43.0,-135.0,89.0,0.0
-44.0,-139.0,90.0,0.0
-46.0,-147.0,93.0,0.0
-43.0,-141.0,87.0,0.0
-43.0,-141.0,85.0,0.0
-46.0,-155.0,91.0,0.0
-43.0,-148.0,85.0,0.0
-43.0,-150.0,83.0,0.0
-44.0,-155.0,85.0,0.0
-47.0,-165.0,87.0,0.0
-46.0,-166.0,85.0,0.0
-47.0,-172.0,86.0,0.0
-46.0,-174.0,85.0,0.0
-43.0,-165.0,78.0,0.0
-45.0,-175.0,81.0,0.0
-46.0,-179.0,81.0,0.0
-43.0,-172.0,74.0,0.0
-43.0,-173.0,73.0,0.0
-41.0,-166.0,68.0,0.0
-42.0,-174.0,69.0,0.0
-41.0,-171.0,66.0,0.0
-61.0,-259.0,97.0,0.0
-65.0,-285.0,102.0,0.0
-63.0,-279.0,97.0,0.0
-64.0,-285.0,95.0,0.0
-63.0,-288.0,93.0,0.0
-61.0,-285.0,88.0,0.0
-63.0,-297.0,89.0,0.0
-60.0,-290.0,83.0,0.0
-60.0,-291.0,80.0,0.0
-59.0,-296.0,78.0,0.0
-5814.0,21339.0,19278.0,0.0
-5967.0,21408.0,19760.0,0.0
-6024.0,21127.0,19926.0,0.0
-6023.0,20648.0,19896.0,0.0
-9962.0,33378.0,32865.0,0.0
-9831.0,32195.0,32390.0,0.0
-9883.0,31635.0,32521.0,0.0
-9865.0,30861.0,32421.0,0.0
-9816.0,30012.0,32220.0,0.0
-9895.0,29563.0,32437.0,0.0
-9675.0,28246.0,31675.0,0.0
0.0,0.0,0.0,0.0
-559.0,1561.0,1829.0,0.0
-9744.0,26530.0,31783.0,0.0
-9783.0,26015.0,31867.0,0.0
-9916.0,25753.0,32260.0,0.0
-9929.0,25178.0,32256.0,0.0
-10800.0,26738.0,35041.0,0.0
-10809.0,26124.0,35025.0,0.0
-10781.0,25430.0,34889.0,0.0
-10761.0,24766.0,34775.0,0.0
-10750.0,24139.0,34697.0,0.0
-10696.0,23425.0,34476.0,0.0
-9776.0,20878.0,31468.0,0.0
-9706.0,20208.0,31202.0,0.0
-9698.0,19677.0,31130.0,0.0
-9801.0,19375.0,31420.0,0.0
-9843.0,18952.0,31511.0,0.0
-9991.0,18732.0,31941.0,0.0
-10318.0,18828.0,32940.0,0.0
-10503.0,18649.0,33485.0,0.0
-10490.0,18114.0,33395.0,0.0
-10483.0,17597.0,33325.0,0.0
-8390.0,13687.0,26634.0,0.0
-10365.0,16423.0,32857.0,0.0
-8717.0,13408.0,27593.0,0.0
-8681.0,12955.0,27440.0,0.0
-8668.0,12544.0,27360.0,0.0
-8637.0,12112.0,27220.0,0.0
-8621.0,11710.0,27132.0,0.0
-8595.0,11298.0,27008.0,0.0
-8564.0,10888.0,26872.0,0.0
-8545.0,10497.0,26771.0,0.0
-8132.0,9644.0,25437.0,0.0
-8293.0,9488.0,25903.0,0.0
-8266.0,9113.0,25778.0,0.0
-8354.0,8868.0,26016.0,0.0
-8453.0,8628.0,26281.0,0.0
-8442.0,8275.0,26203.0,0.0
-8432.0,7929.0,26135.0,0.0
-8408.0,7573.0,26017.0,0.0
-8385.0,7222.0,25905.0,0.0
-8367.0,6880.0,25805.0,0.0
-8340.0,6535.0,25680.0,0.0
-8263.0,6158.0,25402.0,0.0
-8311.0,5877.0,25507.0,0.0
-8303.0,5558.0,25443.0,0.0
-8288.0,5236.0,25350.0,0.0
-8283.0,4924.0,25293.0,0.0
-8271.0,4612.0,25213.0,0.0
-8259.0,4300.0,25130.0,0.0
-8240.0,3991.0,25033.0,0.0
-8229.0,3687.0,24955.0,0.0
-8221.0,3386.0,24884.0,0.0
-8203.0,3084.0,24786.0,0.0
-8192.0,2788.0,24708.0,0.0
-8179.0,2494.0,24625.0,0.0
-8166.0,2202.0,24540.0,0.0
-8164.0,1915.0,24488.0,0.0
-8146.0,1627.0,24388.0,0.0
-8077.0,1332.0,24136.0,0.0
-8066.0,1051.0,24059.0,0.0
-8103.0,777.0,24120.0,0.0
-8106.0,499.0,24082.0,0.0
-8110.0,222.0,24048.0,0.0
-8081.0,-52.0,23911.0,0.0
-8095.0,-328.0,23906.0,0.0
-8094.0,-601.0,23852.0,0.0
-8093.0,-873.0,23801.0,0.0
-8086.0,-1144.0,23734.0,0.0
-8089.0,-1415.0,23691.0,0.0
-8078.0,-1683.0,23610.0,0.0
-8065.0,-1949.0,23519.0,0.0
-8085.0,-2223.0,23530.0,0.0
-8078.0,-2488.0,23457.0,0.0
-8073.0,-2754.0,23392.0,0.0
-8085.0,-3025.0,23372.0,0.0
-8078.0,-3289.0,23300.0,0.0
-7606.0,-3348.0,21890.0,0.0
-7633.0,-3610.0,21914.0,0.0
-7627.0,-3858.0,21847.0,0.0
-8062.0,-4343.0,23039.0,0.0
-8063.0,-4608.0,22986.0,0.0
-8073.0,-4878.0,22958.0,0.0
-8033.0,-5118.0,22792.0,0.0
-8068.0,-5403.0,22832.0,0.0
-8069.0,-5669.0,22778.0,0.0
-8061.0,-5926.0,22695.0,0.0
-8055.0,-6186.0,22624.0,0.0
-8059.0,-6454.0,22577.0,0.0
-8066.0,-6724.0,22534.0,0.0
-8068.0,-6991.0,22480.0,0.0
-8075.0,-7262.0,22439.0,0.0
-8073.0,-7526.0,22373.0,0.0
-8057.0,-7776.0,22265.0,0.0
-8072.0,-8057.0,22244.0,0.0
-8064.0,-8317.0,22161.0,0.0
-8003.0,-8518.0,21930.0,0.0
-8077.0,-8866.0,22068.0,0.0
-8082.0,-9139.0,22015.0,0.0
-9.0,-11.0,28.0,0.0
-11.0,-14.0,33.0,0.0
-8.0,-11.0,25.0,0.0
-15.0,-18.0,42.0,0.0
-11.0,-15.0,32.0,0.0
-20.0,-27.0,55.0,0.0
-15.0,-20.0,41.0,0.0
-14.0,-20.0,38.0,0.0
-9.0,-14.0,27.0,0.0
-11.0,-15.0,29.0,0.0
-15.0,-22.0,41.0,0.0
-19.0,-29.0,51.0,0.0
-14.0,-21.0,37.0,0.0
-16.0,-27.0,45.0,0.0
-15.0,-26.0,41.0,0.0
-18.0,-32.0,49.0,0.0
-20.0,-35.0,54.0,0.0
-18.0,-31.0,47.0,0.0
-19.0,-36.0,52.0,0.0
-22.0,-40.0,57.0,0.0
-23.0,-45.0,62.0,0.0
-23.0,-45.0,60.0,0.0
-25.0,-49.0,64.0,0.0
-19.0,-39.0,51.0,0.0
-26.0,-55.0,68.0,0.0
-26.0,-55.0,66.0,0.0
-25.0,-54.0,64.0,0.0
-28.0,-60.0,70.0,0.0
-32.0,-69.0,79.0,0.0
-32.0,-73.0,82.0,0.0
-31.0,-71.0,77.0,0.0
-34.0,-78.0,82.0,0.0
-35.0,-82.0,85.0,0.0
-35.0,-84.0,85.0,0.0
-34.0,-82.0,81.0,0.0
-40.0,-98.0,94.0,0.0
-38.0,-97.0,92.0,0.0
-36.0,-93.0,86.0,0.0
-37.0,-96.0,86.0,0.0
-37.0,-98.0,86.0,0.0
-39.0,-105.0,91.0,0.0
-38.0,-105.0,89.0,0.0
-39.0,-109.0,90.0,0.0
-39.0,-108.0,87.0,0.0
-42.0,-119.0,93.0,0.0
-42.0,-124.0,95.0,0.0
-43.0,-128.0,97.0,0.0
-44.0,-133.0,98.0,0.0
-44.0,-134.0,96.0,0.0
-45.0,-139.0,97.0,0.0
-44.0,-139.0,95.0,0.0
-46.0,-148.0,99.0,0.0
-41.0,-137.0,89.0,0.0
-46.0,-152.0,97.0,0.0
-44.0,-152.0,94.0,0.0
-41.0,-142.0,87.0,0.0
-41.0,-144.0,84.0,0.0
-43.0,-151.0,86.0,0.0
-45.0,-162.0,90.0,0.0
-44.0,-161.0,87.0,0.0
-44.0,-163.0,86.0,0.0
-45.0,-167.0,87.0,0.0
-45.0,-171.0,86.0,0.0
-42.0,-164.0,80.0,0.0
-44.0,-174.0,83.0,0.0
-43.0,-174.0,80.0,0.0
-43.0,-175.0,79.0,0.0
-43.0,-177.0,77.0,0.0
-39.0,-167.0,70.0,0.0
-40.0,-172.0,71.0,0.0
-39.0,-167.0,67.0,0.0
-39.0,-176.0,68.0,0.0
-54.0,-241.0,89.0,0.0
-62.0,-279.0,101.0,0.0
-61.0,-283.0,98.0,0.0
-59.0,-280.0,94.0,0.0
-59.0,-283.0,92.0,0.0
-59.0,-287.0,90.0,0.0
-59.0,-290.0,87.0,0.0
-57.0,-287.0,83.0,0.0
-56.0,-290.0,80.0,0.0
-56.0,-293.0,79.0,0.0
-5899.0,22613.0,20529.0,0.0
-5760.0,21578.0,20013.0,0.0
-5803.0,21243.0,20131.0,0.0
-5786.0,20692.0,20035.0,0.0
-5849.0,20443.0,20224.0,0.0
-9385.0,32045.0,32394.0,0.0
-9432.0,31464.0,32500.0,0.0
-9356.0,30498.0,32190.0,0.0
-7133.0,22716.0,24502.0,0.0
-7121.0,22156.0,24424.0,0.0
-7132.0,21673.0,24420.0,0.0
-7122.0,21144.0,24351.0,0.0
-7130.0,20674.0,24339.0,0.0
-7099.0,20102.0,24195.0,0.0
-7182.0,19859.0,24440.0,0.0
-9508.0,25669.0,32305.0,0.0
-9504.0,25048.0,32240.0,0.0
-10358.0,26647.0,35084.0,0.0
-10332.0,25939.0,34940.0,0.0
-10324.0,25291.0,34860.0,0.0
-10300.0,24614.0,34723.0,0.0
-10300.0,24008.0,34670.0,0.0
-10248.0,23292.0,34440.0,0.0
-10230.0,22665.0,34323.0,0.0
-9302.0,20089.0,31164.0,0.0
-9306.0,19582.0,31128.0,0.0
-9441.0,19352.0,31529.0,0.0
-9559.0,19082.0,31875.0,0.0
-9696.0,18842.0,32281.0,0.0
-10035.0,18976.0,33357.0,0.0
-10112.0,18601.0,33560.0,0.0
-10061.0,17996.0,33337.0,0.0
-10081.0,17528.0,33353.0,0.0
-8063.0,13620.0,26634.0,0.0
-9971.0,16356.0,32884.0,0.0
-8364.0,13316.0,27540.0,0.0
-8345.0,12890.0,27435.0,0.0
-8315.0,12453.0,27295.0,0.0
-8298.0,12040.0,27192.0,0.0
-8275.0,11625.0,27072.0,0.0
-8258.0,11227.0,26975.0,0.0
-8238.0,10829.0,26866.0,0.0
-8224.0,10445.0,26777.0,0.0
-8195.0,10047.0,26638.0,0.0
-8101.0,9580.0,26290.0,0.0
-8152.0,9287.0,26411.0,0.0
-8148.0,8934.0,26353.0,0.0
-8132.0,8574.0,26259.0,0.0
-8108.0,8209.0,26138.0,0.0
-8102.0,7866.0,26073.0,0.0
-8078.0,7511.0,25953.0,0.0
-8062.0,7167.0,25857.0,0.0
-8045.0,6827.0,25761.0,0.0
-8033.0,6493.0,25674.0,0.0
-8024.0,6168.0,25603.0,0.0
-8014.0,5845.0,25528.0,0.0
-7998.0,5519.0,25432.0,0.0
-7980.0,5197.0,25329.0,0.0
-7978.0,4888.0,25279.0,0.0
-7950.0,4566.0,25144.0,0.0
-7937.0,4256.0,25056.0,0.0
-7922.0,3949.0,24964.0,0.0
-7922.0,3652.0,24921.0,0.0
-7908.0,3350.0,24830.0,0.0
-7901.0,3054.0,24763.0,0.0
-7886.0,2758.0,24671.0,0.0
-7867.0,2463.0,24566.0,0.0
-7863.0,2175.0,24504.0,0.0
-7860.0,1889.0,24449.0,0.0
-7848.0,1603.0,24365.0,0.0
-7835.0,1318.0,24276.0,0.0
-7831.0,1038.0,24216.0,0.0
-7825.0,758.0,24150.0,0.0
-7815.0,481.0,24075.0,0.0
-7807.0,205.0,24000.0,0.0
-7810.0,-69.0,23960.0,0.0
-7796.0,-342.0,23867.0,0.0
-7803.0,-615.0,23839.0,0.0
-7803.0,-886.0,23791.0,0.0
-7807.0,-1158.0,23755.0,0.0
-7789.0,-1425.0,23650.0,0.0
-7788.0,-1693.0,23593.0,0.0
-7789.0,-1961.0,23546.0,0.0
-7792.0,-2229.0,23506.0,0.0
-7775.0,-2491.0,23402.0,0.0
-7782.0,-2759.0,23372.0,0.0
-7785.0,-3026.0,23329.0,0.0
-7783.0,-3291.0,23271.0,0.0
-7753.0,-3541.0,23128.0,0.0
-7697.0,-3778.0,22908.0,0.0
-7478.0,-3924.0,22204.0,0.0
-7770.0,-4341.0,23018.0,0.0
-7788.0,-4615.0,23015.0,0.0
-7785.0,-4877.0,22952.0,0.0
-7786.0,-5140.0,22896.0,0.0
-7769.0,-5393.0,22794.0,0.0
-7786.0,-5668.0,22783.0,0.0
-7776.0,-5922.0,22698.0,0.0
-7788.0,-6196.0,22674.0,0.0
-7775.0,-6450.0,22580.0,0.0
-7781.0,-6717.0,22537.0,0.0
-7789.0,-6991.0,22504.0,0.0
-7774.0,-7240.0,22399.0,0.0
-7796.0,-7526.0,22401.0,0.0
-7796.0,-7792.0,22341.0,0.0
-7785.0,-8047.0,22246.0,0.0
-7777.0,-8305.0,22162.0,0.0
-7773.0,-8567.0,22088.0,0.0
-7799.0,-8864.0,22100.0,0.0
-6.0,-8.0,20.0,0.0
0.0,0.0,0.0,0.0
-8.0,-10.0,24.0,0.0
-5.0,-7.0,16.0,0.0
-10.0,-14.0,32.0,0.0
-10.0,-15.0,32.0,0.0
-10.0,-14.0,29.0,0.0
-10.0,-16.0,32.0,0.0
-9.0,-14.0,28.0,0.0
-5.0,-9.0,18.0,0.0
-9.0,-15.0,28.0,0.0
-12.0,-19.0,35.0,0.0
-16.0,-27.0,46.0,0.0
-28.0,-46.0,77.0,0.0
-20.0,-35.0,57.0,0.0
-25.0,-44.0,70.0,0.0
-19.0,-34.0,53.0,0.0
-17.0,-31.0,48.0,0.0
-21.0,-39.0,59.0,0.0
-18.0,-34.0,50.0,0.0
-16.0,-32.0,45.0,0.0
-15.0,-30.0,41.0,0.0
-16.0,-34.0,45.0,0.0
-17.0,-35.0,48.0,0.0
-17.0,-38.0,48.0,0.0
-23.0,-50.0,63.0,0.0
-22.0,-47.0,58.0,0.0
-23.0,-51.0,61.0,0.0
-24.0,-54.0,63.0,0.0
-28.0,-66.0,75.0,0.0
-31.0,-71.0,80.0,0.0
-26.0,-62.0,67.0,0.0
-28.0,-70.0,74.0,0.0
-31.0,-76.0,79.0,0.0
-33.0,-82.0,84.0,0.0
-34.0,-86.0,86.0,0.0
-34.0,-88.0,85.0,0.0
-36.0,-94.0,89.0,0.0
-34.0,-90.0,84.0,0.0
-32.0,-87.0,79.0,0.0
-34.0,-96.0,85.0,0.0
-38.0,-107.0,92.0,0.0
-33.0,-94.0,80.0,0.0
-34.0,-100.0,83.0,0.0
-39.0,-114.0,92.0,0.0
-37.0,-112.0,89.0,0.0
-36.0,-111.0,86.0,0.0
-39.0,-122.0,92.0,0.0
-42.0,-129.0,95.0,0.0
-42.0,-135.0,97.0,0.0
-41.0,-132.0,92.0,0.0
-36.0,-122.0,84.0,0.0
-39.0,-132.0,89.0,0.0
-39.0,-136.0,89.0,0.0
-38.0,-134.0,85.0,0.0
-39.0,-138.0,86.0,0.0
-38.0,-135.0,82.0,0.0
-40.0,-144.0,85.0,0.0
-43.0,-155.0,89.0,0.0
-40.0,-152.0,85.0,0.0
-39.0,-147.0,81.0,0.0
-42.0,-162.0,87.0,0.0
-40.0,-156.0,81.0,0.0
-40.0,-163.0,82.0,0.0
-41.0,-166.0,82.0,0.0
-39.0,-160.0,76.0,0.0
-38.0,-161.0,75.0,0.0
-38.0,-160.0,72.0,0.0
-35.0,-156.0,69.0,0.0
-35.0,-155.0,66.0,0.0
-35.0,-158.0,65.0,0.0
-37.0,-167.0,67.0,0.0
-36.0,-165.0,64.0,0.0
-46.0,-217.0,81.0,0.0
-57.0,-275.0,100.0,0.0
-58.0,-282.0,99.0,0.0
-56.0,-280.0,95.0,0.0
-56.0,-282.0,92.0,0.0
-56.0,-286.0,90.0,0.0
-56.0,-289.0,88.0,0.0
-56.0,-293.0,85.0,0.0
-53.0,-286.0,80.0,0.0
-53.0,-292.0,79.0,0.0
-5383.0,21599.0,19701.0,0.0
-5412.0,21212.0,19766.0,0.0
-5524.0,21145.0,20132.0,0.0
-5537.0,20704.0,20140.0,0.0
-5586.0,20403.0,20278.0,0.0
-8959.0,31960.0,32456.0,0.0
-8992.0,31329.0,32509.0,0.0
-8982.0,30564.0,32409.0,0.0
-6883.0,22875.0,24787.0,0.0
-9138.0,29660.0,32846.0,0.0
-7080.0,22440.0,25399.0,0.0
-7121.0,22041.0,25499.0,0.0
-7136.0,21566.0,25505.0,0.0
-7136.0,21052.0,25454.0,0.0
-7136.0,20551.0,25407.0,0.0
-7092.0,19938.0,25206.0,0.0
-7108.0,19503.0,25216.0,0.0
-9400.0,25166.0,33285.0,0.0
-9887.0,25826.0,34945.0,0.0
-9852.0,25104.0,34760.0,0.0
-9851.0,24480.0,34692.0,0.0
-9835.0,23834.0,34574.0,0.0
-9834.0,23232.0,34508.0,0.0
-9793.0,22550.0,34304.0,0.0
-9092.0,20401.0,31793.0,0.0
-9035.0,19749.0,31537.0,0.0
-9076.0,19321.0,31623.0,0.0
-9124.0,18910.0,31736.0,0.0
-9468.0,19098.0,32873.0,0.0
-9604.0,18849.0,33287.0,0.0
-9676.0,18469.0,33477.0,0.0
-9622.0,17855.0,33230.0,0.0
-9675.0,17448.0,33357.0,0.0
-9598.0,16813.0,33034.0,0.0
-7967.0,13549.0,27371.0,0.0
-8030.0,13252.0,27539.0,0.0
-7996.0,12799.0,27372.0,0.0
-7993.0,12403.0,27318.0,0.0
-7977.0,11991.0,27214.0,0.0
-7951.0,11571.0,27078.0,0.0
-7931.0,11165.0,26960.0,0.0
-7912.0,10770.0,26854.0,0.0
-7896.0,10381.0,26747.0,0.0
-7885.0,10005.0,26662.0,0.0
-7862.0,9621.0,26541.0,0.0
-7844.0,9247.0,26433.0,0.0
-7835.0,8888.0,26355.0,0.0
-7833.0,8542.0,26303.0,0.0
-7806.0,8172.0,26163.0,0.0
-7794.0,7824.0,26079.0,0.0
-7774.0,7473.0,25967.0,0.0
-7765.0,7135.0,25889.0,0.0
-7756.0,6801.0,25812.0,0.0
-7745.0,6469.0,25726.0,0.0
-7729.0,6137.0,25628.0,0.0
-7707.0,5804.0,25508.0,0.0
-7698.0,5485.0,25431.0,0.0
-7688.0,5167.0,25352.0,0.0
-7678.0,4854.0,25273.0,0.0
-7666.0,4542.0,25185.0,0.0
-7651.0,4232.0,25089.0,0.0
-7638.0,3926.0,24999.0,0.0
-7633.0,3625.0,24935.0,0.0
-7622.0,3326.0,24852.0,0.0
-7612.0,3029.0,24772.0,0.0
-7593.0,2732.0,24662.0,0.0
-7589.0,2442.0,24604.0,0.0
-7570.0,2150.0,24494.0,0.0
-7566.0,1865.0,24434.0,0.0
-7555.0,1580.0,24348.0,0.0
-7550.0,1298.0,24283.0,0.0
-7543.0,1017.0,24212.0,0.0
-7508.0,737.0,24054.0,0.0
-7474.0,459.0,23896.0,0.0
-7490.0,186.0,23896.0,0.0
-7530.0,-85.0,23975.0,0.0
-7525.0,-358.0,23909.0,0.0
-7523.0,-630.0,23854.0,0.0
-7522.0,-900.0,23801.0,0.0
-7515.0,-1169.0,23726.0,0.0
-7504.0,-1436.0,23645.0,0.0
-7507.0,-1705.0,23602.0,0.0
-7503.0,-1971.0,23539.0,0.0
-7497.0,-2235.0,23469.0,0.0
-7501.0,-2502.0,23429.0,0.0
-7486.0,-2762.0,23333.0,0.0
-7491.0,-3028.0,23294.0,0.0
-7499.0,-3296.0,23265.0,0.0
-7477.0,-3548.0,23143.0,0.0
-7416.0,-3781.0,22904.0,0.0
-7410.0,-4038.0,22831.0,0.0
-7479.0,-4338.0,22989.0,0.0
-7467.0,-4592.0,22899.0,0.0
-7468.0,-4854.0,22846.0,0.0
-7481.0,-5125.0,22833.0,0.0
-7487.0,-5391.0,22792.0,0.0
-7452.0,-5627.0,22630.0,0.0
-7396.0,-5844.0,22408.0,0.0
-7389.0,-6097.0,22330.0,0.0
-7381.0,-6349.0,22249.0,0.0
-7415.0,-6638.0,22289.0,0.0
-7485.0,-6964.0,22443.0,0.0
-7474.0,-7217.0,22350.0,0.0
-7480.0,-7486.0,22310.0,0.0
-7500.0,-7771.0,22312.0,0.0
-7489.0,-8024.0,22215.0,0.0
-7492.0,-8293.0,22164.0,0.0
-7511.0,-8581.0,22160.0,0.0
-11.0,-14.0,35.0,0.0
-11.0,-14.0,35.0,0.0
-7.0,-10.0,25.0,0.0
-11.0,-15.0,37.0,0.0
-7.0,-11.0,25.0,0.0
-11.0,-15.0,34.0,0.0
-15.0,-22.0,46.0,0.0
-14.0,-21.0,42.0,0.0
-14.0,-21.0,42.0,0.0
-16.0,-24.0,49.0,0.0
-22.0,-35.0,65.0,0.0
-22.0,-34.0,64.0,0.0
-22.0,-35.0,63.0,0.0
-22.0,-38.0,65.0,0.0
-24.0,-41.0,71.0,0.0
-15.0,-28.0,47.0,0.0
-16.0,-29.0,47.0,0.0
-22.0,-41.0,64.0,0.0
-19.0,-37.0,56.0,0.0
-23.0,-44.0,65.0,0.0
-20.0,-40.0,58.0,0.0
-24.0,-48.0,67.0,0.0
-28.0,-56.0,78.0,0.0
-28.0,-57.0,78.0,0.0
-30.0,-61.0,81.0,0.0
-28.0,-61.0,78.0,0.0
-22.0,-49.0,62.0,0.0
-26.0,-57.0,70.0,0.0
-28.0,-65.0,78.0,0.0
-28.0,-66.0,78.0,0.0
-30.0,-70.0,80.0,0.0
-34.0,-82.0,91.0,0.0
-33.0,-81.0,87.0,0.0
-32.0,-80.0,86.0,0.0
-38.0,-95.0,99.0,0.0
-35.0,-93.0,94.0,0.0
-37.0,-97.0,97.0,0.0
-34.0,-91.0,90.0,0.0
-35.0,-97.0,92.0,0.0
-37.0,-100.0,93.0,0.0
-39.0,-111.0,101.0,0.0
-42.0,-121.0,107.0,0.0
-38.0,-111.0,97.0,0.0
-42.0,-124.0,106.0,0.0
-40.0,-118.0,98.0,0.0
-38.0,-118.0,96.0,0.0
-40.0,-124.0,98.0,0.0
-41.0,-130.0,100.0,0.0
-41.0,-134.0,102.0,0.0
-40.0,-130.0,96.0,0.0
-40.0,-135.0,97.0,0.0
-42.0,-140.0,100.0,0.0
-42.0,-145.0,100.0,0.0
-42.0,-144.0,97.0,0.0
-39.0,-137.0,90.0,0.0
-46.0,-163.0,105.0,0.0
-44.0,-161.0,101.0,0.0
-41.0,-153.0,93.0,0.0
-43.0,-162.0,97.0,0.0
-41.0,-157.0,92.0,0.0
-42.0,-164.0,93.0,0.0
-41.0,-163.0,90.0,0.0
-44.0,-179.0,96.0,0.0
-40.0,-166.0,87.0,0.0
-43.0,-176.0,89.0,0.0
-41.0,-177.0,88.0,0.0
-41.0,-177.0,85.0,0.0
-38.0,-168.0,79.0,0.0
-40.0,-179.0,82.0,0.0
-36.0,-166.0,74.0,0.0
-35.0,-164.0,71.0,0.0
-35.0,-167.0,69.0,0.0
-35.0,-166.0,67.0,0.0
-37.0,-179.0,70.0,0.0
-40.0,-195.0,74.0,0.0
-56.0,-280.0,102.0,0.0
-56.0,-289.0,102.0,0.0
-56.0,-292.0,100.0,0.0
-55.0,-288.0,95.0,0.0
-54.0,-290.0,93.0,0.0
-54.0,-294.0,90.0,0.0
-53.0,-296.0,87.0,0.0
-52.0,-293.0,83.0,0.0
-52.0,-303.0,82.0,0.0
-5112.0,21523.0,19720.0,0.0
-5206.0,21402.0,20034.0,0.0
-5332.0,21398.0,20465.0,0.0
-5302.0,20777.0,20302.0,0.0
-5369.0,20540.0,20506.0,0.0
-5660.0,21139.0,21563.0,0.0
-8530.0,31105.0,32420.0,0.0
-465.0,1658.0,1766.0,0.0
-6559.0,22797.0,24812.0,0.0
-6707.0,22757.0,25313.0,0.0
-6834.0,22637.0,25735.0,0.0
-6861.0,22184.0,25778.0,0.0
-6843.0,21599.0,25656.0,0.0
-6830.0,21041.0,25553.0,0.0
-6805.0,20453.0,25397.0,0.0
-6786.0,19904.0,25274.0,0.0
-6791.0,19434.0,25237.0,0.0
-9429.0,26322.0,34966.0,0.0
-9293.0,25305.0,34391.0,0.0
-9331.0,24780.0,34463.0,0.0
-9408.0,24358.0,34670.0,0.0
-9400.0,23726.0,34572.0,0.0
-9366.0,23041.0,34375.0,0.0
-9374.0,22472.0,34337.0,0.0
-9354.0,21845.0,34193.0,0.0
-8629.0,19626.0,31480.0,0.0
-8631.0,19112.0,31422.0,0.0
-8756.0,18875.0,31818.0,0.0
-9062.0,19009.0,32866.0,0.0
-9250.0,18871.0,33477.0,0.0
-9270.0,18389.0,33483.0,0.0
-9234.0,17807.0,33292.0,0.0
-9225.0,17283.0,33193.0,0.0
-7502.0,13650.0,26941.0,0.0
-7664.0,13536.0,27469.0,0.0
-7686.0,13169.0,27492.0,0.0
-7686.0,12770.0,27439.0,0.0
-7636.0,12296.0,27211.0,0.0
-7637.0,11913.0,27165.0,0.0
-7624.0,11511.0,27068.0,0.0
-7603.0,11102.0,26938.0,0.0
-7593.0,10718.0,26853.0,0.0
-7567.0,10316.0,26709.0,0.0
-7555.0,9938.0,26615.0,0.0
-7544.0,9568.0,26527.0,0.0
-7529.0,9197.0,26425.0,0.0
-7519.0,8837.0,26337.0,0.0
-7499.0,8471.0,26218.0,0.0
-7488.0,8120.0,26131.0,0.0
-7479.0,7775.0,26052.0,0.0
-7456.0,7418.0,25920.0,0.0
-7446.0,7082.0,25836.0,0.0
-7443.0,6753.0,25776.0,0.0
-7428.0,6419.0,25675.0,0.0
-7411.0,6087.0,25569.0,0.0
-7404.0,5766.0,25495.0,0.0
-7392.0,5445.0,25405.0,0.0
-7380.0,5128.0,25316.0,0.0
-7372.0,4816.0,25238.0,0.0
-7353.0,4500.0,25123.0,0.0
-7351.0,4198.0,25066.0,0.0
