//X,Y,Z,Classification
-3530.0,-2293.0,20829.0,0.0
-3529.0,-2519.0,20772.0,0.0
-3532.0,-2749.0,20739.0,0.0
-3525.0,-2969.0,20650.0,0.0
-3524.0,-3194.0,20593.0,0.0
-3519.0,-3415.0,20520.0,0.0
-3519.0,-3640.0,20469.0,0.0
-3516.0,-3861.0,20401.0,0.0
-3514.0,-4084.0,20348.0,0.0
-5.0,-6.0,28.0,0.0
-6.0,-8.0,38.0,0.0
-6.0,-8.0,33.0,0.0
-5.0,-7.0,31.0,0.0
-4.0,-6.0,26.0,0.0
-4.0,-6.0,25.0,0.0
-4.0,-5.0,20.0,0.0
-3.0,-4.0,17.0,0.0
-4.0,-7.0,25.0,0.0
-8.0,-13.0,44.0,0.0
-4.0,-6.0,22.0,0.0
-8.0,-13.0,43.0,0.0
-7.0,-14.0,39.0,0.0
-7.0,-14.0,41.0,0.0
-7.0,-13.0,35.0,0.0
-7.0,-14.0,35.0,0.0
-9.0,-19.0,47.0,0.0
-8.0,-16.0,42.0,0.0
-7.0,-14.0,34.0,0.0
-8.0,-17.0,42.0,0.0
-8.0,-18.0,42.0,0.0
-6.0,-17.0,37.0,0.0
-11.0,-28.0,58.0,0.0
-10.0,-27.0,54.0,0.0
-11.0,-28.0,57.0,0.0
-11.0,-31.0,61.0,0.0
-10.0,-28.0,52.0,0.0
-12.0,-38.0,69.0,0.0
-13.0,-40.0,72.0,0.0
-12.0,-36.0,63.0,0.0
-12.0,-41.0,69.0,0.0
-14.0,-47.0,76.0,0.0
-15.0,-51.0,80.0,0.0
-14.0,-51.0,80.0,0.0
-14.0,-51.0,78.0,0.0
-15.0,-55.0,82.0,0.0
-14.0,-55.0,79.0,0.0
-17.0,-65.0,92.0,0.0
-18.0,-72.0,99.0,0.0
-19.0,-76.0,104.0,0.0
-18.0,-75.0,99.0,0.0
-20.0,-82.0,105.0,0.0
-17.0,-71.0,90.0,0.0
-18.0,-79.0,98.0,0.0
-18.0,-76.0,92.0,0.0
-18.0,-82.0,97.0,0.0
-19.0,-87.0,100.0,0.0
-19.0,-92.0,104.0,0.0
-19.0,-92.0,102.0,0.0
-20.0,-99.0,106.0,0.0
-18.0,-88.0,94.0,0.0
-20.0,-106.0,110.0,0.0
-18.0,-96.0,98.0,0.0
-20.0,-109.0,109.0,0.0
-20.0,-111.0,108.0,0.0
-20.0,-109.0,103.0,0.0
-21.0,-118.0,109.0,0.0
-19.0,-112.0,101.0,0.0
-21.0,-126.0,111.0,0.0
-19.0,-114.0,99.0,0.0
-19.0,-120.0,101.0,0.0
-21.0,-135.0,111.0,0.0
-21.0,-138.0,112.0,0.0
-20.0,-135.0,107.0,0.0
-20.0,-139.0,107.0,0.0
-20.0,-142.0,107.0,0.0
-21.0,-149.0,109.0,0.0
-20.0,-143.0,104.0,0.0
-20.0,-152.0,108.0,0.0
-20.0,-151.0,104.0,0.0
-20.0,-156.0,106.0,0.0
-19.0,-154.0,101.0,0.0
-19.0,-157.0,100.0,0.0
-19.0,-161.0,101.0,0.0
-18.0,-163.0,99.0,0.0
-19.0,-169.0,100.0,0.0
-18.0,-166.0,96.0,0.0
-19.0,-174.0,98.0,0.0
-19.0,-180.0,100.0,0.0
-17.0,-170.0,92.0,0.0
-18.0,-179.0,94.0,0.0
-16.0,-172.0,89.0,0.0
-16.0,-167.0,83.0,0.0
-16.0,-177.0,85.0,0.0
-15.0,-168.0,79.0,0.0
-16.0,-178.0,81.0,0.0
-14.0,-171.0,77.0,0.0
-14.0,-171.0,74.0,0.0
-15.0,-180.0,75.0,0.0
-14.0,-187.0,76.0,0.0
-14.0,-190.0,75.0,0.0
-15.0,-212.0,80.0,0.0
-19.0,-274.0,102.0,0.0
-20.0,-290.0,104.0,0.0
-19.0,-296.0,103.0,0.0
-19.0,-298.0,100.0,0.0
-18.0,-300.0,96.0,0.0
-17.0,-297.0,92.0,0.0
-17.0,-301.0,90.0,0.0
-1250.0,15381.0,14758.0,0.0
-1286.0,15169.0,14867.0,0.0
-2858.0,32339.0,32378.0,0.0
0.0,0.0,0.0,0.0
-3020.0,31530.0,32946.0,0.0
-2982.0,29936.0,31958.0,0.0
-3033.0,29302.0,31960.0,0.0
-1823.0,16957.0,18899.0,0.0
-1831.0,16417.0,18694.0,0.0
-1873.0,16174.0,18822.0,0.0
-1882.0,15683.0,18651.0,0.0
-1905.0,15315.0,18617.0,0.0
-1921.0,14903.0,18519.0,0.0
-2310.0,17309.0,21989.0,0.0
-3324.0,24040.0,31226.0,0.0
-2177.0,15216.0,20212.0,0.0
-2321.0,15674.0,21293.0,0.0
-2359.0,15395.0,21394.0,0.0
-2376.0,14994.0,21320.0,0.0
-2366.0,14433.0,21000.0,0.0
-2417.0,14258.0,21235.0,0.0
-3519.0,20075.0,30606.0,0.0
-3593.0,19827.0,30954.0,0.0
-3621.0,19324.0,30899.0,0.0
-4002.0,20654.0,33838.0,0.0
-4019.0,20062.0,33684.0,0.0
-4043.0,19513.0,33587.0,0.0
-3358.0,15675.0,27667.0,0.0
-3462.0,15623.0,28287.0,0.0
-3434.0,14982.0,27840.0,0.0
-3444.0,14523.0,27704.0,0.0
-3462.0,14108.0,27640.0,0.0
-3483.0,13713.0,27605.0,0.0
-3510.0,13343.0,27611.0,0.0
-3511.0,12889.0,27431.0,0.0
-3532.0,12516.0,27410.0,0.0
-3447.0,11784.0,26569.0,0.0
-3547.0,11693.0,27160.0,0.0
-4131.0,13128.0,31434.0,0.0
-4227.0,12941.0,31965.0,0.0
-4295.0,12661.0,32286.0,0.0
-4302.0,12205.0,32150.0,0.0
-3069.0,8370.0,22797.0,0.0
-3135.0,8216.0,23156.0,0.0
-3197.0,8044.0,23487.0,0.0
-3228.0,7791.0,23589.0,0.0
-3245.0,7503.0,23580.0,0.0
-3219.0,7126.0,23275.0,0.0
-3206.0,6785.0,23061.0,0.0
-3268.0,6605.0,23393.0,0.0
-3270.0,6300.0,23287.0,0.0
-3268.0,5995.0,23167.0,0.0
-3278.0,5716.0,23130.0,0.0
-3275.0,5416.0,22998.0,0.0
-3286.0,5146.0,22976.0,0.0
-3288.0,4863.0,22892.0,0.0
-3292.0,4586.0,22817.0,0.0
-3289.0,4303.0,22698.0,0.0
-3294.0,4038.0,22651.0,0.0
-3301.0,3773.0,22601.0,0.0
-3294.0,3496.0,22462.0,0.0
-3301.0,3238.0,22422.0,0.0
-3301.0,2975.0,22335.0,0.0
-3294.0,2709.0,22204.0,0.0
-3304.0,2461.0,22193.0,0.0
-3304.0,2205.0,22107.0,0.0
-3308.0,1956.0,22062.0,0.0
-3303.0,1703.0,21955.0,0.0
-3303.0,1455.0,21873.0,0.0
-3305.0,1210.0,21813.0,0.0
-3216.0,939.0,21159.0,0.0
-3304.0,724.0,21668.0,0.0
-3304.0,483.0,21603.0,0.0
-3233.0,239.0,21065.0,0.0
-3231.0,7.0,20992.0,0.0
-3296.0,-227.0,21353.0,0.0
-3308.0,-463.0,21363.0,0.0
-3258.0,-686.0,20978.0,0.0
-3288.0,-923.0,21113.0,0.0
-3304.0,-1159.0,21161.0,0.0
-3303.0,-1389.0,21097.0,0.0
-3294.0,-1613.0,20984.0,0.0
-3303.0,-1846.0,20981.0,0.0
-3300.0,-2072.0,20907.0,0.0
-3294.0,-2295.0,20811.0,0.0
-3295.0,-2523.0,20776.0,0.0
-3295.0,-2748.0,20718.0,0.0
-3292.0,-2971.0,20647.0,0.0
-3292.0,-3197.0,20604.0,0.0
-3289.0,-3419.0,20536.0,0.0
-3291.0,-3646.0,20501.0,0.0
-3287.0,-3866.0,20430.0,0.0
-3283.0,-4086.0,20357.0,0.0
-6.0,-8.0,39.0,0.0
-6.0,-8.0,38.0,0.0
-5.0,-7.0,30.0,0.0
-3274.0,-4973.0,20130.0,0.0
-8.0,-12.0,50.0,0.0
-7.0,-10.0,40.0,0.0
-7.0,-11.0,42.0,0.0
-5.0,-9.0,33.0,0.0
-5.0,-8.0,31.0,0.0
-9.0,-16.0,52.0,0.0
-7.0,-13.0,40.0,0.0
-7.0,-13.0,39.0,0.0
-5.0,-11.0,31.0,0.0
-9.0,-18.0,52.0,0.0
-8.0,-17.0,47.0,0.0
-9.0,-20.0,54.0,0.0
-9.0,-19.0,50.0,0.0
-6.0,-15.0,36.0,0.0
-7.0,-16.0,39.0,0.0
-10.0,-28.0,64.0,0.0
-8.0,-22.0,49.0,0.0
-12.0,-33.0,70.0,0.0
-12.0,-33.0,70.0,0.0
-9.0,-25.0,53.0,0.0
-10.0,-29.0,58.0,0.0
-11.0,-33.0,64.0,0.0
-13.0,-40.0,75.0,0.0
-14.0,-45.0,82.0,0.0
-13.0,-43.0,77.0,0.0
-14.0,-49.0,84.0,0.0
-12.0,-43.0,73.0,0.0
-13.0,-47.0,76.0,0.0
-13.0,-46.0,74.0,0.0
-15.0,-59.0,91.0,0.0
-17.0,-65.0,100.0,0.0
-15.0,-60.0,90.0,0.0
-16.0,-64.0,93.0,0.0
-15.0,-62.0,89.0,0.0
-19.0,-78.0,109.0,0.0
-19.0,-81.0,110.0,0.0
-18.0,-79.0,105.0,0.0
-18.0,-82.0,107.0,0.0
-19.0,-84.0,107.0,0.0
-17.0,-82.0,102.0,0.0
-20.0,-94.0,114.0,0.0
-17.0,-86.0,102.0,0.0
-20.0,-101.0,116.0,0.0
-20.0,-103.0,117.0,0.0
-19.0,-98.0,109.0,0.0
-19.0,-106.0,114.0,0.0
-21.0,-114.0,120.0,0.0
-19.0,-105.0,109.0,0.0
-20.0,-116.0,117.0,0.0
-19.0,-112.0,112.0,0.0
-21.0,-125.0,122.0,0.0
-20.0,-121.0,114.0,0.0
-21.0,-130.0,120.0,0.0
-21.0,-132.0,120.0,0.0
-20.0,-131.0,115.0,0.0
-19.0,-126.0,109.0,0.0
-20.0,-141.0,120.0,0.0
-21.0,-145.0,121.0,0.0
-20.0,-142.0,115.0,0.0
-21.0,-154.0,122.0,0.0
-20.0,-149.0,116.0,0.0
-20.0,-154.0,116.0,0.0
-21.0,-159.0,117.0,0.0
-20.0,-164.0,118.0,0.0
-20.0,-161.0,114.0,0.0
-20.0,-163.0,112.0,0.0
-19.0,-169.0,114.0,0.0
-19.0,-166.0,110.0,0.0
-19.0,-172.0,111.0,0.0
-19.0,-177.0,111.0,0.0
-19.0,-182.0,112.0,0.0
-18.0,-180.0,108.0,0.0
-19.0,-187.0,109.0,0.0
-17.0,-176.0,100.0,0.0
-18.0,-192.0,107.0,0.0
-17.0,-185.0,100.0,0.0
-17.0,-192.0,101.0,0.0
-16.0,-189.0,97.0,0.0
-15.0,-188.0,93.0,0.0
-15.0,-184.0,89.0,0.0
-15.0,-193.0,91.0,0.0
-14.0,-193.0,88.0,0.0
-14.0,-192.0,85.0,0.0
-14.0,-194.0,84.0,0.0
-13.0,-191.0,80.0,0.0
-14.0,-209.0,85.0,0.0
-13.0,-194.0,77.0,0.0
-14.0,-213.0,81.0,0.0
-17.0,-286.0,106.0,0.0
-17.0,-295.0,106.0,0.0
-16.0,-300.0,104.0,0.0
-16.0,-305.0,102.0,0.0
-15.0,-307.0,99.0,0.0
-15.0,-310.0,97.0,0.0
-15.0,-315.0,94.0,0.0
-1050.0,15214.0,14635.0,0.0
-1090.0,15074.0,14812.0,0.0
-1126.0,14871.0,14927.0,0.0
-2548.0,32172.0,32992.0,0.0
-2558.0,30910.0,32382.0,0.0
-2579.0,29869.0,31967.0,0.0
-2633.0,29246.0,31981.0,0.0
-2708.0,28869.0,32255.0,0.0
-2741.0,28055.0,32031.0,0.0
-2705.0,26619.0,31057.0,0.0
-1704.0,16128.0,19231.0,0.0
-1719.0,15651.0,19074.0,0.0
-1750.0,15343.0,19115.0,0.0
-2869.0,24233.0,30864.0,0.0
-2948.0,23988.0,31238.0,0.0
-1935.0,15185.0,20222.0,0.0
-2069.0,15648.0,21312.0,0.0
-2103.0,15350.0,21385.0,0.0
-2127.0,14982.0,21356.0,0.0
-3014.0,20492.0,29892.0,0.0
-3077.0,20200.0,30160.0,0.0
-3159.0,20020.0,30602.0,0.0
-3229.0,19762.0,30933.0,0.0
-3264.0,19287.0,30922.0,0.0
-3603.0,20564.0,33779.0,0.0
-3633.0,20028.0,33716.0,0.0
-3022.0,16094.0,27775.0,0.0
-3677.0,18909.0,33464.0,0.0
-3171.0,15745.0,28586.0,0.0
-3113.0,14931.0,27817.0,0.0
-3131.0,14500.0,27734.0,0.0
-3152.0,14089.0,27677.0,0.0
-3183.0,13731.0,27717.0,0.0
-3197.0,13303.0,27603.0,0.0
-3359.0,13484.0,28775.0,0.0
-3218.0,12459.0,27361.0,0.0
-3171.0,11837.0,26764.0,0.0
-3248.0,11682.0,27209.0,0.0
-3806.0,13183.0,31656.0,0.0
-3904.0,13017.0,32246.0,0.0
-3922.0,12582.0,32175.0,0.0
-2803.0,8649.0,22851.0,0.0
-2880.0,8536.0,23318.0,0.0
-2922.0,8318.0,23515.0,0.0
-2933.0,8008.0,23454.0,0.0
-2986.0,7817.0,23736.0,0.0
-2997.0,7513.0,23682.0,0.0
-3005.0,7207.0,23613.0,0.0
-3010.0,6898.0,23519.0,0.0
-3013.0,6588.0,23412.0,0.0
-3018.0,6291.0,23331.0,0.0
-3025.0,6000.0,23261.0,0.0
-3031.0,5711.0,23186.0,0.0
-3033.0,5418.0,23085.0,0.0
-3036.0,5132.0,22996.0,0.0
-3045.0,4859.0,22953.0,0.0
-3048.0,4578.0,22865.0,0.0
-3047.0,4299.0,22760.0,0.0
-3051.0,4026.0,22679.0,0.0
-3056.0,3760.0,22619.0,0.0
-3056.0,3490.0,22521.0,0.0
-3063.0,3231.0,22480.0,0.0
-3063.0,2967.0,22385.0,0.0
-3065.0,2709.0,22316.0,0.0
-3069.0,2454.0,22247.0,0.0
-3068.0,2198.0,22158.0,0.0
-3071.0,1947.0,22096.0,0.0
-3070.0,1696.0,22011.0,0.0
-3074.0,1450.0,21957.0,0.0
-3073.0,1203.0,21878.0,0.0
-2986.0,932.0,21180.0,0.0
-3071.0,715.0,21708.0,0.0
-3074.0,475.0,21658.0,0.0
-3002.0,231.0,21083.0,0.0
-3001.0,0.0,21010.0,0.0
-3064.0,-235.0,21382.0,0.0
-3073.0,-470.0,21375.0,0.0
-3073.0,-702.0,21309.0,0.0
-3059.0,-930.0,21153.0,0.0
-3073.0,-1166.0,21188.0,0.0
-3071.0,-1395.0,21111.0,0.0
-3070.0,-1623.0,21043.0,0.0
-3069.0,-1851.0,20980.0,0.0
-3071.0,-2079.0,20934.0,0.0
-3068.0,-2305.0,20865.0,0.0
-3060.0,-2524.0,20757.0,0.0
-3063.0,-2751.0,20723.0,0.0
-3059.0,-2972.0,20642.0,0.0
-3061.0,-3200.0,20612.0,0.0
-3058.0,-3420.0,20537.0,0.0
-3059.0,-3646.0,20499.0,0.0
-3053.0,-3863.0,20412.0,0.0
-3056.0,-4091.0,20388.0,0.0
-3.0,-5.0,23.0,0.0
-5.0,-8.0,33.0,0.0
-3049.0,-4755.0,20212.0,0.0
-7.0,-11.0,45.0,0.0
-5.0,-8.0,34.0,0.0
-6.0,-10.0,42.0,0.0
-4.0,-7.0,29.0,0.0
-5.0,-9.0,34.0,0.0
-5.0,-9.0,33.0,0.0
-4.0,-9.0,31.0,0.0
-5.0,-12.0,38.0,0.0
-9.0,-19.0,58.0,0.0
-6.0,-14.0,40.0,0.0
-10.0,-23.0,63.0,0.0
-6.0,-15.0,41.0,0.0
-7.0,-18.0,48.0,0.0
-9.0,-22.0,56.0,0.0
-5.0,-15.0,38.0,0.0
-7.0,-20.0,49.0,0.0
-9.0,-24.0,58.0,0.0
-7.0,-21.0,48.0,0.0
-8.0,-26.0,55.0,0.0
-8.0,-25.0,52.0,0.0
-8.0,-25.0,50.0,0.0
-9.0,-29.0,59.0,0.0
-11.0,-36.0,69.0,0.0
-10.0,-35.0,65.0,0.0
-11.0,-37.0,68.0,0.0
-10.0,-37.0,66.0,0.0
-13.0,-45.0,78.0,0.0
-14.0,-51.0,86.0,0.0
-13.0,-47.0,79.0,0.0
-12.0,-49.0,79.0,0.0
-14.0,-55.0,87.0,0.0
-15.0,-62.0,95.0,0.0
-13.0,-59.0,87.0,0.0
-13.0,-56.0,83.0,0.0
-15.0,-67.0,94.0,0.0
-16.0,-74.0,103.0,0.0
-16.0,-73.0,99.0,0.0
-15.0,-72.0,96.0,0.0
-15.0,-77.0,100.0,0.0
-17.0,-83.0,106.0,0.0
-16.0,-82.0,101.0,0.0
-17.0,-90.0,109.0,0.0
-16.0,-88.0,105.0,0.0
-17.0,-93.0,108.0,0.0
-16.0,-91.0,103.0,0.0
-17.0,-97.0,107.0,0.0
-17.0,-102.0,111.0,0.0
-16.0,-98.0,103.0,0.0
-18.0,-110.0,114.0,0.0
-18.0,-115.0,117.0,0.0
-18.0,-111.0,110.0,0.0
-18.0,-114.0,111.0,0.0
-16.0,-110.0,104.0,0.0
-18.0,-122.0,113.0,0.0
-17.0,-118.0,107.0,0.0
-18.0,-131.0,116.0,0.0
-16.0,-122.0,107.0,0.0
-19.0,-139.0,118.0,0.0
-18.0,-143.0,119.0,0.0
-18.0,-140.0,114.0,0.0
-18.0,-144.0,114.0,0.0
-18.0,-151.0,117.0,0.0
-18.0,-154.0,116.0,0.0
-17.0,-149.0,110.0,0.0
-17.0,-153.0,110.0,0.0
-18.0,-166.0,117.0,0.0
-16.0,-153.0,105.0,0.0
-16.0,-157.0,106.0,0.0
-17.0,-173.0,114.0,0.0
-18.0,-177.0,115.0,0.0
-16.0,-174.0,110.0,0.0
-16.0,-171.0,105.0,0.0
-17.0,-181.0,109.0,0.0
-15.0,-177.0,105.0,0.0
-15.0,-179.0,102.0,0.0
-15.0,-176.0,98.0,0.0
-15.0,-180.0,97.0,0.0
-14.0,-179.0,95.0,0.0
-13.0,-175.0,90.0,0.0
-14.0,-184.0,92.0,0.0
-14.0,-186.0,91.0,0.0
-13.0,-190.0,90.0,0.0
-13.0,-190.0,87.0,0.0
-11.0,-183.0,82.0,0.0
-12.0,-183.0,80.0,0.0
-12.0,-193.0,81.0,0.0
-10.0,-189.0,77.0,0.0
-11.0,-193.0,77.0,0.0
-11.0,-211.0,80.0,0.0
-14.0,-270.0,101.0,0.0
-14.0,-293.0,106.0,0.0
-13.0,-299.0,104.0,0.0
-13.0,-304.0,102.0,0.0
-12.0,-305.0,99.0,0.0
-12.0,-308.0,97.0,0.0
-11.0,-311.0,93.0,0.0
-1914.0,33783.0,32579.0,0.0
-894.0,14947.0,14723.0,0.0
-929.0,14738.0,14829.0,0.0
-2103.0,31725.0,32612.0,0.0
-2110.0,30294.0,31814.0,0.0
-2178.0,29810.0,31984.0,0.0
-2231.0,29144.0,31946.0,0.0
0.0,0.0,0.0,0.0
-2370.0,28293.0,32381.0,0.0
-2319.0,26517.0,31013.0,0.0
-2385.0,26120.0,31221.0,0.0
-1527.0,16038.0,19593.0,0.0
-1530.0,15431.0,19270.0,0.0
-1593.0,15429.0,19699.0,0.0
-1694.0,15762.0,20576.0,0.0
-1700.0,15212.0,20307.0,0.0
-1771.0,15237.0,20803.0,0.0
-1846.0,15292.0,21358.0,0.0
-1874.0,14940.0,21349.0,0.0
0.0,0.0,0.0,0.0
-2731.0,20200.0,30234.0,0.0
-2811.0,20040.0,30708.0,0.0
-2871.0,19726.0,30952.0,0.0
-2906.0,19250.0,30939.0,0.0
-2941.0,18783.0,30930.0,0.0
-3238.0,19941.0,33652.0,0.0
-2719.0,16149.0,27939.0,0.0
-2794.0,16001.0,28388.0,0.0
-2863.0,15814.0,28781.0,0.0
-2797.0,14895.0,27821.0,0.0
-2814.0,14452.0,27713.0,0.0
-2834.0,14033.0,27637.0,0.0
-2875.0,13720.0,27764.0,0.0
-2879.0,13245.0,27554.0,0.0
-3046.0,13501.0,28887.0,0.0
-3244.0,13848.0,30490.0,0.0
-3015.0,12394.0,28098.0,0.0
-2940.0,11636.0,27175.0,0.0
-3434.0,13077.0,31486.0,0.0
-3541.0,12971.0,32218.0,0.0
-3570.0,12572.0,32235.0,0.0
-2549.0,8622.0,22842.0,0.0
-2628.0,8536.0,23384.0,0.0
-2690.0,8382.0,23763.0,0.0
-2710.0,8094.0,23769.0,0.0
-2724.0,7796.0,23742.0,0.0
-2736.0,7491.0,23683.0,0.0
-2744.0,7183.0,23603.0,0.0
-2750.0,6873.0,23503.0,0.0
-2756.0,6569.0,23416.0,0.0
-2760.0,6267.0,23311.0,0.0
-2773.0,5986.0,23281.0,0.0
-2774.0,5687.0,23164.0,0.0
-2779.0,5399.0,23076.0,0.0
-2788.0,5119.0,23018.0,0.0
-2788.0,4831.0,22901.0,0.0
-2797.0,4561.0,22857.0,0.0
-2798.0,4282.0,22757.0,0.0
-2803.0,4012.0,22685.0,0.0
-2808.0,3745.0,22616.0,0.0
-2810.0,3478.0,22532.0,0.0
-2816.0,3216.0,22469.0,0.0
-2819.0,2956.0,22393.0,0.0
-2818.0,2694.0,22292.0,0.0
-2820.0,2438.0,22214.0,0.0
-2821.0,2183.0,22126.0,0.0
-2829.0,1936.0,22097.0,0.0
-2830.0,1686.0,22018.0,0.0
-2830.0,1438.0,21933.0,0.0
-2829.0,1191.0,21838.0,0.0
-2756.0,922.0,21190.0,0.0
-2838.0,708.0,21744.0,0.0
-2838.0,468.0,21668.0,0.0
-2771.0,223.0,21084.0,0.0
-2771.0,-7.0,21009.0,0.0
-2833.0,-242.0,21414.0,0.0
-2838.0,-477.0,21380.0,0.0
-2842.0,-709.0,21339.0,0.0
-2839.0,-941.0,21255.0,0.0
-2839.0,-1172.0,21192.0,0.0
-2838.0,-1400.0,21120.0,0.0
-2834.0,-1626.0,21030.0,0.0
-2838.0,-1857.0,21004.0,0.0
-2837.0,-2083.0,20937.0,0.0
-2839.0,-2310.0,20887.0,0.0
-2834.0,-2532.0,20800.0,0.0
-2832.0,-2754.0,20728.0,0.0
-2836.0,-2983.0,20706.0,0.0
-2828.0,-3200.0,20600.0,0.0
-2828.0,-3424.0,20554.0,0.0
-2827.0,-3647.0,20501.0,0.0
-7.0,-10.0,48.0,0.0
-2822.0,-4088.0,20372.0,0.0
-2817.0,-4304.0,20288.0,0.0
-7.0,-12.0,53.0,0.0
-8.0,-13.0,51.0,0.0
-5.0,-8.0,32.0,0.0
-6.0,-10.0,41.0,0.0
-4.0,-7.0,27.0,0.0
-5.0,-10.0,37.0,0.0
-6.0,-12.0,45.0,0.0
-7.0,-14.0,50.0,0.0
-7.0,-15.0,49.0,0.0
-6.0,-14.0,44.0,0.0
-6.0,-15.0,45.0,0.0
-7.0,-18.0,52.0,0.0
-9.0,-20.0,58.0,0.0
-6.0,-16.0,46.0,0.0
-6.0,-16.0,43.0,0.0
-9.0,-23.0,58.0,0.0
-9.0,-26.0,63.0,0.0
-10.0,-30.0,70.0,0.0
-9.0,-28.0,63.0,0.0
-8.0,-25.0,56.0,0.0
-8.0,-27.0,60.0,0.0
-9.0,-32.0,66.0,0.0
-10.0,-33.0,68.0,0.0
-11.0,-36.0,72.0,0.0
-8.0,-29.0,57.0,0.0
-11.0,-40.0,76.0,0.0
-10.0,-38.0,70.0,0.0
-9.0,-35.0,61.0,0.0
-13.0,-50.0,86.0,0.0
-11.0,-48.0,81.0,0.0
-13.0,-56.0,92.0,0.0
-11.0,-49.0,79.0,0.0
-13.0,-57.0,90.0,0.0
-13.0,-61.0,94.0,0.0
-15.0,-69.0,102.0,0.0
-13.0,-61.0,89.0,0.0
-13.0,-66.0,94.0,0.0
-14.0,-72.0,100.0,0.0
-15.0,-75.0,102.0,0.0
-16.0,-83.0,111.0,0.0
-15.0,-81.0,105.0,0.0
-14.0,-81.0,104.0,0.0
-15.0,-85.0,105.0,0.0
-16.0,-93.0,113.0,0.0
-15.0,-86.0,103.0,0.0
-15.0,-90.0,104.0,0.0
-16.0,-102.0,115.0,0.0
-16.0,-101.0,112.0,0.0
-16.0,-104.0,113.0,0.0
-17.0,-110.0,117.0,0.0
-17.0,-111.0,115.0,0.0
-16.0,-110.0,113.0,0.0
-17.0,-120.0,120.0,0.0
-17.0,-122.0,118.0,0.0
-16.0,-123.0,116.0,0.0
-18.0,-134.0,124.0,0.0
-17.0,-129.0,116.0,0.0
-17.0,-135.0,120.0,0.0
-18.0,-146.0,127.0,0.0
-17.0,-140.0,119.0,0.0
-16.0,-138.0,115.0,0.0
-16.0,-142.0,116.0,0.0
-16.0,-148.0,117.0,0.0
-17.0,-159.0,124.0,0.0
-15.0,-146.0,111.0,0.0
-18.0,-172.0,128.0,0.0
-16.0,-159.0,116.0,0.0
-16.0,-162.0,115.0,0.0
-15.0,-166.0,115.0,0.0
-15.0,-167.0,114.0,0.0
-16.0,-176.0,116.0,0.0
-15.0,-169.0,110.0,0.0
-15.0,-177.0,112.0,0.0
-14.0,-178.0,109.0,0.0
-14.0,-185.0,111.0,0.0
-15.0,-193.0,113.0,0.0
-14.0,-190.0,109.0,0.0
-14.0,-189.0,105.0,0.0
-13.0,-186.0,101.0,0.0
-13.0,-195.0,103.0,0.0
-12.0,-183.0,94.0,0.0
-12.0,-191.0,96.0,0.0
-12.0,-193.0,94.0,0.0
-11.0,-192.0,92.0,0.0
-10.0,-187.0,86.0,0.0
-11.0,-193.0,87.0,0.0
-11.0,-203.0,89.0,0.0
-10.0,-193.0,82.0,0.0
-9.0,-204.0,83.0,0.0
-8.0,-200.0,79.0,0.0
-9.0,-216.0,84.0,0.0
-11.0,-264.0,99.0,0.0
-11.0,-299.0,109.0,0.0
-11.0,-302.0,106.0,0.0
-11.0,-308.0,105.0,0.0
-10.0,-313.0,102.0,0.0
-10.0,-315.0,99.0,0.0
-8.0,-309.0,94.0,0.0
-1495.0,33788.0,32660.0,0.0
-701.0,14839.0,14652.0,0.0
-736.0,14651.0,14778.0,0.0
-1675.0,31400.0,32353.0,0.0
-1719.0,30413.0,32013.0,0.0
-1776.0,29731.0,31972.0,0.0
-1832.0,29068.0,31937.0,0.0
0.0,0.0,0.0,0.0
-1935.0,27732.0,31812.0,0.0
-1941.0,26483.0,31046.0,0.0
-2002.0,26041.0,31198.0,0.0
-2057.0,25548.0,31283.0,0.0
-1343.0,15933.0,19943.0,0.0
-1369.0,15539.0,19885.0,0.0
-2203.0,23942.0,31327.0,0.0
-1453.0,15126.0,20240.0,0.0
-1558.0,15550.0,21280.0,0.0
-1592.0,15250.0,21348.0,0.0
-1625.0,14934.0,21390.0,0.0
-2315.0,20430.0,29945.0,0.0
-2380.0,20180.0,30274.0,0.0
-2719.0,22165.0,34043.0,0.0
-2526.0,19792.0,31130.0,0.0
-2552.0,19237.0,30991.0,0.0
-2817.0,20430.0,33722.0,0.0
-2849.0,19880.0,33629.0,0.0
-2880.0,19337.0,33535.0,0.0
-2353.0,15213.0,27056.0,0.0
-2437.0,15167.0,27672.0,0.0
-2478.0,14845.0,27795.0,0.0
-2500.0,14415.0,27709.0,0.0
-2522.0,13998.0,27636.0,0.0
-2566.0,13711.0,27815.0,0.0
-2568.0,13209.0,27546.0,0.0
-2703.0,13374.0,28688.0,0.0
-2613.0,12438.0,27453.0,0.0
-2581.0,11818.0,26859.0,0.0
-2638.0,11608.0,27180.0,0.0
-2873.0,12154.0,29340.0,0.0
-3185.0,12943.0,32231.0,0.0
-3210.0,12530.0,32212.0,0.0
-2300.0,8615.0,22882.0,0.0
-2375.0,8532.0,23434.0,0.0
-2431.0,8372.0,23798.0,0.0
-2451.0,8084.0,23806.0,0.0
-2467.0,7786.0,23775.0,0.0
-2472.0,7462.0,23657.0,0.0
-2483.0,7160.0,23594.0,0.0
-2486.0,6839.0,23455.0,0.0
-2499.0,6552.0,23421.0,0.0
-2507.0,6254.0,23333.0,0.0
-2513.0,5956.0,23233.0,0.0
-2519.0,5663.0,23138.0,0.0
-2524.0,5376.0,23056.0,0.0
-2530.0,5090.0,22960.0,0.0
-2543.0,4828.0,22958.0,0.0
-2547.0,4544.0,22851.0,0.0
-2552.0,4269.0,22766.0,0.0
-2554.0,3995.0,22669.0,0.0
-2559.0,3726.0,22586.0,0.0
-2564.0,3463.0,22525.0,0.0
-2568.0,3200.0,22445.0,0.0
-2573.0,2940.0,22371.0,0.0
-2577.0,2683.0,22305.0,0.0
-2578.0,2426.0,22212.0,0.0
-2581.0,2173.0,22139.0,0.0
-2589.0,1926.0,22102.0,0.0
-2590.0,1676.0,22018.0,0.0
-2593.0,1429.0,21953.0,0.0
-2589.0,1182.0,21829.0,0.0
-2521.0,913.0,21172.0,0.0
-2595.0,698.0,21703.0,0.0
-2597.0,459.0,21638.0,0.0
-2542.0,216.0,21097.0,0.0
-2537.0,-14.0,20984.0,0.0
-2596.0,-249.0,21399.0,0.0
-2602.0,-483.0,21374.0,0.0
-2606.0,-716.0,21341.0,0.0
-2604.0,-946.0,21249.0,0.0
-2606.0,-1177.0,21194.0,0.0
-2601.0,-1403.0,21088.0,0.0
-2597.0,-1627.0,20996.0,0.0
-2603.0,-1859.0,20986.0,0.0
-2604.0,-2085.0,20925.0,0.0
-2604.0,-2311.0,20872.0,0.0
-2603.0,-2535.0,20803.0,0.0
-2598.0,-2754.0,20706.0,0.0
-2599.0,-2978.0,20665.0,0.0
-2597.0,-3201.0,20597.0,0.0
-2597.0,-3425.0,20554.0,0.0
-2594.0,-3644.0,20481.0,0.0
-2593.0,-3866.0,20427.0,0.0
-2592.0,-4088.0,20373.0,0.0
-2588.0,-4304.0,20295.0,0.0
-5.0,-9.0,41.0,0.0
-4.0,-7.0,28.0,0.0
-6.0,-11.0,44.0,0.0
-3.0,-5.0,23.0,0.0
-5.0,-10.0,42.0,0.0
-6.0,-12.0,46.0,0.0
-4.0,-9.0,35.0,0.0
-6.0,-13.0,45.0,0.0
-4.0,-8.0,29.0,0.0
-6.0,-14.0,45.0,0.0
-4.0,-11.0,35.0,0.0
-4.0,-11.0,33.0,0.0
-7.0,-19.0,53.0,0.0
-5.0,-13.0,37.0,0.0
-8.0,-23.0,59.0,0.0
-5.0,-16.0,40.0,0.0
-6.0,-19.0,49.0,0.0
-3.0,-12.0,30.0,0.0
-6.0,-18.0,42.0,0.0
-6.0,-19.0,43.0,0.0
-8.0,-28.0,61.0,0.0
-8.0,-30.0,63.0,0.0
-8.0,-31.0,63.0,0.0
-7.0,-28.0,54.0,0.0
-8.0,-32.0,62.0,0.0
-10.0,-39.0,73.0,0.0
-10.0,-42.0,77.0,0.0
-10.0,-39.0,71.0,0.0
-9.0,-43.0,74.0,0.0
-11.0,-46.0,79.0,0.0
-11.0,-52.0,87.0,0.0
-10.0,-48.0,76.0,0.0
-12.0,-59.0,93.0,0.0
-12.0,-58.0,90.0,0.0
-12.0,-62.0,93.0,0.0
-14.0,-71.0,103.0,0.0
-12.0,-65.0,93.0,0.0
-14.0,-73.0,102.0,0.0
-14.0,-77.0,105.0,0.0
-15.0,-85.0,112.0,0.0
-14.0,-84.0,109.0,0.0
-13.0,-81.0,104.0,0.0
-13.0,-82.0,101.0,0.0
-12.0,-78.0,95.0,0.0
-13.0,-85.0,101.0,0.0
-14.0,-96.0,112.0,0.0
-14.0,-97.0,110.0,0.0
-14.0,-97.0,107.0,0.0
-14.0,-99.0,108.0,0.0
-13.0,-98.0,104.0,0.0
-15.0,-114.0,118.0,0.0
-15.0,-113.0,116.0,0.0
-13.0,-108.0,107.0,0.0
-14.0,-113.0,109.0,0.0
-13.0,-111.0,105.0,0.0
-14.0,-122.0,113.0,0.0
-14.0,-117.0,106.0,0.0
-15.0,-134.0,120.0,0.0
-14.0,-130.0,113.0,0.0
-14.0,-127.0,108.0,0.0
-14.0,-139.0,116.0,0.0
-14.0,-135.0,111.0,0.0
-14.0,-139.0,110.0,0.0
-14.0,-146.0,113.0,0.0
-13.0,-138.0,106.0,0.0
-14.0,-152.0,113.0,0.0
-14.0,-158.0,115.0,0.0
-13.0,-154.0,110.0,0.0
-13.0,-156.0,108.0,0.0
-12.0,-160.0,109.0,0.0
-13.0,-167.0,111.0,0.0
-12.0,-163.0,106.0,0.0
-13.0,-179.0,113.0,0.0
-12.0,-168.0,104.0,0.0
-12.0,-166.0,100.0,0.0
-12.0,-174.0,102.0,0.0
-11.0,-180.0,103.0,0.0
-11.0,-179.0,100.0,0.0
-11.0,-180.0,99.0,0.0
-11.0,-183.0,97.0,0.0
-9.0,-185.0,96.0,0.0
-9.0,-180.0,91.0,0.0
-9.0,-183.0,90.0,0.0
-8.0,-176.0,84.0,0.0
-8.0,-185.0,86.0,0.0
-8.0,-185.0,83.0,0.0
-8.0,-192.0,84.0,0.0
-7.0,-197.0,84.0,0.0
-7.0,-188.0,77.0,0.0
-7.0,-198.0,79.0,0.0
-7.0,-205.0,80.0,0.0
-7.0,-251.0,94.0,0.0
-8.0,-290.0,106.0,0.0
-8.0,-304.0,107.0,0.0
-7.0,-307.0,105.0,0.0
-7.0,-309.0,101.0,0.0
-6.0,-303.0,95.0,0.0
-6.0,-317.0,96.0,0.0
-541.0,16984.0,16453.0,0.0
-583.0,16830.0,16653.0,0.0
-546.0,14571.0,14729.0,0.0
-579.0,14346.0,14814.0,0.0
-1308.0,30169.0,31826.0,0.0
-1374.0,29655.0,31959.0,0.0
-1432.0,28965.0,31894.0,0.0
-1479.0,28127.0,31645.0,0.0
-1538.0,27575.0,31700.0,0.0
-1559.0,26404.0,31019.0,0.0
-1622.0,26013.0,31233.0,0.0
-1671.0,25392.0,31161.0,0.0
0.0,0.0,0.0,0.0
-1156.0,15858.0,20337.0,0.0
-1166.0,15241.0,19984.0,0.0
-1206.0,15012.0,20130.0,0.0
-1302.0,15469.0,21215.0,0.0
-1339.0,15199.0,21324.0,0.0
-1373.0,14898.0,21386.0,0.0
0.0,0.0,0.0,0.0
-2027.0,20134.0,30273.0,0.0
-2073.0,19739.0,30385.0,0.0
-2145.0,19570.0,30848.0,0.0
-2193.0,19184.0,30974.0,0.0
-2430.0,20394.0,33738.0,0.0
-2463.0,19844.0,33644.0,0.0
-1986.0,15351.0,26683.0,0.0
-2149.0,15956.0,28441.0,0.0
-2120.0,15110.0,27630.0,0.0
-2163.0,14811.0,27794.0,0.0
-2185.0,14376.0,27698.0,0.0
-2209.0,13963.0,27631.0,0.0
-2250.0,13660.0,27775.0,0.0
-2264.0,13211.0,27615.0,0.0
-2289.0,12827.0,27579.0,0.0
-2207.0,11878.0,26281.0,0.0
-2280.0,11781.0,26839.0,0.0
-2637.0,13084.0,30708.0,0.0
-2809.0,13373.0,32360.0,0.0
-2838.0,12959.0,32350.0,0.0
-2856.0,12508.0,32236.0,0.0
-2048.0,8596.0,22889.0,0.0
-2116.0,8507.0,23422.0,0.0
-2172.0,8362.0,23829.0,0.0
-2188.0,8056.0,23783.0,0.0
-2200.0,7745.0,23714.0,0.0
-2213.0,7444.0,23661.0,0.0
-2226.0,7142.0,23600.0,0.0
-2233.0,6830.0,23488.0,0.0
-2245.0,6539.0,23437.0,0.0
-2251.0,6233.0,23322.0,0.0
-2261.0,5944.0,23251.0,0.0
-2265.0,5644.0,23129.0,0.0
-2274.0,5363.0,23067.0,0.0
-2285.0,5089.0,23022.0,0.0
-2289.0,4802.0,22912.0,0.0
-2296.0,4525.0,22826.0,0.0
-2305.0,4257.0,22773.0,0.0
-2310.0,3986.0,22693.0,0.0
-2314.0,3716.0,22604.0,0.0
-2319.0,3450.0,22523.0,0.0
-2328.0,3192.0,22475.0,0.0
-2327.0,2926.0,22349.0,0.0
-2330.0,2666.0,22256.0,0.0
-2337.0,2415.0,22208.0,0.0
-2342.0,2164.0,22153.0,0.0
-2343.0,1911.0,22053.0,0.0
-2350.0,1665.0,22012.0,0.0
-2353.0,1419.0,21939.0,0.0
-2350.0,1172.0,21820.0,0.0
-2291.0,906.0,21173.0,0.0
-2357.0,690.0,21688.0,0.0
-2364.0,452.0,21669.0,0.0
-2314.0,210.0,21124.0,0.0
-2309.0,-20.0,20991.0,0.0
-2366.0,-255.0,21437.0,0.0
-2369.0,-489.0,21382.0,0.0
-2372.0,-721.0,21327.0,0.0
-2373.0,-952.0,21274.0,0.0
-2372.0,-1181.0,21191.0,0.0
-2372.0,-1409.0,21118.0,0.0
-2369.0,-1634.0,21032.0,0.0
-2371.0,-1861.0,20981.0,0.0
-2373.0,-2088.0,20931.0,0.0
-2368.0,-2309.0,20833.0,0.0
-2373.0,-2539.0,20817.0,0.0
-2370.0,-2758.0,20729.0,0.0
-2366.0,-2978.0,20653.0,0.0
-2367.0,-3201.0,20602.0,0.0
-2367.0,-3426.0,20556.0,0.0
-2362.0,-3641.0,20466.0,0.0
-2364.0,-3867.0,20435.0,0.0
-2361.0,-4084.0,20361.0,0.0
-3.0,-5.0,27.0,0.0
-2360.0,-4531.0,20272.0,0.0
-4.0,-9.0,39.0,0.0
-5.0,-11.0,45.0,0.0
-4.0,-9.0,39.0,0.0
-6.0,-13.0,52.0,0.0
-6.0,-13.0,50.0,0.0
-4.0,-10.0,38.0,0.0
-3.0,-7.0,25.0,0.0
-5.0,-13.0,46.0,0.0
-4.0,-11.0,38.0,0.0
-4.0,-9.0,31.0,0.0
-6.0,-16.0,47.0,0.0
-6.0,-17.0,49.0,0.0
-5.0,-16.0,43.0,0.0
-6.0,-18.0,48.0,0.0
-7.0,-25.0,63.0,0.0
-6.0,-19.0,47.0,0.0
-6.0,-20.0,47.0,0.0
-8.0,-28.0,66.0,0.0
-8.0,-30.0,67.0,0.0
-8.0,-33.0,71.0,0.0
-7.0,-30.0,64.0,0.0
-9.0,-36.0,74.0,0.0
-9.0,-39.0,78.0,0.0
-9.0,-37.0,73.0,0.0
-8.0,-35.0,67.0,0.0
-10.0,-45.0,83.0,0.0
-10.0,-44.0,79.0,0.0
-9.0,-45.0,80.0,0.0
-10.0,-46.0,80.0,0.0
-9.0,-49.0,81.0,0.0
-9.0,-45.0,74.0,0.0
-9.0,-51.0,80.0,0.0
-11.0,-65.0,99.0,0.0
-11.0,-65.0,98.0,0.0
-9.0,-55.0,80.0,0.0
-11.0,-64.0,92.0,0.0
-12.0,-74.0,102.0,0.0
-12.0,-76.0,103.0,0.0
-12.0,-80.0,107.0,0.0
-12.0,-79.0,103.0,0.0
-13.0,-86.0,109.0,0.0
-12.0,-85.0,106.0,0.0
-12.0,-90.0,109.0,0.0
-13.0,-97.0,115.0,0.0
-13.0,-93.0,108.0,0.0
-12.0,-90.0,103.0,0.0
-14.0,-105.0,118.0,0.0
-14.0,-111.0,121.0,0.0
-13.0,-109.0,117.0,0.0
-13.0,-113.0,117.0,0.0
-12.0,-108.0,110.0,0.0
-14.0,-122.0,121.0,0.0
-13.0,-117.0,114.0,0.0
-13.0,-120.0,115.0,0.0
-13.0,-126.0,117.0,0.0
-14.0,-137.0,125.0,0.0
-14.0,-139.0,124.0,0.0
-13.0,-134.0,117.0,0.0
-14.0,-152.0,130.0,0.0
-13.0,-143.0,119.0,0.0
-13.0,-145.0,119.0,0.0
-12.0,-144.0,115.0,0.0
-13.0,-153.0,120.0,0.0
-13.0,-158.0,120.0,0.0
-13.0,-163.0,122.0,0.0
-12.0,-160.0,117.0,0.0
-12.0,-165.0,118.0,0.0
-12.0,-169.0,118.0,0.0
-12.0,-180.0,123.0,0.0
-11.0,-170.0,114.0,0.0
-11.0,-173.0,113.0,0.0
-11.0,-184.0,117.0,0.0
-10.0,-180.0,112.0,0.0
-11.0,-188.0,114.0,0.0
-9.0,-185.0,109.0,0.0
-9.0,-186.0,107.0,0.0
-10.0,-194.0,108.0,0.0
-8.0,-182.0,100.0,0.0
-8.0,-191.0,102.0,0.0
-8.0,-189.0,98.0,0.0
-8.0,-185.0,94.0,0.0
-7.0,-191.0,95.0,0.0
-7.0,-194.0,93.0,0.0
-7.0,-195.0,91.0,0.0
-6.0,-191.0,86.0,0.0
-6.0,-191.0,84.0,0.0
-5.0,-198.0,85.0,0.0
-5.0,-200.0,83.0,0.0
-5.0,-205.0,82.0,0.0
-4.0,-211.0,82.0,0.0
-4.0,-245.0,92.0,0.0
-5.0,-295.0,107.0,0.0
-5.0,-300.0,106.0,0.0
-5.0,-301.0,103.0,0.0
-3.0,-306.0,101.0,0.0
-3.0,-309.0,98.0,0.0
-2.0,-310.0,95.0,0.0
-122.0,17575.0,17093.0,0.0
-162.0,17347.0,17234.0,0.0
-170.0,14374.0,14588.0,0.0
-204.0,14192.0,14713.0,0.0
-277.0,16412.0,17383.0,0.0
-307.0,15696.0,16983.0,0.0
-346.0,15603.0,17249.0,0.0
-384.0,15459.0,17463.0,0.0
-763.0,27638.0,31900.0,0.0
-802.0,26343.0,31070.0,0.0
-863.0,25901.0,31221.0,0.0
-915.0,25260.0,31123.0,0.0
0.0,0.0,0.0,0.0
-668.0,15789.0,20330.0,0.0
-1068.0,23529.0,30977.0,0.0
-751.0,15454.0,20806.0,0.0
-783.0,15087.0,20774.0,0.0
-832.0,15064.0,21220.0,0.0
-871.0,14827.0,21369.0,0.0
-1296.0,20827.0,30719.0,0.0
-1334.0,20262.0,30589.0,0.0
-1371.0,19699.0,30446.0,0.0
-1433.0,19516.0,30888.0,0.0
-1477.0,19073.0,30921.0,0.0
-1652.0,20266.0,33663.0,0.0
-1691.0,19735.0,33597.0,0.0
-1377.0,15300.0,26704.0,0.0
-1436.0,15188.0,27185.0,0.0
-1496.0,15081.0,27691.0,0.0
-1533.0,14737.0,27772.0,0.0
-1558.0,14292.0,27653.0,0.0
-1586.0,13892.0,27605.0,0.0
-1624.0,13586.0,27742.0,0.0
-1649.0,13175.0,27658.0,0.0
-1659.0,12663.0,27343.0,0.0
-1619.0,11810.0,26243.0,0.0
-1705.0,11885.0,27195.0,0.0
-1953.0,13003.0,30656.0,0.0
-2043.0,13005.0,31607.0,0.0
-2079.0,12635.0,31680.0,0.0
-2143.0,12441.0,32208.0,0.0
-1540.0,8539.0,22842.0,0.0
-1557.0,8242.0,22799.0,0.0
-1608.0,8115.0,23235.0,0.0
-1652.0,7951.0,23586.0,0.0
-1680.0,7706.0,23706.0,0.0
-1694.0,7401.0,23640.0,0.0
-1707.0,7095.0,23558.0,0.0
-1719.0,6789.0,23463.0,0.0
-1730.0,6491.0,23384.0,0.0
-1741.0,6191.0,23284.0,0.0
-1752.0,5903.0,23214.0,0.0
-1762.0,5615.0,23132.0,0.0
-1771.0,5327.0,23037.0,0.0
-1781.0,5049.0,22971.0,0.0
-1790.0,4771.0,22891.0,0.0
-1800.0,4498.0,22824.0,0.0
-1807.0,4225.0,22738.0,0.0
-1819.0,3962.0,22698.0,0.0
-1825.0,3692.0,22606.0,0.0
-1832.0,3428.0,22526.0,0.0
-1839.0,3168.0,22460.0,0.0
-1840.0,2901.0,22322.0,0.0
-1845.0,2642.0,22229.0,0.0
-1852.0,2391.0,22171.0,0.0
-1861.0,2144.0,22135.0,0.0
-1866.0,1895.0,22071.0,0.0
-1869.0,1645.0,21973.0,0.0
-1877.0,1403.0,21944.0,0.0
-1875.0,1155.0,21798.0,0.0
-1834.0,892.0,21217.0,0.0
-1887.0,676.0,21716.0,0.0
-1890.0,438.0,21641.0,0.0
-1852.0,197.0,21103.0,0.0
-1844.0,-32.0,20927.0,0.0
-1894.0,-266.0,21394.0,0.0
-1901.0,-499.0,21383.0,0.0
-1898.0,-728.0,21250.0,0.0
-1905.0,-960.0,21250.0,0.0
-1905.0,-1188.0,21173.0,0.0
-1907.0,-1415.0,21109.0,0.0
-1908.0,-1642.0,21048.0,0.0
-1911.0,-1871.0,21009.0,0.0
-1908.0,-2091.0,20901.0,0.0
-1909.0,-2315.0,20844.0,0.0
-1908.0,-2537.0,20776.0,0.0
-1912.0,-2765.0,20761.0,0.0
-1909.0,-2984.0,20675.0,0.0
-1907.0,-3202.0,20596.0,0.0
-1910.0,-3430.0,20578.0,0.0
-1906.0,-3644.0,20482.0,0.0
-1905.0,-3865.0,20426.0,0.0
-1900.0,-4077.0,20330.0,0.0
-1900.0,-4298.0,20284.0,0.0
-3.0,-8.0,34.0,0.0
-1896.0,-4739.0,20178.0,0.0
-1895.0,-4959.0,20129.0,0.0
-4.0,-9.0,36.0,0.0
-1890.0,-5396.0,20018.0,0.0
-3.0,-7.0,28.0,0.0
-3.0,-8.0,30.0,0.0
-5.0,-17.0,58.0,0.0
-3.0,-10.0,31.0,0.0
-5.0,-17.0,54.0,0.0
-4.0,-14.0,44.0,0.0
-5.0,-18.0,54.0,0.0
-3.0,-13.0,37.0,0.0
-4.0,-15.0,40.0,0.0
-4.0,-17.0,45.0,0.0
-5.0,-22.0,56.0,0.0
-6.0,-26.0,63.0,0.0
-3.0,-13.0,33.0,0.0
-6.0,-24.0,58.0,0.0
-6.0,-30.0,68.0,0.0
-4.0,-20.0,43.0,0.0
-6.0,-32.0,66.0,0.0
-6.0,-29.0,61.0,0.0
-7.0,-36.0,72.0,0.0
-7.0,-36.0,69.0,0.0
-6.0,-33.0,63.0,0.0
-6.0,-34.0,62.0,0.0
-7.0,-41.0,74.0,0.0
-6.0,-40.0,69.0,0.0
-7.0,-45.0,76.0,0.0
-7.0,-49.0,81.0,0.0
-8.0,-57.0,92.0,0.0
-8.0,-52.0,82.0,0.0
-8.0,-57.0,87.0,0.0
-10.0,-66.0,99.0,0.0
-9.0,-66.0,98.0,0.0
-9.0,-69.0,100.0,0.0
-9.0,-69.0,97.0,0.0
-10.0,-75.0,102.0,0.0
-10.0,-79.0,105.0,0.0
-9.0,-79.0,103.0,0.0
-9.0,-77.0,98.0,0.0
-9.0,-89.0,111.0,0.0
-10.0,-89.0,108.0,0.0
-9.0,-92.0,110.0,0.0
-9.0,-90.0,105.0,0.0
-9.0,-91.0,104.0,0.0
-10.0,-103.0,115.0,0.0
-10.0,-110.0,120.0,0.0
-9.0,-99.0,106.0,0.0
-10.0,-114.0,119.0,0.0
-10.0,-110.0,112.0,0.0
-9.0,-114.0,114.0,0.0
-10.0,-121.0,118.0,0.0
-8.0,-107.0,102.0,0.0
-9.0,-121.0,114.0,0.0
-9.0,-125.0,114.0,0.0
-10.0,-138.0,123.0,0.0
-9.0,-129.0,114.0,0.0
-9.0,-139.0,119.0,0.0
-8.0,-139.0,117.0,0.0
-9.0,-140.0,115.0,0.0
-8.0,-144.0,115.0,0.0
-9.0,-150.0,117.0,0.0
-8.0,-154.0,118.0,0.0
-8.0,-156.0,116.0,0.0
-8.0,-155.0,113.0,0.0
-8.0,-159.0,114.0,0.0
-8.0,-172.0,121.0,0.0
-7.0,-167.0,115.0,0.0
-7.0,-174.0,116.0,0.0
-7.0,-178.0,116.0,0.0
-6.0,-179.0,114.0,0.0
-7.0,-184.0,115.0,0.0
-6.0,-184.0,112.0,0.0
-5.0,-182.0,108.0,0.0
-6.0,-188.0,109.0,0.0
-5.0,-183.0,104.0,0.0
-5.0,-181.0,99.0,0.0
-4.0,-191.0,103.0,0.0
-4.0,-182.0,95.0,0.0
-4.0,-191.0,97.0,0.0
-3.0,-197.0,97.0,0.0
-3.0,-191.0,92.0,0.0
-2.0,-181.0,85.0,0.0
-2.0,-190.0,87.0,0.0
-2.0,-201.0,88.0,0.0
-2.0,-200.0,85.0,0.0
-1.0,-200.0,83.0,0.0
-1.0,-205.0,82.0,0.0
-1.0,-207.0,81.0,0.0
0.0,-233.0,89.0,0.0
0.0,-289.0,106.0,0.0
0.0,-293.0,104.0,0.0
0.0,-296.0,101.0,0.0
2.0,-307.0,102.0,0.0
2.0,-302.0,97.0,0.0
2.0,-307.0,95.0,0.0
94.0,16957.0,16523.0,0.0
55.0,16918.0,16839.0,0.0
16.0,16827.0,17109.0,0.0
-18.0,14084.0,14627.0,0.0
-58.0,15896.0,16867.0,0.0
-97.0,16035.0,17382.0,0.0
-132.0,15624.0,17303.0,0.0
-169.0,15435.0,17466.0,0.0
-232.0,17207.0,19896.0,0.0
-272.0,16951.0,20029.0,0.0
-485.0,25882.0,31255.0,0.0
-540.0,25255.0,31173.0,0.0
-599.0,24795.0,31285.0,0.0
-424.0,15753.0,20320.0,0.0
-698.0,23442.0,30919.0,0.0
-509.0,15552.0,20975.0,0.0
-548.0,15349.0,21174.0,0.0
-581.0,14994.0,21161.0,0.0
-620.0,14799.0,21368.0,0.0
0.0,0.0,0.0,0.0
-977.0,20194.0,30543.0,0.0
-1065.0,20550.0,31820.0,0.0
-1073.0,19399.0,30760.0,0.0
-1122.0,19053.0,30946.0,0.0
-1267.0,20253.0,33706.0,0.0
-1308.0,19705.0,33607.0,0.0
-1074.0,15277.0,26713.0,0.0
-1128.0,15161.0,27187.0,0.0
-1177.0,14986.0,27571.0,0.0
-1215.0,14662.0,27683.0,0.0
-1247.0,14266.0,27655.0,0.0
-1277.0,13879.0,27633.0,0.0
-1320.0,13622.0,27871.0,0.0
-1357.0,13320.0,28018.0,0.0
-1357.0,12665.0,27398.0,0.0
-1342.0,11915.0,26527.0,0.0
-1405.0,11871.0,27215.0,0.0
-1613.0,12974.0,30648.0,0.0
-1671.0,12795.0,31162.0,0.0
-1735.0,12647.0,31776.0,0.0
-1787.0,12405.0,32181.0,0.0
-1290.0,8523.0,22846.0,0.0
-1305.0,8209.0,22754.0,0.0
-1356.0,8111.0,23274.0,0.0
-1392.0,7926.0,23562.0,0.0
-1422.0,7697.0,23729.0,0.0
-1435.0,7375.0,23609.0,0.0
-1450.0,7076.0,23546.0,0.0
-1463.0,6773.0,23458.0,0.0
-1476.0,6473.0,23371.0,0.0
-1487.0,6176.0,23283.0,0.0
-1500.0,5886.0,23201.0,0.0
-1511.0,5599.0,23124.0,0.0
-1523.0,5321.0,23066.0,0.0
-1534.0,5038.0,22980.0,0.0
-1543.0,4761.0,22901.0,0.0
-1552.0,4484.0,22814.0,0.0
-1561.0,4211.0,22728.0,0.0
-1571.0,3945.0,22666.0,0.0
-1579.0,3678.0,22586.0,0.0
-1586.0,3413.0,22496.0,0.0
-1593.0,3151.0,22411.0,0.0
-1600.0,2893.0,22336.0,0.0
-1605.0,2634.0,22234.0,0.0
-1612.0,2382.0,22174.0,0.0
-1621.0,2136.0,22137.0,0.0
-1628.0,1888.0,22087.0,0.0
-1631.0,1638.0,21980.0,0.0
-1637.0,1394.0,21915.0,0.0
-1624.0,1138.0,21601.0,0.0
-1603.0,885.0,21195.0,0.0
-1650.0,669.0,21693.0,0.0
-1655.0,432.0,21644.0,0.0
-1624.0,192.0,21133.0,0.0
-1619.0,-37.0,20954.0,0.0
-1661.0,-271.0,21393.0,0.0
-1671.0,-505.0,21410.0,0.0
-1620.0,-711.0,20660.0,0.0
-1666.0,-960.0,21162.0,0.0
-1675.0,-1192.0,21193.0,0.0
-1675.0,-1418.0,21097.0,0.0
-1677.0,-1645.0,21045.0,0.0
-1680.0,-1873.0,21002.0,0.0
-1678.0,-2092.0,20900.0,0.0
-1680.0,-2319.0,20861.0,0.0
-1680.0,-2540.0,20789.0,0.0
-1680.0,-2762.0,20726.0,0.0
-1677.0,-2980.0,20641.0,0.0
-1679.0,-3205.0,20608.0,0.0
-1678.0,-3423.0,20537.0,0.0
-1679.0,-3649.0,20507.0,0.0
-1677.0,-3865.0,20434.0,0.0
-1675.0,-4084.0,20368.0,0.0
-1676.0,-4307.0,20332.0,0.0
-1675.0,-4530.0,20287.0,0.0
-1673.0,-4749.0,20232.0,0.0
-4.0,-12.0,51.0,0.0
-1669.0,-5190.0,20132.0,0.0
-3.0,-10.0,42.0,0.0
-3.0,-10.0,35.0,0.0
-3.0,-10.0,38.0,0.0
-1657.0,-6069.0,19910.0,0.0
-3.0,-11.0,36.0,0.0
-4.0,-13.0,40.0,0.0
-5.0,-20.0,59.0,0.0
-5.0,-21.0,60.0,0.0
-4.0,-19.0,53.0,0.0
-6.0,-26.0,72.0,0.0
-3.0,-13.0,36.0,0.0
-3.0,-16.0,40.0,0.0
-5.0,-26.0,64.0,0.0
-5.0,-25.0,60.0,0.0
-6.0,-33.0,75.0,0.0
-5.0,-28.0,62.0,0.0
-5.0,-31.0,67.0,0.0
-4.0,-26.0,55.0,0.0
-6.0,-35.0,73.0,0.0
-5.0,-34.0,68.0,0.0
-6.0,-35.0,69.0,0.0
-6.0,-39.0,74.0,0.0
-7.0,-43.0,79.0,0.0
-7.0,-44.0,79.0,0.0
-7.0,-47.0,82.0,0.0
-7.0,-48.0,83.0,0.0
-5.0,-44.0,74.0,0.0
-7.0,-57.0,92.0,0.0
-7.0,-56.0,88.0,0.0
-6.0,-55.0,85.0,0.0
-8.0,-69.0,104.0,0.0
-8.0,-69.0,102.0,0.0
-8.0,-70.0,102.0,0.0
-7.0,-73.0,102.0,0.0
-8.0,-76.0,103.0,0.0
-8.0,-76.0,102.0,0.0
-8.0,-85.0,112.0,0.0
-7.0,-78.0,101.0,0.0
-7.0,-73.0,91.0,0.0
-8.0,-87.0,107.0,0.0
-8.0,-92.0,110.0,0.0
-8.0,-97.0,114.0,0.0
-8.0,-94.0,108.0,0.0
-8.0,-107.0,120.0,0.0
-8.0,-100.0,110.0,0.0
-8.0,-106.0,114.0,0.0
-8.0,-105.0,110.0,0.0
-8.0,-115.0,117.0,0.0
-8.0,-111.0,112.0,0.0
-8.0,-125.0,124.0,0.0
-8.0,-120.0,115.0,0.0
-8.0,-122.0,114.0,0.0
-8.0,-128.0,117.0,0.0
-8.0,-130.0,116.0,0.0
-8.0,-140.0,123.0,0.0
-6.0,-134.0,115.0,0.0
-7.0,-139.0,116.0,0.0
-7.0,-141.0,116.0,0.0
-6.0,-150.0,120.0,0.0
-7.0,-153.0,120.0,0.0
-6.0,-158.0,121.0,0.0
-6.0,-162.0,121.0,0.0
-6.0,-161.0,119.0,0.0
-6.0,-162.0,116.0,0.0
-6.0,-178.0,125.0,0.0
-5.0,-166.0,114.0,0.0
-5.0,-175.0,117.0,0.0
-5.0,-167.0,109.0,0.0
-5.0,-181.0,116.0,0.0
-4.0,-182.0,114.0,0.0
-4.0,-190.0,116.0,0.0
-3.0,-189.0,112.0,0.0
-3.0,-179.0,104.0,0.0
-2.0,-186.0,105.0,0.0
-2.0,-182.0,100.0,0.0
-2.0,-191.0,102.0,0.0
-2.0,-199.0,104.0,0.0
-2.0,-197.0,100.0,0.0
-2.0,-198.0,99.0,0.0
-1.0,-199.0,95.0,0.0
0.0,-193.0,91.0,0.0
0.0,-201.0,92.0,0.0
0.0,-202.0,90.0,0.0
0.0,-204.0,87.0,0.0
0.0,-202.0,84.0,0.0
1.0,-206.0,84.0,0.0
1.0,-212.0,83.0,0.0
2.0,-230.0,87.0,0.0
3.0,-293.0,108.0,0.0
3.0,-311.0,111.0,0.0
3.0,-311.0,107.0,0.0
4.0,-314.0,105.0,0.0
5.0,-312.0,100.0,0.0
5.0,-313.0,97.0,0.0
464.0,15159.0,14818.0,0.0
425.0,14787.0,14765.0,0.0
385.0,14343.0,14630.0,0.0
346.0,13892.0,14475.0,0.0
317.0,13810.0,14700.0,0.0
288.0,13742.0,14944.0,0.0
295.0,15591.0,17322.0,0.0
302.0,17838.0,20250.0,0.0
260.0,17588.0,20403.0,0.0
221.0,17342.0,20558.0,0.0
180.0,17100.0,20716.0,0.0
141.0,16876.0,20897.0,0.0
102.0,16633.0,21055.0,0.0
63.0,16406.0,21231.0,0.0
23.0,15025.0,19882.0,0.0
-11.0,14939.0,20216.0,0.0
-50.0,15659.0,21672.0,0.0
-84.0,14855.0,21031.0,0.0
-121.0,14812.0,21456.0,0.0
-157.0,14573.0,21606.0,0.0
-269.0,20140.0,30562.0,0.0
-315.0,19618.0,30478.0,0.0
-364.0,19318.0,30735.0,0.0
-411.0,18959.0,30896.0,0.0
-496.0,20177.0,33693.0,0.0
-541.0,19604.0,33550.0,0.0
-462.0,15075.0,26450.0,0.0
-496.0,14657.0,26374.0,0.0
-533.0,14379.0,26543.0,0.0
-574.0,14161.0,26830.0,0.0
-619.0,14077.0,27383.0,0.0
-657.0,13804.0,27580.0,0.0
-663.0,12915.0,26516.0,0.0
-709.0,12831.0,27082.0,0.0
-746.0,12592.0,27339.0,0.0
-775.0,12205.0,27273.0,0.0
-802.0,11817.0,27189.0,0.0
-951.0,13140.0,31151.0,0.0
-985.0,12776.0,31229.0,0.0
-1042.0,12683.0,31985.0,0.0
-1080.0,12353.0,32167.0,0.0
-1109.0,11948.0,32146.0,0.0
-829.0,8410.0,23401.0,0.0
-853.0,8145.0,23461.0,0.0
-880.0,7913.0,23615.0,0.0
-905.0,7661.0,23713.0,0.0
-921.0,7347.0,23612.0,0.0
-936.0,7036.0,23508.0,0.0
-952.0,6737.0,23432.0,0.0
-967.0,6440.0,23349.0,0.0
-982.0,6154.0,23294.0,0.0
-995.0,5850.0,23159.0,0.0
-1010.0,5571.0,23108.0,0.0
-1022.0,5286.0,23018.0,0.0
-1035.0,5005.0,22932.0,0.0
-1047.0,4729.0,22858.0,0.0
-1061.0,4466.0,22831.0,0.0
-1070.0,4189.0,22719.0,0.0
-1081.0,3922.0,22649.0,0.0
-1091.0,3657.0,22570.0,0.0
-1101.0,3396.0,22505.0,0.0
-1108.0,3131.0,22397.0,0.0
-1118.0,2875.0,22334.0,0.0
-1127.0,2622.0,22266.0,0.0
-1136.0,2371.0,22215.0,0.0
-1142.0,2118.0,22110.0,0.0
-1148.0,1867.0,22010.0,0.0
-1155.0,1621.0,21939.0,0.0
-1162.0,1379.0,21882.0,0.0
-1161.0,1129.0,21679.0,0.0
-1146.0,875.0,21229.0,0.0
-1174.0,655.0,21569.0,0.0
-1180.0,419.0,21527.0,0.0
-1165.0,181.0,21105.0,0.0
-1161.0,-46.0,20885.0,0.0
-1183.0,-276.0,21158.0,0.0
-1188.0,-505.0,21103.0,0.0
-1162.0,-714.0,20512.0,0.0
-1185.0,-950.0,20810.0,0.0
-1182.0,-1168.0,20637.0,0.0
-1188.0,-1393.0,20641.0,0.0
-1182.0,-1602.0,20432.0,0.0
-1190.0,-1831.0,20495.0,0.0
-1199.0,-2063.0,20558.0,0.0
-1196.0,-2274.0,20435.0,0.0
-1198.0,-2495.0,20393.0,0.0
-1202.0,-2718.0,20380.0,0.0
-1190.0,-2906.0,20122.0,0.0
-1201.0,-3147.0,20231.0,0.0
-1198.0,-3356.0,20133.0,0.0
-1194.0,-3562.0,20024.0,0.0
-1194.0,-3775.0,19962.0,0.0
-1195.0,-3999.0,19952.0,0.0
-1200.0,-4233.0,19995.0,0.0
-1197.0,-4446.0,19928.0,0.0
-1197.0,-4665.0,19891.0,0.0
-1201.0,-4905.0,19937.0,0.0
-1195.0,-5106.0,19825.0,0.0
-1197.0,-5345.0,19858.0,0.0
-1196.0,-5566.0,19819.0,0.0
-1191.0,-5778.0,19747.0,0.0
-2.0,-9.0,32.0,0.0
-3.0,-12.0,40.0,0.0
-2.0,-9.0,27.0,0.0
-3.0,-17.0,55.0,0.0
-1101.0,-6460.0,18323.0,0.0
-3.0,-16.0,44.0,0.0
-3.0,-17.0,47.0,0.0
-2.0,-12.0,32.0,0.0
-3.0,-22.0,56.0,0.0
-2.0,-16.0,40.0,0.0
-2.0,-16.0,39.0,0.0
-3.0,-24.0,57.0,0.0
-4.0,-27.0,62.0,0.0
-3.0,-22.0,48.0,0.0
-4.0,-33.0,71.0,0.0
-4.0,-32.0,66.0,0.0
-4.0,-35.0,70.0,0.0
-4.0,-35.0,68.0,0.0
-4.0,-39.0,74.0,0.0
-4.0,-41.0,75.0,0.0
-4.0,-45.0,81.0,0.0
-4.0,-47.0,81.0,0.0
-5.0,-46.0,80.0,0.0
-4.0,-49.0,80.0,0.0
-5.0,-53.0,86.0,0.0
-5.0,-60.0,95.0,0.0
-5.0,-64.0,99.0,0.0
-6.0,-70.0,105.0,0.0
-5.0,-63.0,94.0,0.0
-5.0,-70.0,100.0,0.0
-5.0,-78.0,110.0,0.0
-5.0,-78.0,106.0,0.0
-5.0,-77.0,103.0,0.0
-5.0,-82.0,108.0,0.0
-6.0,-88.0,113.0,0.0
-5.0,-85.0,107.0,0.0
-5.0,-90.0,111.0,0.0
-5.0,-89.0,107.0,0.0
-5.0,-93.0,108.0,0.0
-5.0,-95.0,109.0,0.0
-5.0,-92.0,103.0,0.0
-5.0,-109.0,120.0,0.0
-4.0,-104.0,111.0,0.0
-5.0,-108.0,113.0,0.0
-5.0,-113.0,116.0,0.0
-5.0,-116.0,116.0,0.0
-4.0,-112.0,110.0,0.0
-4.0,-118.0,113.0,0.0
-4.0,-126.0,119.0,0.0
-4.0,-129.0,119.0,0.0
-3.0,-125.0,112.0,0.0
-3.0,-134.0,118.0,0.0
-3.0,-140.0,121.0,0.0
-3.0,-139.0,117.0,0.0
-3.0,-150.0,124.0,0.0
-3.0,-147.0,119.0,0.0
-2.0,-151.0,119.0,0.0
-2.0,-154.0,119.0,0.0
-2.0,-160.0,120.0,0.0
-2.0,-150.0,111.0,0.0
-2.0,-157.0,113.0,0.0
-2.0,-164.0,116.0,0.0
-1.0,-169.0,116.0,0.0
-1.0,-166.0,111.0,0.0
0.0,-179.0,118.0,0.0
0.0,-186.0,120.0,0.0
0.0,-185.0,116.0,0.0
0.0,-184.0,112.0,0.0
0.0,-195.0,116.0,0.0
0.0,-182.0,105.0,0.0
0.0,-189.0,107.0,0.0
0.0,-191.0,105.0,0.0
1.0,-196.0,105.0,0.0
1.0,-193.0,101.0,0.0
2.0,-198.0,102.0,0.0
2.0,-203.0,102.0,0.0
3.0,-202.0,98.0,0.0
3.0,-204.0,96.0,0.0
3.0,-214.0,98.0,0.0
4.0,-201.0,90.0,0.0
4.0,-209.0,90.0,0.0
4.0,-208.0,87.0,0.0
5.0,-206.0,84.0,0.0
5.0,-219.0,87.0,0.0
6.0,-222.0,85.0,0.0
8.0,-288.0,107.0,0.0
9.0,-304.0,109.0,0.0
10.0,-306.0,106.0,0.0
10.0,-310.0,103.0,0.0
11.0,-304.0,99.0,0.0
11.0,-316.0,98.0,0.0
655.0,15143.0,14823.0,0.0
613.0,14754.0,14752.0,0.0
573.0,14394.0,14702.0,0.0
532.0,13957.0,14563.0,0.0
502.0,13812.0,14723.0,0.0
473.0,13711.0,14933.0,0.0
446.0,13620.0,15153.0,0.0
548.0,17729.0,20155.0,0.0
498.0,17138.0,19909.0,0.0
459.0,16891.0,20051.0,0.0
425.0,16837.0,20428.0,0.0
392.0,16850.0,20895.0,0.0
354.0,16606.0,21050.0,0.0
317.0,16387.0,21238.0,0.0
260.0,15012.0,19892.0,0.0
242.0,15899.0,21545.0,0.0
204.0,15611.0,21638.0,0.0
162.0,14780.0,20956.0,0.0
128.0,14695.0,21319.0,0.0
94.0,14553.0,21606.0,0.0
69.0,16605.0,25234.0,0.0
29.0,16227.0,25247.0,0.0
-8.0,15796.0,25168.0,0.0
-46.0,15477.0,25260.0,0.0
-83.0,15126.0,25295.0,0.0
-120.0,14901.0,25539.0,0.0
-158.0,14640.0,25724.0,0.0
-198.0,14682.0,26458.0,0.0
-235.0,14422.0,26664.0,0.0
-273.0,14231.0,27002.0,0.0
-297.0,13376.0,26060.0,0.0
-338.0,13376.0,26765.0,0.0
-369.0,12952.0,26633.0,0.0
-407.0,12813.0,27088.0,0.0
-442.0,12574.0,27345.0,0.0
-472.0,12179.0,27255.0,0.0
-499.0,11753.0,27083.0,0.0
-605.0,13074.0,31046.0,0.0
-643.0,12781.0,31292.0,0.0
-690.0,12662.0,31984.0,0.0
-726.0,12332.0,32163.0,0.0
-757.0,11912.0,32104.0,0.0
-578.0,8455.0,23565.0,0.0
-607.0,8264.0,23841.0,0.0
-626.0,7939.0,23733.0,0.0
-645.0,7638.0,23682.0,0.0
-663.0,7335.0,23616.0,0.0
-681.0,7024.0,23509.0,0.0
-697.0,6718.0,23411.0,0.0
-714.0,6433.0,23367.0,0.0
-730.0,6131.0,23254.0,0.0
-745.0,5843.0,23177.0,0.0
-759.0,5554.0,23084.0,0.0
-775.0,5284.0,23056.0,0.0
-787.0,4996.0,22937.0,0.0
-801.0,4727.0,22894.0,0.0
-812.0,4446.0,22777.0,0.0
-825.0,4181.0,22729.0,0.0
-836.0,3909.0,22626.0,0.0
-848.0,3649.0,22575.0,0.0
-858.0,3387.0,22501.0,0.0
-868.0,3126.0,22421.0,0.0
-879.0,2871.0,22357.0,0.0
-887.0,2614.0,22261.0,0.0
-897.0,2364.0,22212.0,0.0
-904.0,2111.0,22118.0,0.0
-912.0,1863.0,22043.0,0.0
-919.0,1616.0,21959.0,0.0
-926.0,1373.0,21886.0,0.0
-924.0,1120.0,21618.0,0.0
-920.0,873.0,21300.0,0.0
-946.0,653.0,21696.0,0.0
-951.0,416.0,21622.0,0.0
-940.0,178.0,21177.0,0.0
-938.0,-50.0,20948.0,0.0
-966.0,-284.0,21430.0,0.0
-972.0,-516.0,21393.0,0.0
-972.0,-742.0,21235.0,0.0
-976.0,-970.0,21179.0,0.0
-981.0,-1201.0,21179.0,0.0
-983.0,-1425.0,21085.0,0.0
-986.0,-1651.0,21026.0,0.0
-988.0,-1876.0,20971.0,0.0
-990.0,-2098.0,20899.0,0.0
-991.0,-2321.0,20836.0,0.0
-993.0,-2542.0,20775.0,0.0
-994.0,-2765.0,20723.0,0.0
-993.0,-2982.0,20646.0,0.0
-995.0,-3208.0,20619.0,0.0
-994.0,-3422.0,20532.0,0.0
-994.0,-3644.0,20487.0,0.0
-994.0,-3863.0,20429.0,0.0
-993.0,-4079.0,20362.0,0.0
-991.0,-4297.0,20301.0,0.0
-990.0,-4518.0,20258.0,0.0
-988.0,-4733.0,20189.0,0.0
-987.0,-4959.0,20167.0,0.0
-983.0,-5167.0,20076.0,0.0
-982.0,-5394.0,20052.0,0.0
-978.0,-5610.0,19987.0,0.0
-1.0,-7.0,25.0,0.0
-972.0,-6049.0,19883.0,0.0
-2.0,-15.0,50.0,0.0
-960.0,-6463.0,19698.0,0.0
-2.0,-14.0,43.0,0.0
-872.0,-6336.0,17983.0,0.0
-1.0,-13.0,38.0,0.0
-859.0,-6713.0,17811.0,0.0
-2.0,-21.0,58.0,0.0
-2.0,-19.0,50.0,0.0
-1.0,-11.0,30.0,0.0
-3.0,-23.0,55.0,0.0
-3.0,-27.0,64.0,0.0
-2.0,-25.0,56.0,0.0
-4.0,-33.0,73.0,0.0
-3.0,-32.0,67.0,0.0
-2.0,-27.0,57.0,0.0
-3.0,-36.0,72.0,0.0
-3.0,-34.0,65.0,0.0
-3.0,-35.0,65.0,0.0
-4.0,-47.0,85.0,0.0
-3.0,-45.0,81.0,0.0
-4.0,-51.0,89.0,0.0
-3.0,-44.0,76.0,0.0
-3.0,-49.0,81.0,0.0
-4.0,-54.0,88.0,0.0
-4.0,-56.0,89.0,0.0
-4.0,-58.0,90.0,0.0
-4.0,-67.0,101.0,0.0
-4.0,-66.0,97.0,0.0
-4.0,-64.0,93.0,0.0
-4.0,-71.0,99.0,0.0
-4.0,-83.0,113.0,0.0
-4.0,-75.0,100.0,0.0
-4.0,-78.0,102.0,0.0
-4.0,-85.0,110.0,0.0
-4.0,-88.0,110.0,0.0
-4.0,-89.0,110.0,0.0
-4.0,-94.0,114.0,0.0
-4.0,-99.0,116.0,0.0
-3.0,-98.0,113.0,0.0
-4.0,-105.0,118.0,0.0
-3.0,-108.0,119.0,0.0
-3.0,-114.0,122.0,0.0
-3.0,-106.0,111.0,0.0
-3.0,-117.0,121.0,0.0
-3.0,-113.0,114.0,0.0
-2.0,-117.0,115.0,0.0
-2.0,-120.0,116.0,0.0
-2.0,-124.0,117.0,0.0
-2.0,-132.0,122.0,0.0
-2.0,-135.0,122.0,0.0
-2.0,-132.0,117.0,0.0
-2.0,-143.0,124.0,0.0
-1.0,-138.0,116.0,0.0
-1.0,-142.0,117.0,0.0
-1.0,-147.0,119.0,0.0
-1.0,-155.0,122.0,0.0
-1.0,-152.0,117.0,0.0
0.0,-157.0,119.0,0.0
0.0,-159.0,117.0,0.0
0.0,-166.0,120.0,0.0
0.0,-158.0,111.0,0.0
0.0,-173.0,119.0,0.0
0.0,-169.0,114.0,0.0
1.0,-183.0,120.0,0.0
1.0,-182.0,117.0,0.0
1.0,-181.0,114.0,0.0
1.0,-192.0,117.0,0.0
1.0,-190.0,113.0,0.0
2.0,-197.0,115.0,0.0
3.0,-195.0,111.0,0.0
3.0,-193.0,108.0,0.0
3.0,-200.0,108.0,0.0
3.0,-189.0,99.0,0.0
4.0,-207.0,107.0,0.0
4.0,-208.0,104.0,0.0
5.0,-206.0,100.0,0.0
5.0,-203.0,96.0,0.0
6.0,-209.0,97.0,0.0
6.0,-216.0,96.0,0.0
6.0,-216.0,94.0,0.0
7.0,-209.0,89.0,0.0
7.0,-213.0,87.0,0.0
7.0,-223.0,88.0,0.0
8.0,-221.0,85.0,0.0
11.0,-280.0,104.0,0.0
12.0,-299.0,108.0,0.0
12.0,-303.0,105.0,0.0
13.0,-304.0,102.0,0.0
13.0,-309.0,100.0,0.0
14.0,-310.0,97.0,0.0
841.0,15067.0,14769.0,0.0
800.0,14726.0,14744.0,0.0
758.0,14352.0,14679.0,0.0
714.0,13919.0,14542.0,0.0
686.0,13792.0,14722.0,0.0
660.0,13699.0,14938.0,0.0
638.0,13699.0,15262.0,0.0
609.0,13547.0,15421.0,0.0
578.0,13335.0,15511.0,0.0
1089.0,26140.0,31072.0,0.0
1027.0,25690.0,31209.0,0.0
645.0,16824.0,20890.0,0.0
605.0,16535.0,20987.0,0.0
556.0,15969.0,20723.0,0.0
526.0,15916.0,21120.0,0.0
495.0,15854.0,21514.0,0.0
459.0,15609.0,21664.0,0.0
406.0,14744.0,20934.0,0.0
378.0,14731.0,21400.0,0.0
401.0,16840.0,25036.0,0.0
361.0,16580.0,25230.0,0.0
323.0,16338.0,25454.0,0.0
286.0,16098.0,25684.0,0.0
248.0,15818.0,25851.0,0.0
210.0,15508.0,25968.0,0.0
173.0,15219.0,26120.0,0.0
136.0,14930.0,26271.0,0.0
100.0,14619.0,26381.0,0.0
64.0,14183.0,26258.0,0.0
28.0,13580.0,25804.0,0.0
-4.0,13734.0,26794.0,0.0
-38.0,13429.0,26910.0,0.0
-72.0,12940.0,26645.0,0.0
-106.0,12774.0,27044.0,0.0
-139.0,12545.0,27319.0,0.0
-167.0,11899.0,26669.0,0.0
-200.0,11747.0,27110.0,0.0
-273.0,13594.0,32327.0,0.0
-309.0,13193.0,32348.0,0.0
-340.0,12717.0,32172.0,0.0
-373.0,12298.0,32122.0,0.0
-290.0,8525.0,23010.0,0.0
-314.0,8278.0,23109.0,0.0
-341.0,8119.0,23463.0,0.0
-365.0,7889.0,23621.0,0.0
-387.0,7623.0,23674.0,0.0
-407.0,7315.0,23591.0,0.0
-425.0,7005.0,23487.0,0.0
-443.0,6709.0,23415.0,0.0
-461.0,6420.0,23358.0,0.0
-479.0,6128.0,23280.0,0.0
-494.0,5828.0,23158.0,0.0
-510.0,5547.0,23095.0,0.0
-525.0,5262.0,23004.0,0.0
-539.0,4982.0,22916.0,0.0
-554.0,4713.0,22873.0,0.0
-568.0,4442.0,22805.0,0.0
-580.0,4168.0,22702.0,0.0
-592.0,3901.0,22624.0,0.0
-604.0,3638.0,22556.0,0.0
-616.0,3375.0,22471.0,0.0
-627.0,3116.0,22391.0,0.0
-637.0,2860.0,22332.0,0.0
-647.0,2602.0,22218.0,0.0
-657.0,2356.0,22198.0,0.0
-665.0,2102.0,22086.0,0.0
-674.0,1856.0,22026.0,0.0
-683.0,1612.0,21972.0,0.0
-691.0,1369.0,21909.0,0.0
-690.0,1113.0,21563.0,0.0
-691.0,870.0,21346.0,0.0
-712.0,649.0,21686.0,0.0
-717.0,412.0,21603.0,0.0
-712.0,174.0,21229.0,0.0
-710.0,-53.0,20923.0,0.0
-733.0,-287.0,21371.0,0.0
-739.0,-518.0,21359.0,0.0
-743.0,-747.0,21285.0,0.0
-746.0,-974.0,21196.0,0.0
-750.0,-1201.0,21138.0,0.0
-754.0,-1428.0,21104.0,0.0
-756.0,-1651.0,21008.0,0.0
-758.0,-1875.0,20954.0,0.0
-762.0,-2102.0,20924.0,0.0
-763.0,-2322.0,20838.0,0.0
-765.0,-2544.0,20786.0,0.0
-765.0,-2762.0,20701.0,0.0
-766.0,-2982.0,20642.0,0.0
-766.0,-3203.0,20590.0,0.0
-767.0,-3424.0,20547.0,0.0
-766.0,-3639.0,20467.0,0.0
-766.0,-3857.0,20407.0,0.0
-765.0,-4073.0,20335.0,0.0
-765.0,-4297.0,20312.0,0.0
-764.0,-4523.0,20289.0,0.0
-762.0,-4734.0,20204.0,0.0
-760.0,-4954.0,20155.0,0.0
-758.0,-5174.0,20110.0,0.0
-755.0,-5395.0,20062.0,0.0
-752.0,-5611.0,20001.0,0.0
-748.0,-5828.0,19941.0,0.0
-744.0,-6042.0,19872.0,0.0
-741.0,-6267.0,19839.0,0.0
-723.0,-6367.0,19416.0,0.0
-711.0,-6511.0,19153.0,0.0
-712.0,-6778.0,19250.0,0.0
-681.0,-6749.0,18527.0,0.0
-667.0,-6874.0,18250.0,0.0
-671.0,-7182.0,18460.0,0.0
-668.0,-7420.0,18477.0,0.0
-2.0,-16.0,39.0,0.0
-2.0,-21.0,52.0,0.0
-2.0,-22.0,52.0,0.0
-1.0,-25.0,57.0,0.0
-2.0,-23.0,50.0,0.0
-2.0,-24.0,51.0,0.0
-2.0,-27.0,58.0,0.0
-2.0,-30.0,59.0,0.0
-2.0,-30.0,58.0,0.0
-2.0,-37.0,71.0,0.0
-2.0,-43.0,79.0,0.0
-2.0,-37.0,65.0,0.0
-3.0,-38.0,68.0,0.0
-2.0,-45.0,77.0,0.0
-2.0,-46.0,77.0,0.0
-2.0,-48.0,78.0,0.0
-2.0,-54.0,85.0,0.0
-2.0,-62.0,96.0,0.0
-2.0,-56.0,84.0,0.0
-3.0,-57.0,85.0,0.0
-2.0,-66.0,95.0,0.0
-2.0,-68.0,95.0,0.0
-3.0,-78.0,108.0,0.0
-2.0,-77.0,104.0,0.0
-3.0,-81.0,107.0,0.0
-3.0,-85.0,109.0,0.0
-2.0,-91.0,114.0,0.0
-2.0,-83.0,102.0,0.0
-2.0,-94.0,112.0,0.0
-1.0,-94.0,111.0,0.0
-2.0,-85.0,97.0,0.0
-2.0,-96.0,108.0,0.0
-1.0,-102.0,112.0,0.0
-2.0,-108.0,117.0,0.0
-1.0,-100.0,105.0,0.0
-1.0,-116.0,119.0,0.0
-1.0,-113.0,114.0,0.0
-1.0,-114.0,113.0,0.0
0.0,-119.0,115.0,0.0
