//X,Y,Z,Classification
15907,-16909,21471,0.0
15820,-16488,21476,0.0
15774,-16117,21537,0.0
15733,-15750,21599,0.0
15728,-15424,21710,0.0
15675,-15051,21752,0.0
15623,-14683,21793,0.0
15592,-14337,21860,0.0
15558,-13991,21922,0.0
15529,-13652,21991,0.0
15477,-13292,22020,0.0
15419,-12933,22041,0.0
15393,-12602,22106,0.0
15398,-12297,22212,0.0
15347,-11950,22237,0.0
15315,-11619,22287,0.0
15310,-11309,22375,0.0
15275,-10980,22417,0.0
15240,-10651,22457,0.0
15228,-10340,22529,0.0
15226,-10036,22615,0.0
15181,-9706,22635,0.0
15202,-9418,22751,0.0
15170,-9098,22787,0.0
15158,-8791,22853,0.0
15118,-8470,22875,0.0
15126,-8174,22966,0.0
15113,-7869,23024,0.0
15089,-7558,23065,0.0
15071,-7251,23112,0.0
15086,-6960,23210,0.0
15093,-6665,23295,0.0
15091,-6365,23364,0.0
15103,-6072,23454,0.0
15106,-5774,23526,0.0
15125,-5481,23623,0.0
15114,-5178,23673,0.0
15150,-4890,23798,0.0
15132,-4584,23834,0.0
15138,-4285,23906,0.0
15111,-3975,23926,0.0
15145,-3683,24043,0.0
15140,-3379,24094,0.0
15163,-3081,24190,0.0
15167,-2778,24255,0.0
15189,-2476,24344,0.0
15199,-2172,24417,0.0
15204,-1866,24479,0.0
15229,-1562,24573,0.0
15236,-1254,24637,0.0
15272,-947,24746,0.0
15266,-636,24787,0.0
15231,-323,24778,0.0
15279,-11,24904,0.0
14910,295,24350,0.0
14779,596,24178,0.0
14894,909,24411,0.0
14862,1215,24399,0.0
14798,1517,24336,0.0
15423,1904,25405,0.0
15459,2232,25505,0.0
15465,2558,25553,0.0
15495,2891,25641,0.0
15484,3216,25659,0.0
15533,3557,25776,0.0
15560,3897,25856,0.0
15606,4243,25965,0.0
15655,4595,26080,0.0
15657,4935,26114,0.0
15525,5232,25924,0.0
15569,5587,26026,0.0
15761,6003,26374,0.0
15717,6334,26328,0.0
15304,6508,25660,0.0
14946,6690,25083,0.0
14881,6995,24993,0.0
30,14,51,0.0
28,14,48,0.0
35,18,60,0.0
33,18,56,0.0
30,18,52,0.0
45,27,76,0.0
44,28,75,0.0
47,31,80,0.0
44,30,76,0.0
48,33,83,0.0
51,37,87,0.0
55,42,95,0.0
58,45,99,0.0
60,48,101,0.0
62,52,106,0.0
63,54,107,0.0
63,55,109,0.0
65,59,111,0.0
71,66,122,0.0
66,63,111,0.0
66,65,113,0.0
70,71,120,0.0
68,70,116,0.0
64,68,108,0.0
64,70,109,0.0
66,74,112,0.0
66,77,114,0.0
64,75,109,0.0
66,79,111,0.0
65,80,111,0.0
69,88,118,0.0
69,89,117,0.0
70,91,117,0.0
71,96,120,0.0
72,100,121,0.0
69,98,117,0.0
67,97,114,0.0
70,104,119,0.0
72,108,120,0.0
73,112,122,0.0
74,117,124,0.0
72,117,122,0.0
75,123,126,0.0
75,125,124,0.0
75,128,125,0.0
76,132,126,0.0
74,132,123,0.0
73,132,121,0.0
78,143,127,0.0
74,140,121,0.0
74,143,122,0.0
77,151,125,0.0
81,162,132,0.0
77,158,126,0.0
80,166,129,0.0
129,-348,71,0.0
122,-327,70,0.0
122,-322,74,0.0
122,-317,76,0.0
116,-298,74,0.0
118,-297,78,0.0
118,-296,81,0.0
117,-288,81,0.0
115,-280,84,0.0
116,-279,86,0.0
117,-277,89,0.0
115,-267,89,0.0
114,-262,91,0.0
116,-265,95,0.0
118,-265,98,0.0
118,-261,100,0.0
117,-258,102,0.0
122,-264,108,0.0
121,-258,109,0.0
124,-260,113,0.0
126,-260,117,0.0
125,-256,118,0.0
128,-259,124,0.0
127,-252,124,0.0
127,-250,126,0.0
131,-254,132,0.0
137,-261,139,0.0
155,-291,159,0.0
156,-288,162,0.0
153,-279,161,0.0
146,-263,157,0.0
131,-233,142,0.0
129,-226,142,0.0
116,-201,129,0.0
1111,-1885,1243,0.0
1114,-1863,1260,0.0
0,0,0,0.0
0,0,0,0.0
0,0,0,0.0
15791,-24881,18584,0.0
15958,-24767,18958,0.0
16108,-24621,19311,0.0
16375,-24648,19807,0.0
16388,-24290,19999,0.0
16457,-24012,20253,0.0
16380,-23526,20328,0.0
16346,-23106,20450,0.0
4805,-6684,6060,0.0
16235,-22214,20631,0.0
16122,-21700,20644,0.0
5165,-6839,6664,0.0
16035,-20872,20835,0.0
15963,-20426,20889,0.0
15885,-19979,20931,0.0
15830,-19564,21000,0.0
15780,-19159,21072,0.0
15739,-18770,21154,0.0
15677,-18358,21204,0.0
15623,-17959,21262,0.0
15596,-17595,21355,0.0
15534,-17195,21397,0.0
15498,-16826,21471,0.0
15423,-16420,21489,0.0
15380,-16050,21549,0.0
15366,-15713,21648,0.0
15271,-15297,21629,0.0
15272,-14979,21744,0.0
15242,-14633,21813,0.0
15202,-14280,21866,0.0
15184,-13948,21947,0.0
15145,-13600,21997,0.0
15115,-13262,22057,0.0
15084,-12926,22115,0.0
15037,-12577,22147,0.0
15006,-12245,22200,0.0
14961,-11902,22229,0.0
14936,-11578,22289,0.0
14921,-11263,22358,0.0
14890,-10936,22404,0.0
14880,-10628,22480,0.0
14846,-10303,22519,0.0
14851,-10006,22613,0.0
14842,-9700,22685,0.0
14828,-9391,22748,0.0
14780,-9062,22758,0.0
14815,-8786,22896,0.0
14764,-8457,22897,0.0
14781,-8170,23004,0.0
14768,-7864,23060,0.0
14746,-7556,23101,0.0
14747,-7260,23178,0.0
14726,-6952,23219,0.0
14733,-6658,23303,0.0
14724,-6358,23360,0.0
14718,-6058,23419,0.0
14689,-5750,23442,0.0
14640,-5436,23433,0.0
14703,-5163,23599,0.0
14650,-4848,23581,0.0
14658,-4555,23658,0.0
14575,-4232,23586,0.0
14775,-3991,23973,0.0
14808,-3699,24087,0.0
14769,-3389,24083,0.0
14796,-3093,24187,0.0
14821,-2796,24283,0.0
14816,-2492,24334,0.0
14830,-2190,24411,0.0
14848,-1888,24496,0.0
14861,-1583,24570,0.0
14874,-1278,24643,0.0
14853,-969,24661,0.0
14891,-662,24775,0.0
14895,-352,24829,0.0
14902,-42,24890,0.0
14700,266,24599,0.0
14472,566,24263,0.0
14548,874,24432,0.0
14755,1199,24822,0.0
14456,1481,24362,0.0
15039,1860,25384,0.0
15084,2189,25502,0.0
15071,2509,25520,0.0
15112,2842,25628,0.0
15124,3171,25685,0.0
15159,3508,25780,0.0
15181,3843,25852,0.0
15208,4183,25934,0.0
15208,4518,25967,0.0
15283,4878,26126,0.0
15216,5195,26042,0.0
15350,5583,26302,0.0
15387,5942,26393,0.0
15408,6298,26456,0.0
15178,6548,26088,0.0
14436,6557,24837,0.0
34,16,58,0.0
33,16,58,0.0
39,20,67,0.0
43,23,75,0.0
41,23,73,0.0
37,22,64,0.0
38,23,67,0.0
47,30,82,0.0
46,31,81,0.0
44,31,79,0.0
54,39,95,0.0
58,43,101,0.0
54,42,95,0.0
61,48,108,0.0
61,50,107,0.0
63,52,109,0.0
63,55,111,0.0
64,57,111,0.0
69,63,121,0.0
69,65,121,0.0
72,70,125,0.0
74,73,129,0.0
69,71,121,0.0
70,74,122,0.0
68,73,118,0.0
65,72,113,0.0
64,74,113,0.0
62,73,109,0.0
64,76,111,0.0
66,81,115,0.0
68,85,118,0.0
67,86,117,0.0
69,91,120,0.0
70,94,122,0.0
67,92,117,0.0
66,93,114,0.0
67,97,116,0.0
71,104,123,0.0
71,107,123,0.0
73,111,125,0.0
71,111,122,0.0
70,112,120,0.0
70,116,121,0.0
72,120,123,0.0
74,126,127,0.0
75,131,128,0.0
72,128,122,0.0
75,135,127,0.0
75,138,127,0.0
76,142,128,0.0
74,143,125,0.0
75,146,126,0.0
78,155,130,0.0
76,154,126,0.0
76,157,127,0.0
75,160,126,0.0
126,-350,73,0.0
120,-330,72,0.0
121,-327,76,0.0
120,-318,77,0.0
116,-303,77,0.0
118,-304,81,0.0
115,-293,81,0.0
114,-288,83,0.0
113,-282,85,0.0
112,-276,86,0.0
110,-265,86,0.0
113,-272,91,0.0
114,-268,93,0.0
116,-270,97,0.0
113,-262,98,0.0
115,-263,101,0.0
122,-272,109,0.0
120,-264,109,0.0
121,-264,112,0.0
127,-272,119,0.0
121,-257,117,0.0
121,-253,118,0.0
128,-264,127,0.0
126,-257,127,0.0
128,-256,130,0.0
128,-253,133,0.0
138,-268,145,0.0
153,-295,163,0.0
152,-288,163,0.0
141,-264,154,0.0
134,-246,148,0.0
124,-225,138,0.0
113,-202,128,0.0
1085,-1910,1237,0.0
1085,-1884,1251,0.0
0,0,0,0.0
0,0,0,0.0
0,0,0,0.0
0,0,0,0.0
15407,-24814,18662,0.0
15708,-24918,19202,0.0
0,0,0,0.0
16068,-24720,19995,0.0
15753,-23861,19773,0.0
15751,-23487,19936,0.0
15987,-23464,20401,0.0
15920,-22995,20479,0.0
15854,-22532,20552,0.0
15784,-22071,20620,0.0
15720,-21621,20689,0.0
15650,-21170,20747,0.0
5173,-6880,6908,0.0
15564,-20350,20927,0.0
15509,-19931,20995,0.0
15436,-19492,21036,0.0
15396,-19100,21119,0.0
15328,-18677,21160,0.0
15253,-18250,21188,0.0
15238,-17898,21297,0.0
6356,-7326,8936,0.0
6630,-7500,9377,0.0
15120,-16773,21505,0.0
15063,-16384,21544,0.0
15025,-16021,21609,0.0
14963,-15633,21636,0.0
14946,-15298,21727,0.0
14902,-14934,21773,0.0
14880,-14598,21854,0.0
14812,-14218,21862,0.0
14807,-13900,21961,0.0
14756,-13541,21989,0.0
14733,-13212,22059,0.0
14675,-12851,22072,0.0
14598,-12478,22055,0.0
14431,-12035,21900,0.0
14599,-11871,22250,0.0
14566,-11541,22293,0.0
14553,-11230,22368,0.0
14544,-10921,22445,0.0
14509,-10594,22479,0.0
14426,-10236,22439,0.0
14482,-9977,22613,0.0
14464,-9666,22669,0.0
14449,-9359,22730,0.0
14416,-9041,22761,0.0
14414,-8743,22838,0.0
14432,-8457,22947,0.0
14433,-8161,23027,0.0
14404,-7849,23059,0.0
14377,-7539,23091,0.0
14398,-7254,23199,0.0
14403,-6961,23281,0.0
14392,-6660,23336,0.0
14360,-6350,23354,0.0
14399,-6072,23488,0.0
14302,-5737,23398,0.0
14347,-5460,23540,0.0
14341,-5163,23595,0.0
14316,-4858,23618,0.0
14368,-4579,23769,0.0
14285,-4258,23694,0.0
14419,-4000,23977,0.0
14431,-3704,24059,0.0
14429,-3405,24116,0.0
14450,-3109,24209,0.0
14451,-2808,24268,0.0
14459,-2508,24339,0.0
14459,-2206,24394,0.0
14486,-1907,24494,0.0
14490,-1603,24555,0.0
14495,-1299,24615,0.0
14505,-994,24683,0.0
14538,-689,24790,0.0
14552,-381,24864,0.0
14584,-71,24965,0.0
14568,239,24986,0.0
14169,536,24346,0.0
14242,844,24517,0.0
14576,1178,25134,0.0
14084,1442,24328,0.0
14641,1817,25333,0.0
14666,2139,25415,0.0
14728,2470,25564,0.0
14730,2793,25605,0.0
14740,3121,25662,0.0
14766,3453,25743,0.0
14807,3792,25851,0.0
14843,4132,25947,0.0
14870,4474,26029,0.0
14887,4815,26093,0.0
14866,5144,26086,0.0
14505,5349,25481,0.0
14981,5869,26348,0.0
14995,6219,26400,0.0
14471,6336,25503,0.0
14553,6711,25674,0.0
29,14,52,0.0
31,15,55,0.0
25,13,44,0.0
36,20,65,0.0
38,22,69,0.0
40,24,71,0.0
45,29,81,0.0
38,25,70,0.0
50,34,91,0.0
50,36,91,0.0
46,33,83,0.0
59,44,107,0.0
63,49,114,0.0
57,46,101,0.0
52,43,93,0.0
62,54,113,0.0
69,61,124,0.0
67,60,119,0.0
65,61,118,0.0
68,66,122,0.0
68,68,122,0.0
79,80,141,0.0
69,72,124,0.0
68,73,122,0.0
66,73,118,0.0
71,80,127,0.0
64,75,116,0.0
65,78,117,0.0
61,75,109,0.0
60,75,108,0.0
63,79,111,0.0
63,83,114,0.0
64,85,113,0.0
66,91,118,0.0
65,92,116,0.0
66,95,118,0.0
65,96,116,0.0
68,101,120,0.0
68,104,120,0.0
69,108,123,0.0
67,108,119,0.0
69,113,122,0.0
67,112,118,0.0
68,116,120,0.0
71,123,125,0.0
72,129,128,0.0
70,129,124,0.0
71,132,125,0.0
71,136,125,0.0
71,136,123,0.0
72,143,127,0.0
75,150,130,0.0
71,146,124,0.0
75,157,130,0.0
74,157,127,0.0
76,165,132,0.0
118,-337,72,0.0
117,-328,74,0.0
115,-317,75,0.0
116,-316,78,0.0
111,-300,77,0.0
110,-293,79,0.0
111,-292,82,0.0
111,-288,84,0.0
106,-272,83,0.0
111,-282,90,0.0
110,-276,91,0.0
111,-272,93,0.0
109,-265,94,0.0
113,-270,99,0.0
115,-271,103,0.0
113,-263,103,0.0
116,-265,107,0.0
117,-265,111,0.0
117,-261,113,0.0
121,-265,118,0.0
119,-258,118,0.0
122,-261,123,0.0
126,-266,128,0.0
123,-257,129,0.0
124,-255,131,0.0
129,-262,139,0.0
142,-282,153,0.0
149,-294,164,0.0
145,-282,162,0.0
143,-273,160,0.0
124,-235,141,0.0
127,-236,146,0.0
121,-222,140,0.0
1073,-1933,1262,0.0
1055,-1873,1254,0.0
0,0,0,0.0
0,0,0,0.0
0,0,0,0.0
0,0,0,0.0
14951,-24623,18642,0.0
15347,-24894,19312,0.0
15785,-25215,20039,0.0
15717,-24723,20127,0.0
15161,-23481,19580,0.0
15628,-23828,20350,0.0
15579,-23377,20450,0.0
15493,-22879,20496,0.0
15429,-22419,20569,0.0
4796,-6855,6442,0.0
15296,-21507,20697,0.0
15274,-21121,20817,0.0
15202,-20669,20863,0.0
5151,-6885,7119,0.0
15089,-19822,20992,0.0
15027,-19398,21043,0.0
14966,-18979,21092,0.0
14938,-18605,21184,0.0
14907,-18231,21272,0.0
14847,-17827,21315,0.0
14807,-17447,21383,0.0
14772,-17077,21455,0.0
14719,-16690,21499,0.0
14707,-16354,21602,0.0
14668,-15988,21662,0.0
14600,-15594,21676,0.0
14590,-15265,21774,0.0
14548,-14903,21821,0.0
14508,-14549,21871,0.0
14255,-13987,21595,0.0
14387,-13807,21900,0.0
14288,-13404,21852,0.0
14299,-13108,21970,0.0
14259,-12766,22007,0.0
14192,-12404,22002,0.0
14131,-12048,22002,0.0
14259,-11856,22298,0.0
14220,-11520,22329,0.0
14208,-11211,22403,0.0
14125,-10846,22360,0.0
14126,-10549,22451,0.0
14069,-10209,22448,0.0
14092,-9930,22570,0.0
14125,-9656,22708,0.0
14085,-9333,22726,0.0
14091,-9040,22817,0.0
14074,-8735,22871,0.0
14066,-8435,22938,0.0
14077,-8146,23033,0.0
14040,-7830,23048,0.0
14043,-7538,23130,0.0
14038,-7241,23195,0.0
14032,-6944,23258,0.0
14057,-6662,23371,0.0
14032,-6356,23400,0.0
14033,-6062,23472,0.0
13936,-5728,23378,0.0
13956,-5444,23476,0.0
13711,-5061,23131,0.0
13606,-4737,23016,0.0
13706,-4483,23247,0.0
13939,-4265,23704,0.0
14063,-4007,23978,0.0
14073,-3712,24053,0.0
14128,-3428,24208,0.0
14115,-3125,24245,0.0
13997,-2802,24100,0.0
14036,-2512,24223,0.0
14138,-2229,24454,0.0
14142,-1927,24516,0.0
14137,-1624,24560,0.0
14135,-1320,24610,0.0
14155,-1018,24696,0.0
14183,-714,24795,0.0
14182,-407,24844,0.0
14200,-100,24923,0.0
14224,208,25012,0.0
13885,507,24462,0.0
14020,818,24746,0.0
14252,1145,25200,0.0
13747,1407,24347,0.0
14313,1782,25392,0.0
14362,2107,25522,0.0
14333,2422,25509,0.0
14381,2752,25634,0.0
14372,3074,25657,0.0
14426,3411,25790,0.0
14416,3735,25809,0.0
14466,4078,25935,0.0
14508,4422,26046,0.0
14518,4759,26095,0.0
14515,5094,26121,0.0
14079,5268,25367,0.0
14552,5786,26250,0.0
14592,6144,26352,0.0
14508,6451,26228,0.0
14184,6644,25668,0.0
13815,6802,25026,0.0
30,15,57,0.0
32,17,59,0.0
43,25,80,0.0
41,25,76,0.0
40,24,73,0.0
46,29,83,0.0
42,28,77,0.0
50,34,92,0.0
55,40,101,0.0
55,41,103,0.0
46,36,86,0.0
52,41,96,0.0
53,44,99,0.0
60,51,112,0.0
63,55,117,0.0
62,56,115,0.0
65,60,119,0.0
68,66,127,0.0
68,67,125,0.0
70,69,128,0.0
64,67,120,0.0
68,73,126,0.0
69,75,126,0.0
65,73,121,0.0
65,75,119,0.0
65,76,119,0.0
61,74,112,0.0
59,73,108,0.0
63,80,116,0.0
62,81,115,0.0
62,83,113,0.0
63,86,116,0.0
63,89,115,0.0
62,88,113,0.0
65,94,118,0.0
63,95,117,0.0
64,99,118,0.0
64,100,116,0.0
67,107,122,0.0
65,107,120,0.0
65,109,118,0.0
68,116,124,0.0
66,115,120,0.0
69,122,125,0.0
70,128,127,0.0
66,123,120,0.0
68,127,121,0.0
68,131,122,0.0
69,136,124,0.0
72,143,128,0.0
70,142,124,0.0
69,145,124,0.0
74,158,133,0.0
70,152,124,0.0
70,156,125,0.0
112,-328,71,0.0
108,-311,71,0.0
109,-308,74,0.0
107,-300,75,0.0
108,-299,78,0.0
104,-286,78,0.0
106,-286,82,0.0
104,-276,82,0.0
103,-270,83,0.0
104,-270,87,0.0
103,-263,88,0.0
108,-269,94,0.0
105,-260,93,0.0
107,-263,97,0.0
106,-256,98,0.0
111,-265,105,0.0
112,-261,107,0.0
111,-257,109,0.0
115,-264,115,0.0
116,-262,117,0.0
114,-254,117,0.0
116,-254,121,0.0
120,-258,127,0.0
117,-250,126,0.0
121,-253,132,0.0
127,-264,141,0.0
136,-277,152,0.0
143,-288,162,0.0
137,-273,158,0.0
132,-259,154,0.0
125,-242,148,0.0
109,-207,129,0.0
98,-184,118,0.0
0,0,0,0.0
1007,-1830,1233,0.0
0,0,0,0.0
1031,-1818,1288,0.0
0,0,0,0.0
0,0,0,0.0
14600,-24599,18748,0.0
14914,-24750,19324,0.0
15384,-25141,20107,0.0
15337,-24679,20216,0.0
15259,-24174,20283,0.0
15176,-23667,20336,0.0
15155,-23262,20470,0.0
15058,-22745,20495,0.0
14980,-22262,20543,0.0
14931,-21830,20629,0.0
4793,-6894,6671,0.0
14858,-21012,20822,0.0
14793,-20569,20875,0.0
14751,-20164,20957,0.0
14702,-19751,21026,0.0
14663,-19357,21106,0.0
14583,-18911,21123,0.0
14534,-18513,21185,0.0
14503,-18138,21267,0.0
14472,-17769,21348,0.0
14412,-17366,21384,0.0
6310,-7460,9417,0.0
14361,-16653,21548,0.0
14294,-16253,21565,0.0
14259,-15894,21629,0.0
14237,-15550,21708,0.0
14213,-15206,21782,0.0
14166,-14842,21819,0.0
14140,-14502,21888,0.0
13957,-14005,21709,0.0
14028,-13767,21922,0.0
13919,-13354,21853,0.0
13913,-13045,21945,0.0
13972,-12794,22136,0.0
13835,-12367,22015,0.0
13832,-12064,22106,0.0
13903,-11825,22314,0.0
13815,-11450,22264,0.0
13768,-11113,22279,0.0
13771,-10817,22371,0.0
13762,-10515,22447,0.0
13722,-10189,22465,0.0
13773,-9930,22635,0.0
13766,-9630,22707,0.0
13729,-9309,22727,0.0
13750,-9029,22843,0.0
13778,-8752,22970,0.0
13732,-8430,22973,0.0
13708,-8121,23009,0.0
13727,-7839,23118,0.0
13706,-7534,23156,0.0
13688,-7232,23200,0.0
13683,-6936,23264,0.0
13702,-6653,23366,0.0
13666,-6344,23376,0.0
13396,-5932,22982,0.0
13411,-5651,23075,0.0
13393,-5357,23108,0.0
13348,-5053,23093,0.0
13399,-4786,23246,0.0
13359,-4485,23238,0.0
13346,-4194,23277,0.0
13735,-4020,24018,0.0
13750,-3728,24105,0.0
13731,-3426,24129,0.0
13723,-3128,24174,0.0
13377,-2760,23622,0.0
13402,-2474,23720,0.0
12992,-2116,23046,0.0
13765,-1943,24473,0.0
13797,-1646,24584,0.0
13787,-1343,24619,0.0
13805,-1041,24703,0.0
13836,-740,24808,0.0
13855,-434,24891,0.0
13854,-128,24938,0.0
13864,179,25003,0.0
13540,476,24466,0.0
13603,781,24622,0.0
13863,1108,25139,0.0
13395,1372,24333,0.0
13951,1744,25385,0.0
13959,2061,25442,0.0
13981,2382,25523,0.0
14014,2708,25623,0.0
13989,3024,25616,0.0
14084,3369,25828,0.0
14067,3690,25835,0.0
14118,4032,25965,0.0
14129,4366,26019,0.0
14138,4701,26070,0.0
14188,5052,26197,0.0
14162,5379,26180,0.0
14225,5742,26329,0.0
14264,6100,26430,0.0
14142,6389,26232,0.0
25,12,47,0.0
23,11,42,0.0
36,19,68,0.0
27,15,52,0.0
30,17,56,0.0
36,22,70,0.0
40,25,76,0.0
48,32,91,0.0
42,28,80,0.0
43,30,81,0.0
45,34,87,0.0
45,33,84,0.0
50,39,94,0.0
47,38,90,0.0
54,45,102,0.0
52,45,99,0.0
54,48,101,0.0
58,53,110,0.0
59,55,110,0.0
62,60,118,0.0
65,64,123,0.0
64,66,121,0.0
65,69,124,0.0
67,73,126,0.0
61,68,115,0.0
61,71,117,0.0
63,73,119,0.0
61,72,114,0.0
61,76,116,0.0
59,75,112,0.0
57,74,107,0.0
59,79,112,0.0
56,76,106,0.0
58,82,110,0.0
61,87,115,0.0
58,85,109,0.0
59,88,110,0.0
59,90,110,0.0
62,97,116,0.0
60,96,113,0.0
63,104,120,0.0
60,101,112,0.0
61,105,115,0.0
62,109,117,0.0
63,113,118,0.0
65,119,122,0.0
62,116,116,0.0
63,120,118,0.0
63,122,117,0.0
65,129,120,0.0
65,133,122,0.0
65,135,122,0.0
66,139,122,0.0
66,142,123,0.0
67,146,123,0.0
67,149,122,0.0
67,153,123,0.0
108,-327,72,0.0
106,-315,73,0.0
108,-313,76,0.0
103,-297,76,0.0
101,-286,76,0.0
102,-286,80,0.0
99,-275,80,0.0
103,-279,84,0.0
101,-271,85,0.0
100,-267,87,0.0
103,-271,91,0.0
105,-271,95,0.0
103,-263,95,0.0
106,-264,99,0.0
108,-266,103,0.0
107,-262,105,0.0
107,-259,107,0.0
106,-254,108,0.0
112,-263,116,0.0
111,-256,116,0.0
114,-260,121,0.0
115,-260,125,0.0
119,-265,130,0.0
116,-255,129,0.0
118,-255,134,0.0
126,-267,143,0.0
143,-300,166,0.0
135,-278,158,0.0
133,-271,158,0.0
125,-251,150,0.0
116,-230,141,0.0
105,-205,130,0.0
1024,-1961,1266,0.0
0,0,0,0.0
0,0,0,0.0
0,0,0,0.0
0,0,0,0.0
0,0,0,0.0
14174,-24819,18582,0.0
14155,-24412,18725,0.0
14457,-24556,19293,0.0
14833,-24809,19964,0.0
14916,-24564,20245,0.0
14856,-24087,20329,0.0
14758,-23553,20357,0.0
14715,-23114,20457,0.0
14663,-22665,20540,0.0
14601,-22206,20606,0.0
14556,-21777,20691,0.0
14527,-21377,20798,0.0
4816,-6970,6945,0.0
14391,-20475,20888,0.0
14373,-20101,21000,0.0
5132,-7054,7547,0.0
14284,-19292,21141,0.0
14224,-18872,21183,0.0
14157,-18448,21212,0.0
14116,-18062,21277,0.0
14073,-17677,21337,0.0
14033,-17300,21399,0.0
13993,-16925,21457,0.0
13965,-16566,21532,0.0
6628,-7711,10276,0.0
13262,-15122,20667,0.0
13715,-15326,21485,0.0
13850,-15160,21805,0.0
13798,-14791,21833,0.0
13767,-14445,21890,0.0
13576,-13938,21689,0.0
13535,-13591,21724,0.0
13434,-13188,21661,0.0
13477,-12928,21829,0.0
13468,-12618,21910,0.0
13492,-12341,22045,0.0
13499,-12048,22150,0.0
13496,-11745,22238,0.0
13452,-11410,22256,0.0
13444,-11105,22331,0.0
13384,-10761,22321,0.0
13365,-10452,22375,0.0
13293,-10103,22339,0.0
13303,-9819,22440,0.0
13273,-9505,22470,0.0
13277,-9217,22558,0.0
13253,-8910,22597,0.0
13218,-8598,22616,0.0
13224,-8313,22702,0.0
13191,-8003,22720,0.0
13216,-7731,22839,0.0
13177,-7420,22845,0.0
13168,-7128,22900,0.0
13142,-6827,22927,0.0
13168,-6553,23042,0.0
13142,-6254,23065,0.0
13129,-5960,23108,0.0
13171,-5691,23250,0.0
13141,-5392,23263,0.0
13162,-5114,23365,0.0
13149,-4820,23404,0.0
13171,-4541,23506,0.0
13199,-4260,23618,0.0
13194,-3970,23670,0.0
13226,-3688,23787,0.0
13226,-3397,23846,0.0
13245,-3109,23937,0.0
13058,-2776,23655,0.0
13028,-2482,23657,0.0
12789,-2153,23275,0.0
13297,-1942,24253,0.0
13305,-1647,24320,0.0
12041,-1222,22057,0.0
11953,-946,21943,0.0
12000,-680,22074,0.0
12012,-410,22141,0.0
12013,-138,22186,0.0
12036,133,22272,0.0
12037,407,22315,0.0
12055,683,22389,0.0
12059,958,22436,0.0
13049,1337,24322,0.0
12063,1514,22524,0.0
13591,2020,25417,0.0
13620,2341,25512,0.0
13648,2664,25604,0.0
13668,2988,25684,0.0
13692,3315,25767,0.0
13705,3643,25830,0.0
13744,3979,25940,0.0
12188,3820,23033,0.0
13809,4660,26134,0.0
13805,4991,26160,0.0
13738,5299,26066,0.0
13790,5655,26197,0.0
13899,6041,26436,0.0
13806,6341,26288,0.0
13482,6526,25699,0.0
13135,6686,25065,0.0
22,11,43,0.0
31,17,60,0.0
27,15,53,0.0
35,21,68,0.0
35,22,69,0.0
33,22,64,0.0
37,26,73,0.0
40,28,77,0.0
44,32,87,0.0
50,38,97,0.0
50,40,98,0.0
44,37,87,0.0
52,44,102,0.0
55,48,107,0.0
53,48,104,0.0
59,55,114,0.0
53,50,103,0.0
58,58,114,0.0
64,65,124,0.0
65,69,127,0.0
62,68,121,0.0
61,67,118,0.0
61,69,118,0.0
65,76,126,0.0
56,67,109,0.0
56,69,110,0.0
64,81,124,0.0
57,74,112,0.0
62,82,121,0.0
59,81,116,0.0
56,79,110,0.0
58,83,113,0.0
59,87,115,0.0
57,86,111,0.0
58,88,112,0.0
58,90,113,0.0
58,92,112,0.0
59,96,114,0.0
58,97,113,0.0
61,104,118,0.0
60,106,117,0.0
62,110,118,0.0
62,112,119,0.0
61,114,117,0.0
61,117,119,0.0
59,116,115,0.0
60,120,116,0.0
63,129,122,0.0
63,132,123,0.0
63,132,119,0.0
63,136,120,0.0
65,144,125,0.0
67,150,128,0.0
62,141,118,0.0
64,149,121,0.0
101,-310,69,0.0
103,-312,74,0.0
100,-299,74,0.0
99,-292,76,0.0
97,-283,77,0.0
97,-279,78,0.0
94,-269,79,0.0
97,-272,83,0.0
94,-260,82,0.0
96,-261,86,0.0
96,-258,88,0.0
98,-258,91,0.0
99,-260,96,0.0
101,-261,99,0.0
100,-254,99,0.0
105,-263,106,0.0
103,-256,106,0.0
105,-257,111,0.0
109,-262,116,0.0
108,-256,118,0.0
108,-254,120,0.0
112,-259,125,0.0
115,-261,130,0.0
112,-250,128,0.0
114,-251,133,0.0
129,-281,153,0.0
139,-299,166,0.0
130,-276,159,0.0
122,-255,149,0.0
114,-234,141,0.0
115,-232,144,0.0
109,-216,138,0.0
984,-1930,1255,0.0
937,-1811,1208,0.0
0,0,0,0.0
0,0,0,0.0
0,0,0,0.0
0,0,0,0.0
13834,-24808,18692,0.0
13974,-24682,19049,0.0
14110,-24545,19401,0.0
14307,-24505,19838,0.0
14463,-24391,20221,0.0
14361,-23842,20240,0.0
14371,-23483,20412,0.0
14300,-22999,20469,0.0
14259,-22565,20563,0.0
14220,-22141,20657,0.0
14173,-21707,20735,0.0
14103,-21245,20778,0.0
14055,-20819,20849,0.0
4803,-6996,7174,0.0
13972,-20002,21002,0.0
13916,-19579,21052,0.0
5153,-7124,7844,0.0
13838,-18792,21195,0.0
13794,-18399,21255,0.0
13758,-18019,21326,0.0
13710,-17626,21373,0.0
13694,-17279,21468,0.0
13638,-16883,21499,0.0
12934,-15705,20500,0.0
13215,-15735,21056,0.0
13100,-15289,20982,0.0
13487,-15425,21712,0.0
13464,-15085,21784,0.0
13375,-14674,21745,0.0
13295,-14278,21719,0.0
13238,-13911,21729,0.0
13206,-13573,21775,0.0
13146,-13209,21774,0.0
13106,-12870,21807,0.0
13078,-12543,21855,0.0
13075,-12243,21944,0.0
13035,-11909,21968,0.0
12721,-11334,21527,0.0
12444,-10806,21144,0.0
12388,-10476,21131,0.0
13103,-10787,22440,0.0
13072,-10467,22473,0.0
12808,-9967,22100,0.0
12373,-9352,21430,0.0
12676,-9296,22032,0.0
12358,-8786,21557,0.0
12747,-8778,22312,0.0
13039,-8688,22902,0.0
13050,-8405,23000,0.0
12288,-7639,21727,0.0
12308,-7377,21833,0.0
12289,-7092,21869,0.0
12316,-6833,21986,0.0
12283,-6541,21996,0.0
12280,-6266,22058,0.0
12278,-5991,22117,0.0
12252,-5706,22136,0.0
12274,-5442,22239,0.0
12277,-5169,22307,0.0
12264,-4890,22344,0.0
12259,-4615,22396,0.0
12284,-4350,22502,0.0
12247,-4061,22491,0.0
12249,-3788,22553,0.0
12254,-3514,22619,0.0
12272,-3244,22706,0.0
12260,-2964,22739,0.0
12252,-2686,22779,0.0
12238,-2406,22807,0.0
12228,-2127,22838,0.0
12257,-1854,22944,0.0
12255,-1575,22990,0.0
12088,-1278,22726,0.0
11682,-968,22009,0.0
11701,-701,22091,0.0
11709,-431,22150,0.0
11690,-162,22159,0.0
11743,108,22301,0.0
11753,381,22363,0.0
11749,655,22398,0.0
11754,930,22446,0.0
11762,1206,22502,0.0
11774,1485,22564,0.0
11785,1764,22624,0.0
11821,2050,22730,0.0
11816,2331,22756,0.0
11806,2612,22773,0.0
11840,2903,22873,0.0
11851,3193,22930,0.0
11862,3483,22983,0.0
11857,3771,23006,0.0
11858,4062,23039,0.0
11901,4370,23155,0.0
11913,4669,23206,0.0
11910,4965,23230,0.0
11963,5287,23364,0.0
11983,5598,23429,0.0
11978,5899,23447,0.0
11990,6211,23496,0.0
22,12,46,0.0
26,14,51,0.0
30,17,59,0.0
28,17,56,0.0
26,17,54,0.0
40,27,79,0.0
35,24,69,0.0
43,31,87,0.0
40,30,80,0.0
44,34,88,0.0
47,39,96,0.0
51,43,101,0.0
45,38,89,0.0
47,43,96,0.0
48,45,97,0.0
60,56,118,0.0
52,52,106,0.0
56,56,111,0.0
56,58,111,0.0
60,65,120,0.0
57,62,113,0.0
57,65,116,0.0
59,69,118,0.0
53,65,108,0.0
56,69,113,0.0
57,71,114,0.0
58,74,115,0.0
52,69,104,0.0
52,70,103,0.0
50,71,102,0.0
53,76,107,0.0
55,81,110,0.0
51,78,104,0.0
53,82,108,0.0
55,87,111,0.0
56,89,112,0.0
56,91,112,0.0
54,91,109,0.0
57,97,113,0.0
57,100,114,0.0
57,103,115,0.0
58,105,115,0.0
58,107,114,0.0
57,108,114,0.0
58,113,116,0.0
57,114,114,0.0
58,117,114,0.0
58,121,115,0.0
61,128,120,0.0
58,125,114,0.0
60,132,118,0.0
58,132,115,0.0
62,143,122,0.0
61,142,119,0.0
61,146,120,0.0
98,-312,72,0.0
99,-309,74,0.0
99,-304,76,0.0
95,-290,76,0.0
93,-280,76,0.0
96,-285,82,0.0
96,-281,83,0.0
97,-281,86,0.0
95,-270,86,0.0
98,-273,91,0.0
97,-270,93,0.0
99,-269,96,0.0
101,-271,100,0.0
100,-267,102,0.0
100,-262,103,0.0
103,-264,108,0.0
104,-265,111,0.0
108,-270,118,0.0
108,-265,119,0.0
107,-262,121,0.0
109,-260,124,0.0
113,-267,131,0.0
116,-270,136,0.0
114,-263,136,0.0
118,-267,142,0.0
127,-284,155,0.0
135,-298,167,0.0
132,-286,165,0.0
124,-263,156,0.0
119,-253,153,0.0
111,-232,144,0.0
104,-214,136,0.0
95,-192,127,0.0
1002,-1986,1333,0.0
0,0,0,0.0
0,0,0,0.0
0,0,0,0.0
0,0,0,0.0
13401,-24628,18671,0.0
13769,-24919,19349,0.0
14065,-25069,19935,0.0
14097,-24739,20144,0.0
14112,-24382,20330,0.0
13993,-23799,20318,0.0
13976,-23397,20451,0.0
13930,-22949,20537,0.0
13868,-22481,20597,0.0
13803,-22014,20648,0.0
13774,-21609,20750,0.0
13742,-21203,20844,0.0
13668,-20738,20872,0.0
13646,-20355,20975,0.0
13598,-19937,21036,0.0
13545,-19519,21087,0.0
5088,-7204,7971,0.0
13466,-18729,21220,0.0
13423,-18335,21278,0.0
13388,-17957,21347,0.0
13353,-17581,21410,0.0
13311,-17200,21463,0.0
13272,-16825,21516,0.0
13057,-16235,21280,0.0
12871,-15692,21087,0.0
12560,-15012,20684,0.0
12977,-15198,21477,0.0
12900,-14800,21455,0.0
12265,-13780,20499,0.0
12278,-13504,20619,0.0
13057,-14051,22028,0.0
12975,-13656,21988,0.0
13002,-13380,22134,0.0
12966,-13039,22170,0.0
12188,-11972,20929,0.0
12179,-11679,21002,0.0
12150,-11368,21039,0.0
12128,-11068,21088,0.0
12125,-10784,21166,0.0
12100,-10483,21207,0.0
12085,-10191,21261,0.0
12091,-9918,21352,0.0
12084,-9633,21418,0.0
12042,-9324,21423,0.0
12035,-9043,21486,0.0
12045,-8775,21581,0.0
12040,-8497,21646,0.0
11991,-8188,21631,0.0
12013,-7929,21743,0.0
12017,-7658,21822,0.0
11991,-7368,21846,0.0
11983,-7090,21899,0.0
11977,-6814,21956,0.0
11989,-6548,22044,0.0
11981,-6271,22096,0.0
11992,-6003,22182,0.0
11968,-5719,22203,0.0
11956,-5441,22242,0.0
11950,-5165,22295,0.0
11943,-4891,22341,0.0
11940,-4616,22396,0.0
11955,-4349,22484,0.0
11936,-4069,22505,0.0
11935,-3795,22561,0.0
11944,-3524,22636,0.0
11956,-3253,22714,0.0
11930,-2971,22719,0.0
11939,-2698,22790,0.0
11945,-2424,22853,0.0
11927,-2145,22873,0.0
11953,-1872,22971,0.0
11933,-1591,22984,0.0
11785,-1297,22748,0.0
11393,-987,22037,0.0
11390,-721,22077,0.0
11404,-454,22149,0.0
11424,-186,22233,0.0
11419,83,22267,0.0
11435,355,22339,0.0
11420,627,22352,0.0
11449,901,22449,0.0
11444,1175,22480,0.0
11481,1456,22592,0.0
11471,1731,22612,0.0
11481,2011,22670,0.0
11496,2293,22735,0.0
11477,2570,22734,0.0
11526,2865,22869,0.0
11528,3150,22906,0.0
11528,3436,22938,0.0
11564,3735,23044,0.0
11591,4034,23132,0.0
11591,4326,23163,0.0
11593,4620,23198,0.0
11633,4932,23307,0.0
11630,5230,23332,0.0
11644,5536,23388,0.0
11688,5860,23505,0.0
11684,6162,23524,0.0
23,12,49,0.0
33,18,67,0.0
30,18,62,0.0
35,22,71,0.0
34,22,69,0.0
41,28,84,0.0
45,31,92,0.0
38,28,78,0.0
42,32,87,0.0
45,36,93,0.0
50,42,104,0.0
45,38,93,0.0
54,48,111,0.0
58,52,118,0.0
51,48,105,0.0
56,55,116,0.0
55,55,113,0.0
59,61,122,0.0
59,62,120,0.0
57,63,120,0.0
59,67,122,0.0
63,73,130,0.0
62,74,129,0.0
60,73,124,0.0
57,72,118,0.0
61,79,126,0.0
59,77,121,0.0
60,82,124,0.0
59,81,120,0.0
57,82,118,0.0
57,82,117,0.0
57,86,118,0.0
56,85,115,0.0
53,83,109,0.0
52,83,107,0.0
52,86,109,0.0
54,91,112,0.0
53,93,111,0.0
55,97,114,0.0
55,99,114,0.0
54,100,113,0.0
58,108,119,0.0
56,108,116,0.0
57,112,119,0.0
57,114,117,0.0
57,116,117,0.0
56,116,115,0.0
58,124,119,0.0
59,128,121,0.0
55,123,113,0.0
58,132,119,0.0
58,135,119,0.0
61,143,124,0.0
62,150,126,0.0
60,148,123,0.0
90,-293,69,0.0
94,-301,73,0.0
86,-275,70,0.0
89,-278,74,0.0
91,-279,78,0.0
90,-273,80,0.0
90,-272,82,0.0
89,-265,83,0.0
89,-260,85,0.0
91,-262,89,0.0
92,-260,91,0.0
96,-270,98,0.0
92,-253,95,0.0
95,-259,100,0.0
98,-261,104,0.0
100,-266,110,0.0
102,-266,114,0.0
103,-263,115,0.0
98,-250,113,0.0
105,-263,122,0.0
106,-260,125,0.0
109,-264,130,0.0
111,-266,135,0.0
110,-259,135,0.0
114,-264,142,0.0
130,-297,164,0.0
126,-285,161,0.0
121,-271,157,0.0
111,-244,145,0.0
104,-225,137,0.0
99,-213,134,0.0
93,-195,126,0.0
0,0,0,0.0
0,0,0,0.0
0,0,0,0.0
942,-1859,1319,0.0
0,0,0,0.0
0,0,0,0.0
13029,-24549,18723,0.0
13357,-24787,19360,0.0
13782,-25183,20142,0.0
13717,-24679,20211,0.0
13693,-24253,20337,0.0
13614,-23736,20377,0.0
13576,-23295,20472,0.0
13513,-22818,20528,0.0
13467,-22375,20608,0.0
13443,-21974,20717,0.0
13366,-21489,20739,0.0
11811,-18676,18452,0.0
11786,-18324,18534,0.0
11732,-17933,18569,0.0
11732,-17627,18687,0.0
11704,-17282,18758,0.0
11677,-16942,18830,0.0
5100,-7269,8273,0.0
11646,-16301,19002,0.0
11940,-16410,19593,0.0
12126,-16358,20009,0.0
12070,-15981,20026,0.0
12079,-15689,20147,0.0
12051,-15353,20207,0.0
6286,-7852,10595,0.0
12005,-14700,20335,0.0
12067,-14479,20541,0.0
11943,-14039,20431,0.0
11966,-13774,20567,0.0
11921,-13432,20584,0.0
11934,-13158,20702,0.0
11915,-12849,20761,0.0
11884,-12531,20801,0.0
11844,-12204,20819,0.0
11865,-11942,20946,0.0
11837,-11632,20984,0.0
11834,-11346,21062,0.0
11824,-11056,21131,0.0
11792,-10748,21157,0.0
11777,-10456,21212,0.0
11774,-10175,21289,0.0
11772,-9896,21363,0.0
11782,-9628,21462,0.0
11771,-9344,21519,0.0
11759,-9057,21571,0.0
11758,-8781,21644,0.0
11770,-8515,21742,0.0
11764,-8236,21803,0.0
11747,-7951,21844,0.0
11761,-7686,21941,0.0
11765,-7414,22019,0.0
11765,-7140,22086,0.0
11754,-6860,22136,0.0
11755,-6587,22204,0.0
11790,-6332,22335,0.0
11780,-6052,22382,0.0
11798,-5786,22481,0.0
11804,-5514,22556,0.0
11778,-5228,22568,0.0
11793,-4961,22659,0.0
11806,-4691,22745,0.0
11784,-4407,22762,0.0
11801,-4137,22854,0.0
11823,-3868,22955,0.0
11802,-3584,22972,0.0
11810,-3309,23043,0.0
11800,-3028,23079,0.0
11794,-2749,23123,0.0
11784,-2469,23156,0.0
11828,-2199,23296,0.0
11811,-1915,23314,0.0
11809,-1635,23362,0.0
11537,-1322,22873,0.0
11109,-1007,22071,0.0
11104,-741,22108,0.0
11106,-474,22157,0.0
11108,-207,22205,0.0
11116,60,22264,0.0
11131,330,22337,0.0
11080,598,22278,0.0
11147,874,22452,0.0
11126,1145,22450,0.0
11165,1423,22570,0.0
11181,1701,22641,0.0
11182,1979,22682,0.0
11159,2252,22674,0.0
11181,2537,22755,0.0
11207,2824,22843,0.0
11240,3116,22946,0.0
11247,3404,22995,0.0
11261,3696,23058,0.0
11257,3983,23083,0.0
11265,4275,23132,0.0
11283,4575,23200,0.0
11293,4873,23253,0.0
11334,5188,23367,0.0
11333,5486,23394,0.0
11359,5801,23478,0.0
11371,6111,23532,0.0
11412,6439,23643,0.0
21,13,46,0.0
28,17,60,0.0
25,16,53,0.0
31,21,65,0.0
31,23,67,0.0
38,28,82,0.0
38,29,80,0.0
39,30,82,0.0
50,41,107,0.0
40,34,86,0.0
39,35,84,0.0
54,48,113,0.0
45,42,95,0.0
45,43,94,0.0
45,45,96,0.0
51,54,111,0.0
55,59,117,0.0
55,60,118,0.0
56,63,120,0.0
53,61,113,0.0
56,66,119,0.0
62,75,131,0.0
54,67,115,0.0
54,70,117,0.0
51,68,108,0.0
55,75,118,0.0
51,72,111,0.0
53,77,114,0.0
51,75,109,0.0
49,73,104,0.0
48,75,103,0.0
48,76,103,0.0
50,79,106,0.0
49,81,104,0.0
48,80,102,0.0
49,85,104,0.0
51,88,107,0.0
51,93,110,0.0
51,93,108,0.0
53,100,113,0.0
54,105,116,0.0
52,103,112,0.0
54,109,115,0.0
54,111,115,0.0
52,109,110,0.0
54,115,113,0.0
54,117,113,0.0
52,116,109,0.0
55,124,116,0.0
56,132,119,0.0
56,131,116,0.0
56,134,117,0.0
57,143,121,0.0
54,136,113,0.0
89,-300,71,0.0
95,-315,77,0.0
88,-291,75,0.0
92,-296,79,0.0
90,-286,81,0.0
90,-282,83,0.0
89,-274,84,0.0
89,-272,86,0.0
92,-278,92,0.0
92,-273,94,0.0
93,-271,95,0.0
95,-272,99,0.0
95,-270,102,0.0
98,-274,108,0.0
100,-276,112,0.0
99,-271,113,0.0
103,-277,118,0.0
104,-277,122,0.0
105,-273,124,0.0
107,-273,128,0.0
107,-270,131,0.0
110,-272,136,0.0
109,-267,137,0.0
111,-267,141,0.0
119,-286,154,0.0
123,-290,161,0.0
124,-288,163,0.0
119,-272,160,0.0
109,-248,149,0.0
100,-222,137,0.0
100,-218,138,0.0
930,-2000,1294,0.0
904,-1914,1269,0.0
0,0,0,0.0
915,-1881,1311,0.0
0,0,0,0.0
0,0,0,0.0
0,0,0,0.0
12727,-24602,18873,0.0
12973,-24696,19400,0.0
11807,-22131,17801,0.0
11797,-21770,17929,0.0
11750,-21346,17997,0.0
11717,-20952,18083,0.0
11668,-20534,18142,0.0
11625,-20133,18208,0.0
11607,-19776,18307,0.0
11562,-19380,18362,0.0
11532,-19013,18441,0.0
11487,-18625,18491,0.0
11463,-18275,18573,0.0
11407,-17880,18601,0.0
11420,-17594,18738,0.0
4749,-7191,7840,0.0
11338,-16864,18829,0.0
11306,-16518,18884,0.0
11366,-16310,19094,0.0
11622,-16373,19633,0.0
11811,-16333,20062,0.0
11761,-15961,20085,0.0
11767,-15669,20203,0.0
11750,-15345,20277,0.0
11733,-15024,20351,0.0
11679,-14661,20359,0.0
11708,-14402,20508,0.0
11710,-14111,20610,0.0
11709,-13816,20705,0.0
11733,-13553,20844,0.0
11724,-13251,20922,0.0
11757,-12998,21073,0.0
11736,-12685,21127,0.0
11704,-12362,21159,0.0
11745,-12119,21323,0.0
11753,-11839,21425,0.0
11765,-11565,21534,0.0
11758,-11272,21605,0.0
11752,-10981,21679,0.0
11752,-10697,21762,0.0
11748,-10410,21838,0.0
11757,-10134,21936,0.0
11769,-9862,22036,0.0
11768,-9579,22114,0.0
11769,-9297,22194,0.0
11784,-9026,22298,0.0
11781,-8743,22368,0.0
11798,-8474,22476,0.0
11759,-8165,22477,0.0
11801,-7912,22627,0.0
11790,-7624,22679,0.0
11788,-7341,22745,0.0
11796,-7066,22830,0.0
11789,-6781,22885,0.0
11786,-6498,22948,0.0
11803,-6227,23046,0.0
11801,-5945,23107,0.0
11811,-5669,23194,0.0
11816,-5389,23266,0.0
11784,-5094,23265,0.0
11792,-4816,23344,0.0
11811,-4542,23443,0.0
11815,-4260,23513,0.0
11805,-3974,23551,0.0
11809,-3693,23618,0.0
11808,-3409,23673,0.0
11818,-3127,23750,0.0
11809,-2840,23788,0.0
11818,-2557,23863,0.0
11821,-2272,23923,0.0
11812,-1984,23959,0.0
11764,-1690,23914,0.0
11275,-1345,22969,0.0
10806,-1025,22063,0.0
10807,-761,22109,0.0
10813,-495,22168,0.0
10811,-229,22206,0.0
10813,37,22256,0.0
10831,305,22336,0.0
10840,576,22395,0.0
10843,846,22445,0.0
10848,1119,22497,0.0
10877,1396,22597,0.0
10886,1671,22656,0.0
10889,1948,22702,0.0
10889,2226,22741,0.0
10915,2511,22830,0.0
10906,2789,22849,0.0
10920,3074,22916,0.0
10927,3361,22965,0.0
10940,3650,23027,0.0
10951,3941,23086,0.0
10982,4242,23185,0.0
10988,4536,23230,0.0
11011,4839,23311,0.0
11022,5140,23365,0.0
11042,5448,23438,0.0
11045,5749,23474,0.0
11059,6059,23534,0.0
26,14,57,0.0
28,17,62,0.0
33,21,72,0.0
35,23,75,0.0
35,24,78,0.0
43,31,94,0.0
43,32,93,0.0
41,32,91,0.0
45,36,99,0.0
43,36,94,0.0
49,43,108,0.0
50,44,109,0.0
47,43,103,0.0
49,47,108,0.0
53,52,115,0.0
55,56,120,0.0
57,59,123,0.0
55,60,121,0.0
54,61,119,0.0
60,69,132,0.0
64,75,139,0.0
61,74,134,0.0
60,75,131,0.0
58,74,128,0.0
60,79,132,0.0
62,83,136,0.0
59,82,129,0.0
55,79,122,0.0
52,76,115,0.0
56,85,125,0.0
54,82,118,0.0
56,88,123,0.0
55,89,122,0.0
51,85,113,0.0
55,93,122,0.0
53,90,116,0.0
56,99,124,0.0
52,94,114,0.0
50,93,110,0.0
52,100,116,0.0
52,100,114,0.0
53,103,115,0.0
53,109,118,0.0
55,112,120,0.0
54,114,118,0.0
52,112,114,0.0
53,118,117,0.0
53,120,117,0.0
55,125,119,0.0
53,125,116,0.0
52,125,113,0.0
54,132,118,0.0
55,139,121,0.0
55,139,119,0.0
56,145,122,0.0
84,-290,69,0.0
85,-291,73,0.0
80,-272,72,0.0
84,-280,76,0.0
83,-271,77,0.0
84,-273,81,0.0
86,-276,85,0.0
86,-268,86,0.0
85,-264,87,0.0
89,-271,94,0.0
90,-270,96,0.0
88,-263,97,0.0
91,-267,103,0.0
93,-265,105,0.0
95,-269,110,0.0
96,-268,113,0.0
97,-266,115,0.0
97,-264,118,0.0
100,-266,123,0.0
100,-265,125,0.0
100,-261,127,0.0
102,-262,132,0.0
103,-261,135,0.0
104,-260,138,0.0
111,-272,147,0.0
115,-279,156,0.0
118,-280,161,0.0
102,-239,141,0.0
104,-242,145,0.0
94,-217,134,0.0
90,-203,129,0.0
873,-1927,1255,0.0
877,-1907,1274,0.0
889,-1905,1303,0.0
0,0,0,0.0
0,0,0,0.0
11630,-23796,17505,0.0
11580,-23338,17582,0.0
11556,-22934,17693,0.0
11502,-22477,17755,0.0
11470,-22069,17849,0.0
11438,-21665,17938,0.0
11395,-21246,18008,0.0
11361,-20851,18090,0.0
11319,-20442,18153,0.0
11271,-20032,18207,0.0
11264,-19696,18324,0.0
11230,-19315,18391,0.0
11197,-18942,18460,0.0
11150,-18549,18504,0.0
11125,-18197,18580,0.0
11105,-17856,18662,0.0
11075,-17503,18726,0.0
11062,-17180,18816,0.0
4763,-7268,8149,0.0
11001,-16488,18930,0.0
11097,-16334,19204,0.0
11349,-16400,19748,0.0
11491,-16300,20104,0.0
11695,-16280,20568,0.0
11697,-15975,20679,0.0
11681,-15648,20757,0.0
11702,-15371,20898,0.0
11696,-15058,20988,0.0
11700,-14762,21098,0.0
6663,-8234,12071,0.0
11711,-14174,21315,0.0
11725,-13891,21438,0.0
11723,-13590,21530,0.0
11766,-13342,21702,0.0
11768,-13047,21800,0.0
11762,-12743,21880,0.0
11751,-12436,21950,0.0
11760,-12151,22056,0.0
11744,-11841,22115,0.0
11754,-11559,22220,0.0
11735,-11249,22269,0.0
11781,-11001,22443,0.0
11745,-10677,22456,0.0
11770,-10408,22586,0.0
11775,-10124,22678,0.0
11804,-9857,22813,0.0
11799,-9563,22882,0.0
11795,-9272,22954,0.0
11777,-8969,22996,0.0
11767,-8673,23051,0.0
11776,-8393,23145,0.0
11785,-8111,23236,0.0
11781,-7820,23299,0.0
11802,-7547,23414,0.0
11821,-7271,23522,0.0
11808,-6975,23568,0.0
11823,-6695,23667,0.0
11794,-6392,23676,0.0
11830,-6123,23816,0.0
11827,-5833,23877,0.0
11809,-5535,23905,0.0
11828,-5257,24010,0.0
11810,-4961,24035,0.0
11826,-4678,24133,0.0
11820,-4387,24180,0.0
11862,-4111,24327,0.0
11826,-3809,24317,0.0
11835,-3521,24393,0.0
11816,-3224,24412,0.0
11837,-2938,24514,0.0
11808,-2640,24511,0.0
11812,-2348,24574,0.0
11731,-2041,24460,0.0
11459,-1709,23947,0.0
11009,-1367,23056,0.0
10518,-1044,22077,0.0
10524,-780,22135,0.0
10521,-516,22174,0.0
10522,-250,22221,0.0
10537,15,22297,0.0
10542,282,22351,0.0
10558,552,22430,0.0
10551,820,22456,0.0
10561,1092,22519,0.0
10581,1367,22603,0.0
10547,1635,22570,0.0
10580,1916,22681,0.0
10552,2185,22660,0.0
10598,2473,22797,0.0
10623,2758,22887,0.0
10616,3038,22909,0.0
10629,3324,22975,0.0
10642,3612,23039,0.0
10665,3907,23123,0.0
10693,4206,23219,0.0
10654,4481,23168,0.0
10695,4790,23289,0.0
10709,5091,23351,0.0
10737,5401,23445,0.0
10713,5687,23424,0.0
14,8,32,0.0
21,11,47,0.0
20,12,45,0.0
29,19,66,0.0
25,17,57,0.0
27,19,63,0.0
31,23,70,0.0
40,30,88,0.0
36,28,82,0.0
42,34,94,0.0
43,36,97,0.0
42,37,95,0.0
42,40,96,0.0
42,39,93,0.0
44,44,101,0.0
46,47,105,0.0
49,51,111,0.0
48,53,110,0.0
52,57,116,0.0
55,63,125,0.0
54,64,124,0.0
56,68,126,0.0
54,68,123,0.0
55,70,123,0.0
55,73,126,0.0
53,71,118,0.0
57,80,131,0.0
54,76,121,0.0
50,73,114,0.0
54,80,122,0.0
53,81,120,0.0
52,82,119,0.0
51,81,116,0.0
52,86,119,0.0
48,81,109,0.0
47,82,108,0.0
46,82,105,0.0
50,92,115,0.0
50,91,112,0.0
47,88,107,0.0
46,90,105,0.0
49,98,111,0.0
49,98,110,0.0
47,97,107,0.0
49,105,112,0.0
48,105,110,0.0
52,114,116,0.0
50,114,114,0.0
50,115,113,0.0
51,122,117,0.0
51,122,114,0.0
50,126,115,0.0
51,129,115,0.0
51,132,116,0.0
51,135,117,0.0
49,133,113,0.0
83,-296,72,0.0
84,-297,76,0.0
82,-286,76,0.0
83,-284,79,0.0
83,-280,81,0.0
84,-278,83,0.0
87,-286,89,0.0
87,-281,91,0.0
84,-271,91,0.0
88,-277,97,0.0
89,-278,100,0.0
92,-281,105,0.0
92,-277,108,0.0
90,-268,107,0.0
95,-278,114,0.0
97,-279,118,0.0
96,-274,120,0.0
96,-270,122,0.0
99,-275,127,0.0
101,-275,131,0.0
99,-266,130,0.0
102,-270,136,0.0
103,-266,138,0.0
104,-266,142,0.0
115,-291,159,0.0
116,-290,163,0.0
111,-273,157,0.0
106,-256,152,0.0
99,-237,144,0.0
95,-224,140,0.0
91,-211,134,0.0
881,-1998,1310,0.0
861,-1924,1293,0.0
0,0,0,0.0
877,-1902,1342,0.0
0,0,0,0.0
11280,-23714,17544,0.0
11234,-23259,17622,0.0
11203,-22839,17718,0.0
11152,-22386,17780,0.0
11129,-21994,17884,0.0
11096,-21587,17967,0.0
11049,-21158,18026,0.0
11023,-20775,18116,0.0
10987,-20379,18188,0.0
10938,-19962,18233,0.0
10919,-19605,18327,0.0
10900,-19249,18415,0.0
10865,-18871,18478,0.0
10838,-18512,18551,0.0
10814,-18161,18627,0.0
10785,-17804,18691,0.0
10762,-17459,18761,0.0
10734,-17111,18824,0.0
10632,-16652,18753,0.0
4755,-7315,8435,0.0
10866,-16416,19380,0.0
11042,-16378,19801,0.0
11205,-16314,20201,0.0
11523,-16465,20883,0.0
11607,-16270,21142,0.0
11664,-16036,21352,0.0
11713,-15789,21546,0.0
11710,-15473,21645,0.0
6273,-8122,11651,0.0
6592,-8360,12299,0.0
6702,-8325,12563,0.0
11739,-14273,22101,0.0
11738,-13965,22196,0.0
11739,-13660,22294,0.0
11769,-13391,22446,0.0
11748,-13062,22497,0.0
11770,-12784,22632,0.0
11769,-12480,22721,0.0
11759,-12168,22789,0.0
11762,-11872,22886,0.0
11775,-11585,22998,0.0
11796,-11306,23125,0.0
11770,-10983,23158,0.0
11791,-10703,23284,0.0
11801,-10415,23387,0.0
11785,-10104,23436,0.0
11811,-9829,23568,0.0
11843,-9558,23712,0.0
11788,-9218,23681,0.0
11795,-8928,23773,0.0
11813,-8646,23885,0.0
11820,-8355,23974,0.0
11814,-8055,24037,0.0
11787,-7742,24054,0.0
11809,-7462,24174,0.0
11810,-7168,24248,0.0
11817,-6877,24333,0.0
11794,-6570,24354,0.0
11833,-6296,24504,0.0
11788,-5978,24478,0.0
11770,-5675,24508,0.0
11798,-5394,24630,0.0
11792,-5096,24685,0.0
11802,-4805,24770,0.0
11787,-4504,24802,0.0
11812,-4217,24916,0.0
11804,-3917,24961,0.0
11784,-3614,24980,0.0
11816,-3326,25108,0.0
11819,-3030,25176,0.0
11829,-2733,25254,0.0
11816,-2430,25286,0.0
11812,-2129,25333,0.0
11333,-1755,24361,0.0
10694,-1382,23037,0.0
10225,-1060,22074,0.0
10222,-798,22113,0.0
10224,-535,22162,0.0
10220,-271,22199,0.0
10226,-6,22260,0.0
10226,259,22303,0.0
10241,526,22378,0.0
10251,794,22442,0.0
10255,1064,22494,0.0
10271,1337,22571,0.0
10269,1609,22608,0.0
10287,1886,22685,0.0
10302,2163,22759,0.0
10291,2438,22773,0.0
10315,2721,22866,0.0
10328,3005,22933,0.0
10336,3289,22986,0.0
10332,3570,23015,0.0
10355,3864,23103,0.0
10364,4155,23156,0.0
10359,4441,23182,0.0
10394,4747,23293,0.0
10382,5035,23301,0.0
10414,5346,23407,0.0
10402,5636,23412,0.0
10428,5950,23502,0.0
21,12,48,0.0
26,16,62,0.0
26,17,62,0.0
19,14,47,0.0
37,27,85,0.0
37,27,84,0.0
39,30,90,0.0
44,35,100,0.0
41,34,94,0.0
39,34,92,0.0
39,35,90,0.0
45,42,104,0.0
48,47,113,0.0
46,46,108,0.0
45,47,105,0.0
46,49,107,0.0
50,55,116,0.0
56,63,129,0.0
54,63,126,0.0
56,68,131,0.0
57,70,133,0.0
58,74,136,0.0
56,73,131,0.0
55,75,130,0.0
53,74,125,0.0
55,78,130,0.0
58,85,136,0.0
57,85,133,0.0
53,82,124,0.0
58,91,136,0.0
52,83,121,0.0
55,91,128,0.0
53,91,126,0.0
49,86,115,0.0
50,89,118,0.0
51,93,120,0.0
52,97,123,0.0
50,95,118,0.0
49,97,116,0.0
49,99,117,0.0
49,99,115,0.0
48,100,113,0.0
49,105,115,0.0
48,105,113,0.0
48,109,115,0.0
48,111,114,0.0
49,113,115,0.0
49,118,117,0.0
51,123,119,0.0
50,125,118,0.0
50,125,115,0.0
48,124,112,0.0
51,135,119,0.0
51,140,121,0.0
50,137,117,0.0
74,-275,68,0.0
75,-278,72,0.0
75,-272,73,0.0
76,-269,76,0.0
76,-268,78,0.0
77,-266,80,0.0
78,-264,84,0.0
79,-265,87,0.0
80,-264,89,0.0
83,-270,95,0.0
82,-262,96,0.0
85,-269,101,0.0
85,-265,103,0.0
87,-265,107,0.0
90,-271,113,0.0
89,-266,114,0.0
90,-264,116,0.0
93,-268,121,0.0
92,-259,121,0.0
94,-264,127,0.0
95,-261,129,0.0
96,-260,133,0.0
98,-264,138,0.0
96,-253,135,0.0
110,-285,157,0.0
106,-271,154,0.0
104,-261,151,0.0
98,-246,147,0.0
96,-235,144,0.0
85,-205,129,0.0
829,-1963,1263,0.0
0,0,0,0.0
848,-1949,1318,0.0
0,0,0,0.0
0,0,0,0.0
0,0,0,0.0
10917,-23599,17557,0.0
10879,-23155,17640,0.0
10839,-22718,17719,0.0
10806,-22300,17806,0.0
10772,-21885,17887,0.0
10750,-21497,17984,0.0
10715,-21090,18058,0.0
10676,-20680,18122,0.0
10655,-20309,18213,0.0
10623,-19920,18283,0.0
10603,-19561,18372,0.0
10563,-19166,18422,0.0
10506,-18749,18443,0.0
10506,-18435,18558,0.0
10478,-18076,18623,0.0
10471,-17756,18722,0.0
10435,-17389,18767,0.0
10402,-17036,18818,0.0
10378,-16697,18881,0.0
10374,-16393,18977,0.0
10577,-16412,19453,0.0
10817,-16479,20001,0.0
5043,-7541,9375,0.0
11229,-16477,20978,0.0
11434,-16459,21469,0.0
11651,-16449,21983,0.0
11730,-16237,22239,0.0
11703,-15880,22294,0.0
11724,-15589,22439,0.0
6289,-8192,12093,0.0
6571,-8382,12691,0.0
6703,-8368,13001,0.0
11712,-14309,22817,0.0
11687,-13966,22864,0.0
11730,-13706,23045,0.0
11696,-13355,23071,0.0
11695,-13044,23160,0.0
14121,-15378,28076,1.0
14098,-14982,28140,1.0
14152,-14669,28356,1.0
0,0,0,0.0
14213,-13991,28690,1.0
14248,-13655,28866,1.0
14236,-13274,28945,1.0
0,0,0,0.0
0,0,0,0.0
14177,-12119,29124,1.0
0,0,0,0.0
0,0,0,0.0
0,0,0,0.0
14098,-10603,29343,1.0
0,0,0,0.0
0,0,0,0.0
14027,-9470,29462,1.0
13986,-9084,29465,1.0
0,0,0,0.0
0,0,0,0.0
0,0,0,0.0
0,0,0,0.0
0,0,0,0.0
0,0,0,0.0
0,0,0,0.0
0,0,0,0.0
14262,-5980,30802,1.0
14364,-5654,31104,1.0
14279,-5254,30997,1.0
14259,-4879,31030,1.0
14243,-4506,31072,1.0
0,0,0,0.0
0,0,0,0.0
14078,-3362,30927,1.0
14033,-2987,30903,1.0
0,0,0,0.0
11087,-1782,24525,0.0
10428,-1403,23117,0.0
9924,-1076,22049,0.0
9934,-816,22117,0.0
9936,-554,22166,0.0
9935,-291,22212,0.0
9942,-27,22272,0.0
9946,237,22324,0.0
9960,502,22400,0.0
9944,769,22408,0.0
9977,1040,22524,0.0
9963,1308,22536,0.0
9984,1582,22623,0.0
9991,1855,22680,0.0
9997,2131,22735,0.0
10013,2410,22811,0.0
10017,2687,22861,0.0
10011,2964,22885,0.0
10028,3249,22960,0.0
10051,3539,23050,0.0
10066,3829,23123,0.0
10072,4117,23172,0.0
10074,4406,23213,0.0
10083,4700,23270,0.0
10093,4997,23328,0.0
10095,5291,23366,0.0
10121,5602,23461,0.0
10141,5911,23537,0.0
10144,6215,23580,0.0
15,9,38,0.0
32,21,75,0.0
24,17,57,0.0
24,17,56,0.0
29,22,69,0.0
29,24,71,0.0
36,30,85,0.0
31,26,73,0.0
38,34,92,0.0
38,35,91,0.0
41,39,98,0.0
43,42,103,0.0
46,47,111,0.0
42,45,101,0.0
47,52,111,0.0
47,53,112,0.0
47,54,112,0.0
51,61,124,0.0
51,64,125,0.0
51,65,124,0.0
49,65,119,0.0
52,70,125,0.0
50,68,120,0.0
50,72,122,0.0
48,69,115,0.0
50,75,121,0.0
54,82,129,0.0
49,76,116,0.0
52,84,127,0.0
46,77,112,0.0
47,80,114,0.0
50,87,122,0.0
46,83,113,0.0
46,83,110,0.0
47,88,114,0.0
45,86,109,0.0
47,93,115,0.0
44,89,108,0.0
43,89,106,0.0
44,93,109,0.0
44,94,107,0.0
44,98,109,0.0
43,97,105,0.0
45,102,108,0.0
43,102,106,0.0
45,107,108,0.0
45,110,110,0.0
46,114,111,0.0
44,115,109,0.0
47,123,114,0.0
45,120,110,0.0
45,124,111,0.0
47,132,115,0.0
45,128,109,0.0
71,-275,68,0.0
73,-277,73,0.0
72,-268,73,0.0
75,-273,77,0.0
75,-273,80,0.0
78,-277,85,0.0
78,-273,87,0.0
79,-272,90,0.0
79,-269,93,0.0
82,-277,99,0.0
83,-274,100,0.0
81,-266,101,0.0
86,-274,108,0.0
85,-268,109,0.0
89,-276,115,0.0
87,-268,115,0.0
90,-270,120,0.0
89,-266,123,0.0
91,-268,127,0.0
92,-265,129,0.0
92,-261,129,0.0
91,-257,132,0.0
95,-260,137,0.0
98,-268,145,0.0
108,-293,162,0.0
108,-283,161,0.0
102,-268,157,0.0
91,-236,141,0.0
89,-225,138,0.0
81,-202,127,0.0
80,-198,128,0.0
820,-1971,1307,0.0
0,0,0,0.0
0,0,0,0.0
828,-1900,1355,0.0
0,0,0,0.0
10558,-23484,17566,0.0
10520,-23041,17647,0.0
10503,-22649,17757,0.0
10462,-22211,17825,0.0
10427,-21790,17899,0.0
10398,-21387,17981,0.0
10378,-21009,18077,0.0
10350,-20618,18155,0.0
10309,-20207,18208,0.0
10285,-19833,18287,0.0
10266,-19475,18375,0.0
10216,-19060,18402,0.0
10191,-18698,18473,0.0
10192,-18385,18588,0.0
10167,-18030,18655,0.0
10145,-17684,18725,0.0
10120,-17336,18787,0.0
9948,-16744,18573,0.0
10055,-16627,18877,0.0
10057,-16333,18984,0.0
10266,-16373,19481,0.0
10505,-16448,20039,0.0
10631,-16336,20384,0.0
5077,-7655,9784,0.0
11227,-16608,21741,0.0
11708,-16987,22784,0.0
11705,-16651,22885,0.0
6700,-9341,13160,0.0
6673,-9117,13168,0.0
6672,-8930,13226,0.0
6624,-8682,13190,0.0
6577,-8439,13152,0.0
6731,-8450,13517,0.0
6668,-8188,13447,0.0
6646,-7979,13458,0.0
6668,-7824,13557,0.0
0,0,0,0.0
13828,-15474,28332,1.0
13843,-15118,28471,1.0
13823,-14724,28537,1.0
13869,-14401,28738,1.0
0,0,0,0.0
0,0,0,0.0
13951,-13368,29219,1.0
13915,-12965,29246,1.0
0,0,0,0.0
13897,-12212,29406,1.0
13870,-11821,29445,1.0
0,0,0,0.0
13808,-11039,29503,1.0
0,0,0,0.0
0,0,0,0.0
0,0,0,0.0
0,0,0,0.0
0,0,0,0.0
0,0,0,0.0
0,0,0,0.0
0,0,0,0.0
0,0,0,0.0
13693,-7352,30129,1.0
13601,-6947,30010,1.0
13745,-6660,30408,1.0
0,0,0,0.0
13978,-6038,31084,1.0
0,0,0,0.0
14060,-5333,31425,1.0
13994,-4939,31355,1.0
0,0,0,0.0
13927,-4179,31356,1.0
0,0,0,0.0
13833,-3416,31291,1.0
13768,-3034,31217,1.0
13642,-2642,31001,1.0
10869,-1815,24756,0.0
10117,-1418,23093,0.0
9664,-1095,22106,0.0
9644,-833,22110,0.0
9646,-572,22160,0.0
9650,-310,22215,0.0
9665,-48,22296,0.0
9657,214,22321,0.0
9657,479,22365,0.0
9688,747,22481,0.0
9671,1013,22484,0.0
9663,1280,22510,0.0
9684,1553,22599,0.0
9708,1828,22697,0.0
9698,2099,22716,0.0
9711,2376,22788,0.0
9729,2656,22868,0.0
9727,2933,22903,0.0
9743,3217,22981,0.0
9743,3497,23018,0.0
9733,3777,23034,0.0
9765,4074,23148,0.0
9765,4361,23185,0.0
9788,4659,23275,0.0
9800,4957,23339,0.0
9810,5255,23398,0.0
9788,5538,23382,0.0
9799,5840,23441,0.0
17,11,42,0.0
21,14,51,0.0
26,18,65,0.0
25,18,62,0.0
28,22,71,0.0
30,24,75,0.0
35,29,85,0.0
31,26,77,0.0
37,32,90,0.0
33,30,83,0.0
37,35,91,0.0
37,36,91,0.0
43,44,107,0.0
39,41,96,0.0
42,45,103,0.0
49,55,121,0.0
40,47,101,0.0
46,55,114,0.0
44,55,111,0.0
52,65,129,0.0
50,65,124,0.0
48,66,122,0.0
50,70,126,0.0
51,73,128,0.0
52,76,128,0.0
52,77,129,0.0
51,78,127,0.0
49,76,121,0.0
49,79,122,0.0
49,82,123,0.0
48,82,121,0.0
51,90,130,0.0
50,89,124,0.0
46,85,117,0.0
47,89,118,0.0
43,81,106,0.0
47,92,117,0.0
47,93,117,0.0
46,95,116,0.0
44,93,111,0.0
42,91,106,0.0
