//X,Y,Z,Classification
35,21,73,0.0
24,15,49,0.0
27,18,55,0.0
31,22,66,0.0
38,27,78,0.0
38,28,78,0.0
39,30,80,0.0
37,30,76,0.0
48,39,98,0.0
39,33,81,0.0
44,39,92,0.0
50,45,103,0.0
48,46,100,0.0
50,49,104,0.0
51,51,105,0.0
49,52,102,0.0
55,58,112,0.0
53,58,110,0.0
55,62,113,0.0
51,59,105,0.0
54,64,111,0.0
53,64,109,0.0
50,62,102,0.0
51,66,106,0.0
54,71,111,0.0
56,75,115,0.0
52,72,107,0.0
52,74,108,0.0
49,73,103,0.0
53,80,110,0.0
53,81,109,0.0
53,83,109,0.0
52,83,107,0.0
51,84,106,0.0
52,88,109,0.0
55,93,112,0.0
53,95,111,0.0
53,94,109,0.0
54,99,111,0.0
54,102,113,0.0
56,107,115,0.0
57,111,116,0.0
57,115,118,0.0
55,111,112,0.0
55,115,113,0.0
58,123,119,0.0
59,127,119,0.0
55,123,113,0.0
60,135,122,0.0
60,138,122,0.0
61,143,124,0.0
62,151,127,0.0
59,145,119,0.0
83,-273,63,0.0
84,-269,65,0.0
81,-259,66,0.0
83,-259,69,0.0
82,-254,70,0.0
84,-256,74,0.0
83,-250,75,0.0
84,-248,78,0.0
84,-248,80,0.0
88,-253,86,0.0
88,-251,88,0.0
89,-248,90,0.0
90,-249,93,0.0
92,-250,97,0.0
92,-248,99,0.0
94,-249,103,0.0
97,-254,108,0.0
97,-250,110,0.0
98,-250,113,0.0
100,-251,117,0.0
100,-248,118,0.0
101,-247,121,0.0
103,-246,125,0.0
105,-247,129,0.0
104,-241,129,0.0
107,-246,135,0.0
111,-251,142,0.0
116,-258,150,0.0
116,-254,151,0.0
122,-265,162,0.0
123,-262,164,0.0
119,-249,161,0.0
109,-226,148,0.0
104,-211,142,0.0
104,-210,145,0.0
99,-198,140,0.0
90,-176,127,0.0
10209,-19530,14543,0.0
10164,-19153,14608,0.0
10138,-18814,14694,0.0
10101,-18456,14761,0.0
10073,-18123,14842,0.0
10034,-17772,14901,0.0
10002,-17439,14970,0.0
9984,-17132,15057,0.0
9959,-16818,15131,0.0
9937,-16511,15207,0.0
9893,-16172,15246,0.0
9880,-15885,15330,0.0
9856,-15585,15398,0.0
9809,-15252,15427,0.0
9808,-14993,15524,0.0
9784,-14700,15585,0.0
9855,-14551,15795,0.0
10036,-14560,16183,0.0
10272,-14639,16663,0.0
10474,-14660,17089,0.0
10756,-14782,17649,0.0
11073,-14938,18271,0.0
11330,-14999,18797,0.0
14535,-18880,24244,1.0
14567,-18558,24425,1.0
14615,-18257,24631,1.0
14623,-17906,24770,1.0
0,0,0,0.0
14657,-17229,25071,1.0
14735,-16961,25324,1.0
14799,-16676,25555,1.0
14959,-16494,25949,1.0
14939,-16112,26033,1.0
0,0,0,0.0
0,0,0,0.0
15552,-15652,27452,1.0
15600,-15329,27653,1.0
15660,-15015,27872,1.0
0,0,0,0.0
0,0,0,0.0
0,0,0,0.0
15979,-13809,28888,1.0
0,0,0,0.0
0,0,0,0.0
0,0,0,0.0
0,0,0,0.0
0,0,0,0.0
0,0,0,0.0
0,0,0,0.0
0,0,0,0.0
0,0,0,0.0
0,0,0,0.0
0,0,0,0.0
0,0,0,0.0
0,0,0,0.0
0,0,0,0.0
0,0,0,0.0
0,0,0,0.0
0,0,0,0.0
0,0,0,0.0
0,0,0,0.0
16060,-6381,30940,1.0
0,0,0,0.0
16037,-5622,31058,1.0
0,0,0,0.0
0,0,0,0.0
15791,-4425,30811,1.0
15715,-4034,30738,1.0
15645,-3647,30670,1.0
15592,-3267,30637,1.0
0,0,0,0.0
0,0,0,0.0
15260,-2112,30187,1.0
15139,-1734,30014,1.0
15158,-1374,30114,1.0
15013,-1002,29890,1.0
14864,-636,29653,1.0
10950,-204,21888,0.0
10406,56,20841,0.0
10009,296,20087,0.0
9733,525,19568,0.0
9465,742,19064,0.0
8962,921,18084,0.0
9415,1200,19032,0.0
9439,1436,19116,0.0
9467,1675,19202,0.0
9437,1905,19174,0.0
9489,2153,19310,0.0
9468,2387,19300,0.0
9492,2632,19377,0.0
9510,2879,19446,0.0
9529,3127,19513,0.0
9550,3379,19583,0.0
9595,3642,19703,0.0
9612,3898,19765,0.0
8,3,17,0.0
11,4,24,0.0
11,5,23,0.0
9,4,19,0.0
11,6,23,0.0
17,9,38,0.0
19,12,42,0.0
22,13,47,0.0
23,15,47,0.0
21,14,46,0.0
27,19,59,0.0
33,25,71,0.0
33,26,71,0.0
35,28,75,0.0
43,35,91,0.0
37,31,78,0.0
41,36,86,0.0
39,36,85,0.0
47,45,101,0.0
35,33,74,0.0
47,47,101,0.0
43,45,93,0.0
50,53,106,0.0
47,51,100,0.0
47,53,100,0.0
44,50,94,0.0
48,58,103,0.0
50,60,105,0.0
46,58,98,0.0
48,62,103,0.0
48,63,102,0.0
47,64,100,0.0
45,62,95,0.0
47,67,100,0.0
45,67,97,0.0
45,66,95,0.0
45,69,97,0.0
49,77,105,0.0
48,78,103,0.0
48,78,101,0.0
46,78,99,0.0
47,82,101,0.0
49,87,105,0.0
49,88,104,0.0
51,95,109,0.0
52,99,111,0.0
51,99,109,0.0
53,104,112,0.0
51,103,110,0.0
51,105,109,0.0
51,108,110,0.0
52,113,112,0.0
52,113,109,0.0
53,120,113,0.0
53,120,111,0.0
53,124,112,0.0
53,126,112,0.0
54,130,113,0.0
56,138,118,0.0
56,141,117,0.0
82,-278,66,0.0
84,-280,69,0.0
83,-271,70,0.0
80,-261,70,0.0
84,-265,75,0.0
84,-263,77,0.0
87,-271,83,0.0
87,-264,83,0.0
90,-270,89,0.0
87,-259,89,0.0
89,-262,93,0.0
92,-264,97,0.0
92,-263,100,0.0
96,-266,104,0.0
95,-263,107,0.0
97,-263,109,0.0
99,-264,114,0.0
96,-255,113,0.0
100,-259,119,0.0
101,-261,122,0.0
102,-257,124,0.0
104,-261,130,0.0
106,-259,133,0.0
104,-252,132,0.0
106,-254,138,0.0
110,-259,143,0.0
114,-264,150,0.0
117,-269,157,0.0
119,-270,162,0.0
117,-261,160,0.0
122,-267,169,0.0
116,-250,161,0.0
111,-236,157,0.0
105,-221,151,0.0
99,-204,142,0.0
99,-200,143,0.0
92,-184,135,0.0
9909,-19450,14569,0.0
9873,-19084,14640,0.0
9841,-18734,14717,0.0
9812,-18391,14793,0.0
9778,-18044,14859,0.0
9758,-17728,14946,0.0
9727,-17394,15012,0.0
9702,-17074,15085,0.0
9669,-16744,15143,0.0
9644,-16432,15211,0.0
9626,-16134,15288,0.0
9602,-15831,15355,0.0
9586,-15542,15431,0.0
9553,-15229,15477,0.0
9530,-14936,15539,0.0
9513,-14656,15610,0.0
9643,-14598,15918,0.0
9814,-14598,16297,0.0
10035,-14663,16763,0.0
10245,-14700,17210,0.0
10489,-14778,17720,0.0
10779,-14906,18310,0.0
0,0,0,0.0
14296,-19036,24545,1.0
0,0,0,0.0
0,0,0,0.0
0,0,0,0.0
0,0,0,0.0
14431,-17389,25399,1.0
14506,-17116,25650,1.0
0,0,0,0.0
0,0,0,0.0
14644,-16189,26248,1.0
14766,-15960,26581,1.0
14936,-15776,27001,1.0
15109,-15589,27428,1.0
0,0,0,0.0
0,0,0,0.0
0,0,0,0.0
15476,-14461,28549,1.0
15480,-14091,28666,1.0
0,0,0,0.0
0,0,0,0.0
0,0,0,0.0
0,0,0,0.0
15719,-12417,29643,1.0
0,0,0,0.0
0,0,0,0.0
0,0,0,0.0
0,0,0,0.0
15561,-10433,29836,1.0
0,0,0,0.0
0,0,0,0.0
15585,-9336,30162,1.0
0,0,0,0.0
0,0,0,0.0
0,0,0,0.0
0,0,0,0.0
15871,-7616,31164,1.0
15874,-7240,31258,1.0
0,0,0,0.0
15888,-6489,31453,1.0
15810,-6079,31382,1.0
0,0,0,0.0
15601,-5252,31124,1.0
0,0,0,0.0
0,0,0,0.0
0,0,0,0.0
15289,-3677,30799,1.0
15259,-3302,30811,1.0
15143,-2910,30644,1.0
14928,-2507,30279,1.0
14897,-2140,30282,1.0
0,0,0,0.0
14874,-1411,30367,1.0
14693,-1034,30059,1.0
0,0,0,0.0
10678,-227,21935,0.0
10158,35,20908,0.0
9731,275,20068,0.0
9534,506,19698,0.0
9206,719,19057,0.0
8969,925,18598,0.0
9202,1180,19117,0.0
9190,1411,19125,0.0
9217,1649,19217,0.0
9228,1886,19270,0.0
9198,2116,19241,0.0
9221,2358,19318,0.0
9213,2594,19333,0.0
9260,2848,19463,0.0
9248,3085,19466,0.0
9302,3347,19609,0.0
9303,3594,19639,0.0
9326,3849,19715,0.0
9327,4099,19745,0.0
15,6,33,0.0
9405,4640,19964,0.0
15,8,34,0.0
22,12,48,0.0
24,13,52,0.0
24,14,52,0.0
26,16,55,0.0
33,22,74,0.0
33,22,72,0.0
37,27,81,0.0
34,25,73,0.0
37,28,80,0.0
37,30,81,0.0
43,35,93,0.0
37,32,81,0.0
41,37,90,0.0
49,44,105,0.0
49,47,108,0.0
51,50,111,0.0
48,49,105,0.0
51,54,113,0.0
50,53,108,0.0
50,55,108,0.0
52,59,114,0.0
50,60,111,0.0
52,62,114,0.0
53,67,117,0.0
49,63,108,0.0
51,68,114,0.0
51,69,112,0.0
51,72,114,0.0
48,69,106,0.0
46,67,101,0.0
48,72,106,0.0
44,67,97,0.0
48,76,107,0.0
47,76,104,0.0
47,78,104,0.0
49,81,106,0.0
49,84,107,0.0
49,86,108,0.0
49,89,109,0.0
49,91,108,0.0
50,96,112,0.0
50,96,109,0.0
50,99,110,0.0
51,103,112,0.0
53,107,115,0.0
53,111,116,0.0
52,112,114,0.0
54,120,119,0.0
53,120,116,0.0
55,125,119,0.0
53,124,116,0.0
53,126,116,0.0
55,136,120,0.0
55,138,121,0.0
55,138,118,0.0
56,145,122,0.0
77,-270,65,0.0
76,-263,65,0.0
76,-260,68,0.0
77,-258,70,0.0
79,-262,74,0.0
80,-260,78,0.0
82,-262,81,0.0
83,-260,83,0.0
79,-246,82,0.0
85,-261,90,0.0
88,-264,94,0.0
88,-261,97,0.0
88,-258,98,0.0
89,-258,101,0.0
91,-259,105,0.0
91,-255,108,0.0
93,-258,112,0.0
94,-255,114,0.0
96,-257,118,0.0
96,-252,119,0.0
95,-249,122,0.0
95,-245,123,0.0
100,-252,130,0.0
100,-249,132,0.0
99,-244,133,0.0
103,-252,141,0.0
111,-265,152,0.0
112,-264,156,0.0
114,-264,159,0.0
109,-251,155,0.0
108,-243,155,0.0
103,-228,148,0.0
104,-225,151,0.0
95,-203,139,0.0
94,-201,141,0.0
93,-194,140,0.0
86,-177,130,0.0
9601,-19348,14576,0.0
9573,-19000,14658,0.0
9551,-18666,14745,0.0
9514,-18305,14804,0.0
9488,-17971,14880,0.0
9459,-17637,14949,0.0
9437,-17321,15027,0.0
9409,-16994,15090,0.0
9387,-16681,15163,0.0
9360,-16365,15225,0.0
9329,-16045,15278,0.0
9313,-15755,15354,0.0
9297,-15467,15428,0.0
9271,-15165,15483,0.0
9244,-14863,15534,0.0
9230,-14588,15606,0.0
9402,-14602,15994,0.0
9642,-14713,16499,0.0
9735,-14591,16753,0.0
9982,-14692,17273,0.0
10265,-14834,17862,0.0
10508,-14905,18382,0.0
13945,-19412,24525,1.0
13967,-19076,24693,1.0
14008,-18763,24890,1.0
14014,-18406,25026,1.0
0,0,0,0.0
14128,-17825,25476,1.0
0,0,0,0.0
14214,-17203,25871,1.0
0,0,0,0.0
14238,-16505,26147,1.0
14341,-16261,26452,1.0
14456,-16026,26779,1.0
14592,-15809,27142,1.0
0,0,0,0.0
14917,-15414,27978,1.0
14980,-15105,28208,1.0
15086,-14836,28518,1.0
0,0,0,0.0
0,0,0,0.0
0,0,0,0.0
0,0,0,0.0
0,0,0,0.0
0,0,0,0.0
0,0,0,0.0
0,0,0,0.0
15419,-11743,30106,1.0
0,0,0,0.0
0,0,0,0.0
15197,-10460,29963,1.0
15232,-10112,30126,1.0
0,0,0,0.0
15165,-9328,30177,1.0
0,0,0,0.0
15225,-8622,30476,1.0
0,0,0,0.0
0,0,0,0.0
0,0,0,0.0
15635,-7330,31649,1.0
0,0,0,0.0
0,0,0,0.0
0,0,0,0.0
0,0,0,0.0
15219,-5275,31214,1.0
0,0,0,0.0
15137,-4503,31199,1.0
15095,-4119,31186,1.0
0,0,0,0.0
14920,-3335,30971,1.0
0,0,0,0.0
14688,-2556,30628,1.0
14553,-2170,30411,1.0
0,0,0,0.0
0,0,0,0.0
0,0,0,0.0
14182,-696,29889,1.0
10472,-249,22114,0.0
9945,14,21043,0.0
9446,253,20028,0.0
9398,491,19965,0.0
8984,699,19121,0.0
8951,925,19084,0.0
8931,1153,19077,0.0
8977,1392,19211,0.0
8987,1627,19266,0.0
8964,1856,19251,0.0
8933,2084,19216,0.0
8981,2332,19351,0.0
8989,2572,19397,0.0
9017,2820,19489,0.0
9003,3057,19492,0.0
9052,3316,19626,0.0
9062,3565,19677,0.0
9064,3812,19711,0.0
9078,4066,19768,0.0
9105,4328,19854,0.0
9117,4587,19909,0.0
15,8,34,0.0
18,10,40,0.0
25,15,55,0.0
16,10,36,0.0
25,16,58,0.0
21,14,48,0.0
29,20,64,0.0
28,20,63,0.0
32,24,72,0.0
40,31,89,0.0
40,32,89,0.0
36,31,82,0.0
40,34,88,0.0
38,35,86,0.0
38,36,86,0.0
42,41,94,0.0
39,39,89,0.0
42,44,95,0.0
42,45,94,0.0
44,49,100,0.0
48,54,108,0.0
49,57,110,0.0
49,60,111,0.0
43,54,98,0.0
47,61,107,0.0
48,64,108,0.0
47,63,106,0.0
51,70,115,0.0
48,68,108,0.0
42,61,96,0.0
45,67,102,0.0
45,70,103,0.0
43,68,98,0.0
43,69,97,0.0
45,74,102,0.0
43,74,99,0.0
43,75,99,0.0
44,78,100,0.0
44,79,99,0.0
46,87,106,0.0
44,84,100,0.0
47,92,108,0.0
49,97,110,0.0
47,96,108,0.0
47,97,106,0.0
47,101,107,0.0
48,105,110,0.0
48,106,108,0.0
50,113,113,0.0
51,118,114,0.0
51,121,116,0.0
53,128,119,0.0
50,125,115,0.0
51,128,115,0.0
51,132,115,0.0
50,131,113,0.0
49,133,113,0.0
76,-275,67,0.0
76,-270,68,0.0
75,-262,70,0.0
77,-263,72,0.0
78,-266,77,0.0
82,-272,82,0.0
83,-272,85,0.0
83,-272,88,0.0
82,-262,88,0.0
84,-267,93,0.0
85,-264,95,0.0
87,-266,100,0.0
88,-264,101,0.0
88,-259,103,0.0
91,-265,109,0.0
93,-266,113,0.0
94,-267,117,0.0
94,-263,119,0.0
95,-262,122,0.0
97,-263,125,0.0
96,-259,127,0.0
98,-259,131,0.0
101,-262,136,0.0
98,-251,134,0.0
102,-258,141,0.0
109,-270,152,0.0
111,-273,157,0.0
115,-279,165,0.0
115,-274,167,0.0
114,-268,167,0.0
112,-259,166,0.0
104,-237,155,0.0
101,-228,154,0.0
97,-216,148,0.0
95,-209,147,0.0
89,-193,140,0.0
9331,-19616,14512,0.0
9312,-19279,14607,0.0
9281,-18921,14678,0.0
9252,-18573,14752,0.0
9224,-18230,14823,0.0
9201,-17900,14899,0.0
9185,-17589,14986,0.0
9154,-17253,15045,0.0
9135,-16943,15121,0.0
9112,-16629,15189,0.0
9082,-16307,15244,0.0
9055,-15992,15301,0.0
9040,-15701,15375,0.0
9012,-15393,15426,0.0
9014,-15137,15526,0.0
8981,-14826,15565,0.0
8970,-14552,15638,0.0
9143,-14576,16033,0.0
9414,-14745,16604,0.0
9489,-14600,16833,0.0
9738,-14713,17370,0.0
9997,-14830,17928,0.0
10268,-14949,18511,0.0
13707,-19584,24839,1.0
13698,-19199,24949,1.0
13688,-18818,25057,1.0
13743,-18525,25280,1.0
13759,-18180,25432,1.0
13777,-17839,25587,1.0
13800,-17503,25749,1.0
13862,-17217,25982,1.0
0,0,0,0.0
0,0,0,0.0
0,0,0,0.0
14106,-16048,26900,1.0
0,0,0,0.0
14386,-15625,27661,1.0
14534,-15412,28059,1.0
0,0,0,0.0
14662,-14799,28528,1.0
0,0,0,0.0
0,0,0,0.0
0,0,0,0.0
0,0,0,0.0
15057,-13288,29837,1.0
0,0,0,0.0
0,0,0,0.0
0,0,0,0.0
15051,-11769,30235,1.0
0,0,0,0.0
0,0,0,0.0
14799,-10460,30015,1.0
0,0,0,0.0
14877,-9772,30361,1.0
0,0,0,0.0
14738,-8945,30257,1.0
0,0,0,0.0
0,0,0,0.0
0,0,0,0.0
15213,-7714,31589,1.0
0,0,0,0.0
15244,-6970,31826,1.0
15192,-6566,31802,1.0
0,0,0,0.0
15023,-5740,31611,1.0
0,0,0,0.0
0,0,0,0.0
14765,-4529,31301,1.0
0,0,0,0.0
0,0,0,0.0
0,0,0,0.0
0,0,0,0.0
0,0,0,0.0
14247,-2206,30624,1.0
0,0,0,0.0
14143,-1466,30531,1.0
14076,-1099,30452,1.0
13884,-726,30097,1.0
10166,-269,22084,0.0
9708,-6,21132,0.0
9184,232,20032,0.0
9178,471,20057,0.0
8799,682,19264,0.0
8707,904,19097,0.0
8711,1134,19141,0.0
8731,1368,19221,0.0
8709,1596,19207,0.0
8727,1832,19280,0.0
8737,2069,19335,0.0
8757,2310,19412,0.0
8755,2547,19439,0.0
8746,2783,19452,0.0
8765,3029,19524,0.0
8792,3281,19616,0.0
8791,3524,19642,0.0
8807,3776,19708,0.0
8812,4024,19747,0.0
8838,4286,19834,0.0
8859,4547,19911,0.0
7,4,17,0.0
17,10,41,0.0
21,13,50,0.0
19,11,43,0.0
30,20,70,0.0
25,17,59,0.0
30,22,70,0.0
42,31,98,0.0
33,26,78,0.0
33,26,77,0.0
34,28,79,0.0
37,32,85,0.0
39,35,90,0.0
44,40,101,0.0
43,42,100,0.0
43,42,99,0.0
46,48,107,0.0
47,50,109,0.0
49,55,115,0.0
43,49,101,0.0
46,54,107,0.0
49,58,113,0.0
47,59,111,0.0
49,62,114,0.0
51,67,118,0.0
47,63,110,0.0
51,70,119,0.0
46,66,108,0.0
47,68,110,0.0
48,73,114,0.0
50,76,116,0.0
53,84,124,0.0
48,77,113,0.0
47,77,110,0.0
46,78,108,0.0
46,79,107,0.0
43,76,101,0.0
44,81,105,0.0
46,86,109,0.0
43,83,102,0.0
45,87,105,0.0
45,91,108,0.0
47,97,111,0.0
48,100,112,0.0
47,100,111,0.0
48,104,113,0.0
48,108,114,0.0
46,104,109,0.0
48,112,113,0.0
49,117,116,0.0
50,121,116,0.0
49,121,115,0.0
50,128,119,0.0
50,127,116,0.0
50,131,117,0.0
50,135,117,0.0
50,137,117,0.0
70,-262,64,0.0
71,-261,67,0.0
72,-260,69,0.0
72,-256,72,0.0
73,-255,75,0.0
75,-258,79,0.0
75,-255,80,0.0
78,-260,86,0.0
77,-254,86,0.0
81,-262,92,0.0
80,-257,93,0.0
82,-259,98,0.0
84,-261,101,0.0
83,-256,103,0.0
86,-261,109,0.0
86,-257,109,0.0
89,-259,115,0.0
89,-255,116,0.0
88,-250,117,0.0
90,-250,120,0.0
89,-248,122,0.0
94,-256,131,0.0
94,-252,132,0.0
90,-237,127,0.0
95,-249,137,0.0
100,-257,145,0.0
106,-268,156,0.0
107,-267,160,0.0
105,-256,156,0.0
102,-247,155,0.0
104,-246,158,0.0
98,-232,153,0.0
93,-214,145,0.0
86,-196,136,0.0
87,-194,138,0.0
76,-166,121,0.0
9035,-19530,14529,0.0
9002,-19161,14597,0.0
8990,-18843,14696,0.0
8961,-18491,14764,0.0
8933,-18148,14833,0.0
8908,-17814,14903,0.0
8891,-17499,14983,0.0
8861,-17162,15039,0.0
8850,-16869,15129,0.0
8826,-16553,15192,0.0
8797,-16229,15243,0.0
8784,-15939,15321,0.0
8766,-15644,15388,0.0
8725,-15309,15411,0.0
8720,-15043,15497,0.0
8709,-14768,15572,0.0
8729,-14548,15701,0.0
8864,-14516,16034,0.0
9141,-14706,16630,0.0
9259,-14630,16937,0.0
9487,-14720,17447,0.0
9740,-14837,18009,0.0
10025,-14991,18634,0.0
13413,-19680,25057,1.0
0,0,0,0.0
13453,-18993,25383,1.0
13408,-18560,25420,1.0
13458,-18261,25637,1.0
13497,-17945,25830,1.0
0,0,0,0.0
0,0,0,0.0
0,0,0,0.0
0,0,0,0.0
13717,-16392,26835,1.0
13789,-16111,27089,1.0
13813,-15772,27248,1.0
13994,-15608,27714,1.0
0,0,0,0.0
14257,-15152,28457,1.0
14346,-14871,28745,1.0
0,0,0,0.0
0,0,0,0.0
0,0,0,0.0
14621,-13633,29727,1.0
0,0,0,0.0
0,0,0,0.0
14820,-12669,30445,1.0
0,0,0,0.0
0,0,0,0.0
0,0,0,0.0
0,0,0,0.0
0,0,0,0.0
0,0,0,0.0
0,0,0,0.0
0,0,0,0.0
0,0,0,0.0
0,0,0,0.0
0,0,0,0.0
14787,-8092,31512,1.0
0,0,0,0.0
0,0,0,0.0
0,0,0,0.0
0,0,0,0.0
0,0,0,0.0
14645,-5764,31711,1.0
14649,-5389,31799,1.0
0,0,0,0.0
0,0,0,0.0
14363,-4174,31407,1.0
0,0,0,0.0
14167,-3383,31126,1.0
0,0,0,0.0
0,0,0,0.0
0,0,0,0.0
0,0,0,0.0
13874,-1503,30822,1.0
13735,-1128,30578,1.0
0,0,0,0.0
9879,-289,22085,0.0
9480,-26,21236,0.0
8932,212,20047,0.0
8930,451,20084,0.0
8538,659,19238,0.0
8435,879,19044,0.0
8439,1107,19087,0.0
8472,1343,19196,0.0
8467,1572,19222,0.0
8470,1805,19263,0.0
8481,2040,19319,0.0
8476,2274,19345,0.0
8506,2518,19446,0.0
8504,2755,19472,0.0
8506,2995,19507,0.0
8552,3253,19645,0.0
8551,3495,19672,0.0
8565,3746,19737,0.0
8591,4005,19825,0.0
8598,4256,19871,0.0
12,6,30,0.0
10,6,27,0.0
13,7,34,0.0
19,11,45,0.0
19,12,46,0.0
22,15,52,0.0
27,18,63,0.0
25,18,59,0.0
29,21,67,0.0
24,19,59,0.0
33,27,79,0.0
33,28,79,0.0
29,25,68,0.0
36,34,88,0.0
34,33,81,0.0
35,34,83,0.0
38,40,93,0.0
42,44,99,0.0
40,44,96,0.0
40,44,95,0.0
40,47,98,0.0
45,54,108,0.0
44,53,104,0.0
44,55,105,0.0
46,60,110,0.0
46,62,111,0.0
43,59,104,0.0
41,58,100,0.0
41,61,101,0.0
45,67,109,0.0
45,69,108,0.0
41,65,100,0.0
42,69,103,0.0
42,70,103,0.0
40,67,97,0.0
40,71,99,0.0
40,71,97,0.0
41,74,98,0.0
42,79,103,0.0
41,79,101,0.0
42,82,102,0.0
42,84,103,0.0
39,81,96,0.0
41,86,101,0.0
42,90,101,0.0
44,97,107,0.0
43,96,104,0.0
43,99,105,0.0
41,98,102,0.0
45,107,109,0.0
45,110,110,0.0
46,114,111,0.0
44,113,108,0.0
46,122,113,0.0
45,120,109,0.0
47,128,113,0.0
46,128,112,0.0
46,131,112,0.0
67,-260,65,0.0
70,-266,70,0.0
69,-258,70,0.0
71,-264,75,0.0
72,-261,77,0.0
74,-262,81,0.0
75,-263,84,0.0
75,-263,87,0.0
77,-261,90,0.0
78,-263,93,0.0
80,-264,97,0.0
81,-261,99,0.0
80,-257,101,0.0
83,-262,106,0.0
85,-264,111,0.0
84,-258,111,0.0
85,-256,114,0.0
88,-260,119,0.0
89,-260,123,0.0
91,-263,128,0.0
88,-253,126,0.0
88,-248,127,0.0
93,-257,135,0.0
91,-250,135,0.0
92,-249,138,0.0
100,-264,151,0.0
102,-265,155,0.0
104,-268,160,0.0
103,-262,161,0.0
103,-258,162,0.0
99,-241,156,0.0
97,-232,155,0.0
95,-227,155,0.0
87,-204,142,0.0
82,-189,135,0.0
82,-186,136,0.0
8754,-19472,14565,0.0
8730,-19119,14642,0.0
8698,-18757,14706,0.0
8680,-18427,14789,0.0
8650,-18077,14849,0.0
8629,-17749,14923,0.0
8619,-17450,15014,0.0
8586,-17104,15061,0.0
8576,-16811,15148,0.0
8552,-16493,15207,0.0
8538,-16196,15282,0.0
8515,-15887,15340,0.0
8492,-15582,15394,0.0
8401,-15155,15322,0.0
8464,-15011,15532,0.0
8456,-14741,15608,0.0
8508,-14574,15794,0.0
8605,-14484,16064,0.0
8857,-14646,16628,0.0
9008,-14630,17003,0.0
9249,-14750,17551,0.0
9457,-14807,18040,0.0
9741,-14969,18678,0.0
13151,-19829,25341,1.0
0,0,0,0.0
13127,-19046,25545,1.0
13231,-18821,25868,1.0
0,0,0,0.0
0,0,0,0.0
13279,-17773,26322,1.0
13320,-17457,26518,1.0
13247,-16994,26488,1.0
13275,-16664,26655,1.0
13316,-16350,26849,1.0
0,0,0,0.0
13476,-15811,27394,1.0
0,0,0,0.0
0,0,0,0.0
0,0,0,0.0
0,0,0,0.0
0,0,0,0.0
0,0,0,0.0
14191,-13977,29619,1.0
0,0,0,0.0
0,0,0,0.0
0,0,0,0.0
14452,-12698,30578,1.0
0,0,0,0.0
14390,-11884,30650,1.0
0,0,0,0.0
0,0,0,0.0
0,0,0,0.0
0,0,0,0.0
14147,-9823,30602,1.0
14119,-9432,30631,1.0
0,0,0,0.0
0,0,0,0.0
0,0,0,0.0
14386,-8102,31567,1.0
0,0,0,0.0
14503,-7407,32000,1.0
0,0,0,0.0
0,0,0,0.0
14386,-6214,31992,1.0
0,0,0,0.0
14250,-5405,31849,1.0
14222,-5019,31867,1.0
0,0,0,0.0
14032,-4210,31593,1.0
13950,-3816,31483,1.0
0,0,0,0.0
13691,-3017,31043,1.0
13651,-2644,31022,1.0
0,0,0,0.0
13526,-1896,30875,1.0
13495,-1529,30869,1.0
0,0,0,0.0
13354,-792,30677,1.0
9566,-308,22022,0.0
9216,-46,21260,0.0
8712,194,20135,0.0
8653,429,20039,0.0
8346,644,19368,0.0
8210,860,19090,0.0
7894,1046,18388,0.0
8213,1316,19167,0.0
8195,1543,19160,0.0
8222,1779,19257,0.0
8210,2008,19264,0.0
8253,2253,19399,0.0
8237,2484,19394,0.0
8258,2727,19479,0.0
8253,2963,19500,0.0
8287,3216,19613,0.0
8298,3462,19670,0.0
8320,3715,19753,0.0
8307,3954,19753,0.0
8343,4219,19869,0.0
8338,4466,19887,0.0
8376,4739,20007,0.0
11,6,29,0.0
23,14,55,0.0
21,13,53,0.0
20,13,48,0.0
25,18,60,0.0
25,19,61,0.0
26,20,65,0.0
28,24,71,0.0
30,25,74,0.0
35,30,85,0.0
33,30,81,0.0
33,32,83,0.0
34,34,84,0.0
33,34,83,0.0
39,41,97,0.0
40,43,99,0.0
41,46,101,0.0
32,36,78,0.0
43,52,107,0.0
41,50,101,0.0
41,52,104,0.0
41,54,103,0.0
43,58,107,0.0
46,63,114,0.0
43,61,108,0.0
45,66,112,0.0
43,65,108,0.0
45,70,114,0.0
42,66,105,0.0
44,71,109,0.0
44,73,111,0.0
42,71,106,0.0
46,80,114,0.0
40,72,101,0.0
39,71,97,0.0
38,72,96,0.0
39,75,98,0.0
38,75,97,0.0
40,80,99,0.0
42,86,105,0.0
42,88,105,0.0
40,87,101,0.0
41,90,103,0.0
41,94,105,0.0
41,95,102,0.0
43,103,110,0.0
41,98,103,0.0
42,104,106,0.0
44,110,110,0.0
44,114,111,0.0
43,114,109,0.0
43,114,107,0.0
45,122,112,0.0
45,125,112,0.0
45,129,113,0.0
44,131,113,0.0
68,-273,69,0.0
69,-270,71,0.0
69,-270,74,0.0
69,-264,75,0.0
72,-269,80,0.0
72,-267,83,0.0
73,-269,86,0.0
75,-268,90,0.0
76,-266,92,0.0
79,-271,97,0.0
80,-274,102,0.0
82,-275,106,0.0
81,-267,106,0.0
81,-266,109,0.0
84,-272,114,0.0
85,-268,117,0.0
83,-261,117,0.0
86,-266,122,0.0
88,-265,125,0.0
89,-266,129,0.0
89,-262,132,0.0
90,-261,135,0.0
93,-264,140,0.0
89,-251,137,0.0
91,-253,141,0.0
94,-255,147,0.0
95,-255,151,0.0
107,-282,170,0.0
98,-256,158,0.0
100,-257,163,0.0
97,-245,159,0.0
94,-233,155,0.0
87,-214,147,0.0
85,-206,145,0.0
75,-180,129,0.0
8482,-19734,14493,0.0
8464,-19387,14579,0.0
8441,-19038,14655,0.0
8427,-18711,14745,0.0
8393,-18345,14797,0.0
8383,-18035,14888,0.0
8362,-17705,14958,0.0
8335,-17367,15015,0.0
8315,-17049,15083,0.0
8298,-16738,15152,0.0
8275,-16423,15212,0.0
8265,-16135,15291,0.0
8242,-15823,15344,0.0
8240,-15554,15434,0.0
8219,-15256,15491,0.0
8200,-14962,15546,0.0
8179,-14666,15593,0.0
8280,-14593,15879,0.0
8412,-14565,16220,0.0
8604,-14636,16681,0.0
8767,-14646,17088,0.0
9001,-14763,17635,0.0
9226,-14856,18169,0.0
9455,-14943,18714,0.0
12772,-19805,25402,1.0
0,0,0,0.0
12847,-19167,25798,1.0
12901,-18873,26029,1.0
12980,-18611,26307,1.0
12997,-18259,26458,1.0
13015,-17911,26613,1.0
13019,-17545,26737,1.0
13006,-17157,26823,1.0
13000,-16779,26923,1.0
13039,-16463,27115,1.0
0,0,0,0.0
13165,-15883,27597,1.0
0,0,0,0.0
13347,-15359,28197,1.0
0,0,0,0.0
13589,-14884,28922,1.0
13666,-14592,29192,1.0
0,0,0,0.0
0,0,0,0.0
0,0,0,0.0
0,0,0,0.0
0,0,0,0.0
0,0,0,0.0
0,0,0,0.0
0,0,0,0.0
0,0,0,0.0
0,0,0,0.0
0,0,0,0.0
0,0,0,0.0
13591,-9711,30292,1.0
0,0,0,0.0
13563,-8961,30409,1.0
0,0,0,0.0
0,0,0,0.0
0,0,0,0.0
0,0,0,0.0
0,0,0,0.0
0,0,0,0.0
0,0,0,0.0
0,0,0,0.0
0,0,0,0.0
0,0,0,0.0
13874,-5054,32026,1.0
0,0,0,0.0
0,0,0,0.0
0,0,0,0.0
0,0,0,0.0
13416,-3062,31338,1.0
0,0,0,0.0
13314,-2309,31240,1.0
13263,-1936,31190,1.0
13220,-1565,31157,1.0
13170,-1196,31108,1.0
13100,-825,31005,1.0
0,0,0,0.0
8985,-65,21356,0.0
8528,176,20310,0.0
8411,410,20072,0.0
8160,628,19511,0.0
7978,840,19114,0.0
7500,1003,18003,0.0
7962,1292,19149,0.0
7975,1523,19216,0.0
7995,1758,19301,0.0
8008,1993,19369,0.0
7999,2224,19381,0.0
8014,2463,19451,0.0
8013,2698,19480,0.0
8027,2940,19548,0.0
8032,3182,19593,0.0
8039,3425,19643,0.0
8073,3683,19762,0.0
8075,3929,19797,0.0
8083,4179,19848,0.0
8093,4433,19904,0.0
14,7,38,0.0
17,10,44,0.0
20,13,51,0.0
24,15,59,0.0
26,19,66,0.0
24,17,59,0.0
26,20,66,0.0
26,21,66,0.0
31,26,79,0.0
35,31,91,0.0
37,34,96,0.0
37,35,95,0.0
36,35,93,0.0
39,39,99,0.0
36,38,92,0.0
40,43,103,0.0
36,40,91,0.0
44,50,112,0.0
39,46,100,0.0
44,54,113,0.0
39,49,100,0.0
44,56,112,0.0
46,62,118,0.0
44,61,114,0.0
45,64,116,0.0
40,58,103,0.0
43,65,112,0.0
42,66,111,0.0
46,73,118,0.0
39,64,101,0.0
42,70,110,0.0
42,73,111,0.0
41,71,106,0.0
41,73,106,0.0
44,81,114,0.0
38,73,101,0.0
40,79,105,0.0
40,78,102,0.0
40,80,103,0.0
40,84,106,0.0
38,82,100,0.0
39,84,102,0.0
39,86,102,0.0
40,91,105,0.0
41,95,107,0.0
40,95,104,0.0
42,102,109,0.0
42,103,108,0.0
40,103,107,0.0
41,108,107,0.0
43,115,113,0.0
42,114,111,0.0
41,117,110,0.0
43,121,112,0.0
43,125,113,0.0
43,128,114,0.0
44,132,114,0.0
66,-273,70,0.0
67,-273,73,0.0
70,-280,78,0.0
70,-276,80,0.0
71,-275,83,0.0
72,-273,86,0.0
75,-283,93,0.0
73,-274,92,0.0
76,-276,97,0.0
78,-278,101,0.0
79,-278,104,0.0
79,-274,106,0.0
83,-283,113,0.0
82,-277,114,0.0
83,-275,117,0.0
86,-281,123,0.0
85,-274,124,0.0
85,-269,125,0.0
88,-274,131,0.0
88,-273,134,0.0
88,-267,134,0.0
89,-267,138,0.0
92,-269,144,0.0
88,-254,140,0.0
93,-265,148,0.0
96,-268,155,0.0
104,-288,171,0.0
102,-276,168,0.0
100,-267,166,0.0
98,-262,167,0.0
96,-249,163,0.0
93,-239,160,0.0
86,-217,149,0.0
82,-206,145,0.0
76,-187,135,0.0
74,-178,131,0.0
8187,-19331,14610,0.0
8165,-18980,14684,0.0
8147,-18643,14763,0.0
8123,-18296,14828,0.0
8104,-17966,14902,0.0
8095,-17659,14989,0.0
8063,-17309,15034,0.0
8057,-17018,15124,0.0
8031,-16689,15175,0.0
8026,-16405,15263,0.0
8000,-16084,15310,0.0
7993,-15801,15389,0.0
7968,-15489,15434,0.0
7944,-15182,15479,0.0
7933,-14903,15548,0.0
7937,-14654,15644,0.0
8053,-14610,15960,0.0
8193,-14603,16325,0.0
8338,-14599,16704,0.0
8532,-14670,17181,0.0
8763,-14796,17738,0.0
8990,-14900,18288,0.0
9186,-14942,18779,0.0
12491,-19935,25658,1.0
12548,-19645,25897,1.0
12571,-19301,26067,1.0
12608,-18979,26263,1.0
12650,-18666,26471,1.0
12737,-18414,26768,1.0
0,0,0,0.0
12748,-17677,27022,1.0
12819,-17401,27288,1.0
0,0,0,0.0
0,0,0,0.0
0,0,0,0.0
12854,-15956,27802,1.0
0,0,0,0.0
12936,-15317,28194,1.0
0,0,0,0.0
0,0,0,0.0
0,0,0,0.0
0,0,0,0.0
0,0,0,0.0
13482,-13673,30020,1.0
0,0,0,0.0
0,0,0,0.0
0,0,0,0.0
0,0,0,0.0
0,0,0,0.0
0,0,0,0.0
0,0,0,0.0
12910,-10213,29491,1.0
0,0,0,0.0
0,0,0,0.0
0,0,0,0.0
0,0,0,0.0
0,0,0,0.0
13459,-8414,31285,1.0
0,0,0,0.0
0,0,0,0.0
13808,-7488,32360,1.0
0,0,0,0.0
13799,-6721,32508,1.0
13708,-6297,32376,1.0
0,0,0,0.0
0,0,0,0.0
13517,-5084,32168,1.0
13518,-4708,32245,1.0
0,0,0,0.0
0,0,0,0.0
0,0,0,0.0
13141,-3108,31645,1.0
0,0,0,0.0
0,0,0,0.0
12883,-1959,31232,1.0
0,0,0,0.0
12780,-1219,31119,1.0
0,0,0,0.0
0,0,0,0.0
8746,-84,21431,0.0
8307,158,20398,0.0
8146,389,20044,0.0
7923,609,19536,0.0
7720,818,19072,0.0
7265,982,17983,0.0
7701,1267,19101,0.0
7731,1500,19211,0.0
7734,1730,19254,0.0
7757,1967,19349,0.0
7768,2202,19412,0.0
7745,2428,19387,0.0
7780,2674,19512,0.0
7777,2910,19537,0.0
7795,3156,19619,0.0
7806,3400,19677,0.0
7804,3641,19706,0.0
7856,3911,19871,0.0
7825,4141,19826,0.0
7870,4413,19972,0.0
10,6,28,0.0
14,8,36,0.0
19,12,50,0.0
28,18,71,0.0
30,21,78,0.0
23,18,63,0.0
28,21,72,0.0
34,28,89,0.0
30,26,80,0.0
38,34,99,0.0
33,31,86,0.0
42,40,111,0.0
36,37,96,0.0
41,42,106,0.0
46,49,122,0.0
44,48,115,0.0
46,52,119,0.0
44,52,116,0.0
39,48,104,0.0
43,53,112,0.0
39,50,104,0.0
44,59,117,0.0
48,67,127,0.0
42,60,112,0.0
46,67,123,0.0
45,68,121,0.0
43,67,116,0.0
44,69,116,0.0
45,73,121,0.0
46,78,124,0.0
45,77,121,0.0
41,74,113,0.0
44,80,119,0.0
41,78,113,0.0
43,82,117,0.0
40,79,109,0.0
38,77,105,0.0
40,80,107,0.0
40,85,110,0.0
37,80,102,0.0
37,81,102,0.0
37,84,102,0.0
37,86,102,0.0
38,90,104,0.0
39,94,107,0.0
40,99,109,0.0
40,99,107,0.0
38,98,104,0.0
39,104,107,0.0
41,111,112,0.0
41,115,113,0.0
42,117,115,0.0
41,117,111,0.0
41,120,111,0.0
42,125,113,0.0
44,135,120,0.0
43,136,118,0.0
61,-262,68,0.0
62,-262,71,0.0
64,-266,74,0.0
65,-265,78,0.0
65,-263,80,0.0
67,-266,84,0.0
69,-270,89,0.0
69,-267,91,0.0
68,-261,92,0.0
71,-265,97,0.0
73,-268,101,0.0
74,-264,103,0.0
75,-264,107,0.0
75,-265,110,0.0
76,-262,112,0.0
79,-266,118,0.0
79,-263,120,0.0
80,-264,124,0.0
83,-268,129,0.0
81,-258,128,0.0
83,-259,132,0.0
83,-257,134,0.0
84,-256,138,0.0
80,-242,134,0.0
86,-254,143,0.0
91,-266,155,0.0
92,-265,158,0.0
92,-260,159,0.0
90,-252,157,0.0
91,-250,161,0.0
91,-246,162,0.0
84,-223,151,0.0
83,-215,149,0.0
75,-193,136,0.0
70,-179,130,0.0
67,-169,125,0.0
7893,-19226,14603,0.0
7866,-18863,14665,0.0
7858,-18546,14757,0.0
7838,-18207,14826,0.0
7825,-17888,14907,0.0
7806,-17559,14972,0.0
7784,-17228,15030,0.0
7770,-16920,15103,0.0
7757,-16617,15176,0.0
7741,-16310,15240,0.0
7735,-16028,15322,0.0
7721,-15732,15386,0.0
7703,-15433,15442,0.0
7691,-15147,15505,0.0
7684,-14875,15579,0.0
7664,-14581,15626,0.0
7822,-14621,16033,0.0
7995,-14683,16476,0.0
8084,-14582,16746,0.0
8292,-14688,17264,0.0
8503,-14790,17794,0.0
8723,-14893,18344,0.0
0,0,0,0.0
12200,-20056,25902,1.0
12251,-19755,26131,1.0
12245,-19364,26238,1.0
12306,-19079,26487,1.0
12382,-18815,26767,1.0
12426,-18501,26979,1.0
0,0,0,0.0
0,0,0,0.0
12508,-17484,27501,1.0
0,0,0,0.0
12488,-16707,27677,1.0
0,0,0,0.0
12499,-15977,27915,1.0
0,0,0,0.0
0,0,0,0.0
0,0,0,0.0
0,0,0,0.0
0,0,0,0.0
0,0,0,0.0
13016,-13972,29813,1.0
0,0,0,0.0
0,0,0,0.0
0,0,0,0.0
0,0,0,0.0
0,0,0,0.0
0,0,0,0.0
0,0,0,0.0
0,0,0,0.0
0,0,0,0.0
0,0,0,0.0
12519,-9491,29683,1.0
0,0,0,0.0
12645,-8868,30156,1.0
0,0,0,0.0
0,0,0,0.0
0,0,0,0.0
0,0,0,0.0
13393,-7492,32378,1.0
0,0,0,0.0
0,0,0,0.0
0,0,0,0.0
0,0,0,0.0
13236,-5522,32413,1.0
0,0,0,0.0
0,0,0,0.0
0,0,0,0.0
0,0,0,0.0
12798,-3507,31719,1.0
0,0,0,0.0
0,0,0,0.0
0,0,0,0.0
12541,-1986,31366,1.0
12443,-1609,31189,1.0
12436,-1246,31242,1.0
0,0,0,0.0
0,0,0,0.0
8532,-103,21571,0.0
8086,140,20487,0.0
7886,371,20022,0.0
7673,589,19521,0.0
7504,801,19128,0.0
7052,965,18015,0.0
7475,1248,19132,0.0
7488,1477,19201,0.0
7502,1708,19273,0.0
7535,1947,19397,0.0
7515,2173,19379,0.0
7524,2408,19440,0.0
7540,2648,19517,0.0
7528,2880,19522,0.0
7545,3124,19601,0.0
7554,3366,19660,0.0
7559,3610,19707,0.0
7569,3858,19767,0.0
7583,4110,19838,0.0
7617,4376,19960,0.0
16,9,44,0.0
9,6,27,0.0
16,12,46,0.0
15,10,41,0.0
20,15,54,0.0
13,11,37,0.0
15,12,41,0.0
27,24,76,0.0
24,22,68,0.0
27,25,75,0.0
24,23,65,0.0
35,34,93,0.0
35,36,96,0.0
36,38,98,0.0
29,33,80,0.0
31,35,85,0.0
37,44,101,0.0
36,44,99,0.0
35,44,97,0.0
34,44,94,0.0
38,51,105,0.0
35,49,98,0.0
40,58,111,0.0
40,59,113,0.0
37,56,104,0.0
38,59,105,0.0
39,63,110,0.0
39,63,107,0.0
41,68,111,0.0
37,65,103,0.0
39,69,109,0.0
40,72,110,0.0
35,65,98,0.0
35,68,100,0.0
35,69,98,0.0
34,69,96,0.0
36,74,101,0.0
34,73,97,0.0
34,75,98,0.0
36,79,101,0.0
33,75,94,0.0
36,83,101,0.0
34,82,96,0.0
35,85,99,0.0
35,89,101,0.0
35,89,99,0.0
35,92,100,0.0
37,96,103,0.0
37,101,105,0.0
36,101,103,0.0
38,109,107,0.0
38,112,109,0.0
38,111,106,0.0
38,114,107,0.0
38,117,107,0.0
40,126,113,0.0
40,129,114,0.0
60,-269,71,0.0
61,-268,74,0.0
62,-270,77,0.0
64,-270,80,0.0
65,-274,85,0.0
67,-278,89,0.0
65,-263,88,0.0
67,-267,92,0.0
67,-265,95,0.0
70,-270,99,0.0
70,-268,102,0.0
73,-273,107,0.0
72,-268,109,0.0
75,-273,114,0.0
75,-269,116,0.0
76,-269,120,0.0
77,-267,123,0.0
79,-266,126,0.0
79,-264,128,0.0
81,-268,133,0.0
78,-256,131,0.0
81,-259,136,0.0
81,-257,139,0.0
81,-252,140,0.0
85,-261,149,0.0
89,-269,157,0.0
95,-279,168,0.0
90,-265,163,0.0
90,-259,163,0.0
90,-255,165,0.0
88,-243,161,0.0
82,-225,153,0.0
79,-214,149,0.0
72,-192,136,0.0
67,-177,128,0.0
7642,-19532,14562,0.0
7618,-19165,14627,0.0
7603,-18824,14705,0.0
7588,-18491,14782,0.0
7569,-18152,14849,0.0
7552,-17820,14917,0.0
7541,-17512,14998,0.0
7526,-17192,15065,0.0
7509,-16875,15128,0.0
7497,-16572,15198,0.0
7474,-16249,15245,0.0
7465,-15960,15318,0.0
7467,-15698,15414,0.0
7417,-15327,15397,0.0
7434,-15101,15519,0.0
7425,-14825,15587,0.0
7413,-14545,15647,0.0
7568,-14590,16058,0.0
7782,-14738,16600,0.0
7824,-14552,16773,0.0
8041,-14686,17325,0.0
8264,-14819,17891,0.0
8469,-14907,18425,0.0
0,0,0,0.0
0,0,0,0.0
0,0,0,0.0
11962,-19499,26505,1.0
0,0,0,0.0
0,0,0,0.0
0,0,0,0.0
12167,-18288,27425,1.0
0,0,0,0.0
0,0,0,0.0
12170,-17155,27764,1.0
0,0,0,0.0
0,0,0,0.0
0,0,0,0.0
0,0,0,0.0
12246,-15388,28470,1.0
0,0,0,0.0
0,0,0,0.0
12593,-14685,29589,1.0
12655,-14378,29838,1.0
0,0,0,0.0
12741,-13716,30242,1.0
0,0,0,0.0
0,0,0,0.0
0,0,0,0.0
12736,-12201,30621,1.0
0,0,0,0.0
0,0,0,0.0
12383,-10770,30048,1.0
0,0,0,0.0
0,0,0,0.0
0,0,0,0.0
0,0,0,0.0
0,0,0,0.0
0,0,0,0.0
0,0,0,0.0
0,0,0,0.0
12836,-7787,31953,1.0
0,0,0,0.0
0,0,0,0.0
0,0,0,0.0
12993,-6364,32681,1.0
0,0,0,0.0
0,0,0,0.0
0,0,0,0.0
12706,-4732,32277,1.0
12535,-4300,31919,1.0
0,0,0,0.0
12440,-3532,31829,1.0
12383,-3150,31757,1.0
12311,-2766,31644,1.0
12273,-2392,31620,1.0
12213,-2017,31534,1.0
12157,-1644,31460,1.0
0,0,0,0.0
0,0,0,0.0
0,0,0,0.0
8272,-122,21595,0.0
7857,123,20554,0.0
7638,352,20023,0.0
7446,572,19560,0.0
7253,780,19093,0.0
6900,955,18201,0.0
7214,1222,19068,0.0
7257,1456,19219,0.0
7249,1682,19234,0.0
7257,1913,19294,0.0
7278,2149,19387,0.0
7268,2377,19398,0.0
7280,2614,19466,0.0
7293,2855,19537,0.0
7306,3097,19610,0.0
7305,3335,19641,0.0
7318,3580,19710,0.0
7317,3822,19744,0.0
7336,4076,19832,0.0
7343,4326,19885,0.0
7361,4586,19971,0.0
14,9,39,0.0
10,7,31,0.0
10,7,29,0.0
21,16,60,0.0
22,18,63,0.0
19,16,54,0.0
23,21,67,0.0
20,18,57,0.0
26,26,76,0.0
26,26,75,0.0
32,33,91,0.0
31,33,86,0.0
34,37,95,0.0
35,40,102,0.0
37,43,103,0.0
37,45,105,0.0
35,44,99,0.0
35,46,101,0.0
41,55,118,0.0
39,55,112,0.0
34,48,96,0.0
37,55,106,0.0
39,59,113,0.0
42,64,119,0.0
39,63,113,0.0
36,59,104,0.0
38,64,110,0.0
38,66,109,0.0
41,73,118,0.0
39,71,113,0.0
41,77,119,0.0
38,75,113,0.0
41,81,119,0.0
38,78,112,0.0
34,70,98,0.0
37,79,109,0.0
34,75,100,0.0
34,78,101,0.0
33,77,98,0.0
33,79,99,0.0
35,82,101,0.0
35,85,101,0.0
32,80,93,0.0
35,92,105,0.0
33,88,99,0.0
35,97,106,0.0
34,93,100,0.0
36,101,105,0.0
36,104,107,0.0
36,108,109,0.0
34,103,101,0.0
36,111,106,0.0
36,116,108,0.0
37,118,109,0.0
37,123,110,0.0
37,125,110,0.0
52,-278,76,0.0
51,-269,76,0.0
53,-278,82,0.0
54,-274,85,0.0
57,-286,91,0.0
58,-282,94,0.0
58,-282,97,0.0
59,-281,100,0.0
60,-281,104,0.0
60,-276,105,0.0
61,-274,108,0.0
64,-280,114,0.0
64,-275,115,0.0
66,-280,121,0.0
66,-274,122,0.0
68,-280,129,0.0
68,-277,130,0.0
68,-271,131,0.0
71,-277,138,0.0
71,-273,139,0.0
72,-270,142,0.0
68,-252,136,0.0
73,-269,149,0.0
74,-269,153,0.0
79,-283,164,0.0
80,-283,168,0.0
80,-274,168,0.0
77,-259,163,0.0
77,-255,165,0.0
74,-243,161,0.0
65,-208,141,0.0
65,-205,142,0.0
58,-182,129,0.0
59,-181,132,0.0
6551,-19588,14532,0.0
6546,-19256,14621,0.0
6531,-18901,14686,0.0
6525,-18575,14768,0.0
6515,-18242,14838,0.0
6505,-17916,14908,0.0
6497,-17599,14981,0.0
6490,-17290,15055,0.0
6480,-16978,15120,0.0
6476,-16684,15197,0.0
6470,-16388,15270,0.0
6454,-16070,15314,0.0
6459,-15810,15408,0.0
6436,-15481,15432,0.0
6433,-15211,15508,0.0
6426,-14928,15566,0.0
6420,-14654,15630,0.0
6511,-14600,15929,0.0
6621,-14583,16275,0.0
6759,-14618,16691,0.0
6903,-14659,17125,0.0
7080,-14762,17646,0.0
7269,-14873,18193,0.0
7450,-14960,18729,0.0
10488,-20663,26480,1.0
0,0,0,0.0
0,0,0,0.0
0,0,0,0.0
0,0,0,0.0
10824,-19318,27888,1.0
0,0,0,0.0
0,0,0,0.0
10967,-18383,28580,1.0
0,0,0,0.0
11051,-17738,29011,1.0
0,0,0,0.0
11119,-17063,29396,1.0
11121,-16679,29508,1.0
11081,-16233,29502,1.0
0,0,0,0.0
10923,-15248,29279,1.0
0,0,0,0.0
0,0,0,0.0
0,0,0,0.0
0,0,0,0.0
0,0,0,0.0
11392,-13577,31125,1.0
11382,-13182,31192,1.0
0,0,0,0.0
0,0,0,0.0
11210,-11858,30998,1.0
11141,-11414,30899,1.0
0,0,0,0.0
11071,-10607,30881,1.0
0,0,0,0.0
0,0,0,0.0
11387,-9779,32028,1.0
0,0,0,0.0
0,0,0,0.0
0,0,0,0.0
11433,-8310,32505,1.0
0,0,0,0.0
11433,-7557,32679,1.0
0,0,0,0.0
0,0,0,0.0
0,0,0,0.0
11441,-6052,33032,1.0
0,0,0,0.0
11377,-5266,33013,1.0
0,0,0,0.0
0,0,0,0.0
11168,-4057,32644,1.0
0,0,0,0.0
0,0,0,0.0
11138,-2930,32788,1.0
0,0,0,0.0
11194,-2192,33109,1.0
0,0,0,0.0
11300,-1450,33578,1.0
11318,-1068,33707,1.0
11255,-678,33597,1.0
7325,-191,21917,0.0
6951,57,20845,0.0
6668,285,20040,0.0
6624,512,19948,0.0
6355,712,19183,0.0
6320,929,19117,0.0
6297,1147,19091,0.0
6309,1372,19170,0.0
6323,1599,19255,0.0
6323,1825,19294,0.0
6331,2055,19363,0.0
6341,2287,19433,0.0
6334,2515,19452,0.0
6344,2751,19523,0.0
6344,2985,19563,0.0
6361,3229,19659,0.0
6359,3465,19692,0.0
6376,3714,19787,0.0
6363,3948,19788,0.0
6375,4198,19867,0.0
6386,4452,19944,0.0
14,11,47,0.0
16,12,52,0.0
14,11,45,0.0
21,19,70,0.0
21,19,70,0.0
20,19,66,0.0
20,20,65,0.0
27,27,87,0.0
25,27,83,0.0
27,30,89,0.0
32,36,103,0.0
30,36,101,0.0
28,35,91,0.0
28,36,93,0.0
29,39,97,0.0
29,40,97,0.0
33,46,108,0.0
36,52,117,0.0
33,50,110,0.0
33,53,112,0.0
35,57,116,0.0
40,66,131,0.0
36,62,121,0.0
36,64,120,0.0
35,63,116,0.0
36,68,123,0.0
34,65,112,0.0
39,78,131,0.0
33,67,111,0.0
34,70,114,0.0
35,75,119,0.0
33,74,114,0.0
34,77,116,0.0
34,79,116,0.0
33,77,111,0.0
33,81,113,0.0
32,79,108,0.0
30,79,105,0.0
29,79,103,0.0
28,78,99,0.0
29,84,104,0.0
30,87,106,0.0
29,86,103,0.0
30,91,106,0.0
28,88,100,0.0
28,88,98,0.0
27,89,96,0.0
29,96,103,0.0
28,96,100,0.0
30,104,106,0.0
30,109,110,0.0
30,111,109,0.0
29,109,105,0.0
29,113,106,0.0
29,114,105,0.0
31,125,113,0.0
40,-269,76,0.0
41,-269,79,0.0
43,-274,84,0.0
44,-274,87,0.0
45,-277,91,0.0
45,-272,93,0.0
47,-273,97,0.0
48,-278,103,0.0
49,-275,104,0.0
49,-275,107,0.0
50,-272,110,0.0
51,-270,113,0.0
52,-272,117,0.0
52,-269,119,0.0
54,-274,124,0.0
54,-268,126,0.0
56,-273,131,0.0
56,-270,134,0.0
56,-265,135,0.0
56,-261,136,0.0
56,-255,136,0.0
57,-254,140,0.0
61,-270,153,0.0
61,-266,154,0.0
64,-267,159,0.0
63,-263,160,0.0
62,-257,161,0.0
62,-249,159,0.0
59,-233,153,0.0
58,-227,152,0.0
56,-213,147,0.0
50,-191,134,0.0
49,-182,132,0.0
43,-161,118,0.0
46,-164,124,0.0
42,-149,115,0.0
5486,-18683,14748,0.0
5487,-18367,14832,0.0
5481,-18037,14898,0.0
5471,-17695,14948,0.0
5474,-17398,15032,0.0
5474,-17099,15109,0.0
5465,-16774,15156,0.0
5470,-16501,15246,0.0
5457,-16173,15280,0.0
5458,-15894,15355,0.0
5452,-15600,15411,0.0
5408,-15201,15355,0.0
5450,-15049,15545,0.0
5447,-14771,15602,0.0
5455,-14524,15690,0.0
5575,-14576,16103,0.0
5750,-14757,16674,0.0
5797,-14605,16879,0.0
5944,-14697,17376,0.0
6092,-14784,17881,0.0
6254,-14891,18427,0.0
0,0,0,0.0
9114,-20878,27056,1.0
0,0,0,0.0
0,0,0,0.0
9331,-20138,28001,1.0
0,0,0,0.0
0,0,0,0.0
9625,-19529,29185,1.0
9706,-19284,29533,1.0
0,0,0,0.0
9787,-18623,29977,1.0
0,0,0,0.0
9886,-17994,30477,1.0
9959,-17718,30800,1.0
0,0,0,0.0
0,0,0,0.0
0,0,0,0.0
9898,-16008,30989,1.0
9794,-15450,30757,1.0
0,0,0,0.0
0,0,0,0.0
0,0,0,0.0
0,0,0,0.0
9884,-13648,31498,1.0
0,0,0,0.0
9965,-12984,31934,1.0
9950,-12581,31976,1.0
9953,-12202,32078,1.0
9973,-11843,32230,1.0
0,0,0,0.0
0,0,0,0.0
10035,-10765,32695,1.0
10071,-10419,32899,1.0
10140,-10104,33213,1.0
0,0,0,0.0
0,0,0,0.0
10249,-9045,33833,1.0
0,0,0,0.0
0,0,0,0.0
10317,-7934,34323,1.0
10298,-7529,34345,1.0
10256,-7110,34293,1.0
0,0,0,0.0
10227,-6314,34368,1.0
10156,-5886,34217,1.0
10129,-5485,34210,1.0
0,0,0,0.0
10090,-4695,34249,1.0
0,0,0,0.0
10127,-3939,34544,1.0
0,0,0,0.0
0,0,0,0.0
0,0,0,0.0
10168,-2390,35025,1.0
0,0,0,0.0
10061,-1584,34826,1.0
0,0,0,0.0
0,0,0,0.0
6342,-253,22116,0.0
6044,-2,21125,0.0
5731,224,20080,0.0
5720,452,20092,0.0
5517,657,19421,0.0
5408,861,19087,0.0
5134,1026,18163,0.0
5413,1303,19195,0.0
5402,1521,19203,0.0
5412,1747,19285,0.0
5409,1970,19322,0.0
5429,2204,19439,0.0
5423,2430,19466,0.0
5415,2656,19485,0.0
5422,2891,19558,0.0
5431,3129,19639,0.0
5426,3360,19666,0.0
5431,3601,19735,0.0
5425,3836,19764,0.0
10,8,42,0.0
5429,4323,19873,0.0
10,9,41,0.0
10,10,42,0.0
13,12,49,0.0
12,12,45,0.0
16,16,60,0.0
15,16,56,0.0
18,20,69,0.0
15,17,58,0.0
19,24,76,0.0
20,27,80,0.0
22,30,88,0.0
22,31,86,0.0
20,29,79,0.0
25,37,96,0.0
26,40,102,0.0
27,43,107,0.0
29,50,116,0.0
26,45,103,0.0
27,49,109,0.0
27,49,107,0.0
29,54,114,0.0
30,60,122,0.0
28,57,113,0.0
28,58,113,0.0
29,64,119,0.0
31,68,125,0.0
29,67,119,0.0
27,63,110,0.0
27,66,111,0.0
26,65,106,0.0
26,67,108,0.0
26,69,108,0.0
25,69,105,0.0
26,73,109,0.0
26,75,109,0.0
25,73,104,0.0
25,76,106,0.0
25,78,105,0.0
25,79,104,0.0
22,74,95,0.0
24,80,102,0.0
22,76,95,0.0
23,83,100,0.0
22,81,95,0.0
23,85,99,0.0
22,85,97,0.0
21,83,92,0.0
22,89,98,0.0
22,90,96,0.0
22,94,98,0.0
22,97,99,0.0
22,100,100,0.0
22,104,101,0.0
23,112,107,0.0
22,110,103,0.0
23,118,108,0.0
24,-267,79,0.0
24,-262,81,0.0
25,-269,87,0.0
26,-264,88,0.0
26,-263,91,0.0
27,-266,95,0.0
27,-263,97,0.0
30,-274,104,0.0
30,-268,106,0.0
31,-271,110,0.0
31,-267,112,0.0
32,-263,114,0.0
32,-266,118,0.0
33,-264,121,0.0
33,-260,123,0.0
34,-262,127,0.0
35,-261,129,0.0
35,-258,132,0.0
36,-258,135,0.0
35,-242,130,0.0
37,-253,139,0.0
39,-263,149,0.0
42,-272,158,0.0
40,-254,151,0.0
40,-255,156,0.0
41,-250,156,0.0
38,-233,149,0.0
39,-233,153,0.0
36,-205,138,0.0
37,-207,143,0.0
35,-195,137,0.0
32,-175,126,0.0
32,-167,123,0.0
31,-162,122,0.0
29,-148,114,0.0
26,-131,103,0.0
24,-115,92,0.0
3723,-17995,14865,0.0
3733,-17701,14952,0.0
3742,-17397,15024,0.0
3745,-17079,15080,0.0
3753,-16786,15152,0.0
3759,-16492,15217,0.0
3770,-16221,15302,0.0
3774,-15924,15356,0.0
3777,-15630,15407,0.0
3722,-15107,15222,0.0
3786,-15071,15524,0.0
3794,-14809,15594,0.0
3800,-14543,15656,0.0
3896,-14623,16094,0.0
3969,-14606,16436,0.0
4033,-14550,16740,0.0
4141,-14645,17229,0.0
4255,-14752,17750,0.0
4370,-14847,18269,0.0
4491,-14954,18823,0.0
0,0,0,0.0
0,0,0,0.0
0,0,0,0.0
6758,-20722,28591,1.0
0,0,0,0.0
6906,-20297,29350,1.0
0,0,0,0.0
6996,-19693,29872,1.0
0,0,0,0.0
7115,-19165,30519,1.0
0,0,0,0.0
0,0,0,0.0
7306,-18383,31559,1.0
0,0,0,0.0
7409,-17783,32150,1.0
0,0,0,0.0
0,0,0,0.0
0,0,0,0.0
0,0,0,0.0
0,0,0,0.0
0,0,0,0.0
0,0,0,0.0
0,0,0,0.0
0,0,0,0.0
7716,-14251,34267,1.0
7795,-13979,34699,1.0
7837,-13637,34967,1.0
0,0,0,0.0
0,0,0,0.0
0,0,0,0.0
0,0,0,0.0
7820,-11551,35306,1.0
0,0,0,0.0
7919,-10873,35924,1.0
0,0,0,0.0
7962,-10109,36298,1.0
0,0,0,0.0
0,0,0,0.0
0,0,0,0.0
0,0,0,0.0
0,0,0,0.0
0,0,0,0.0
0,0,0,0.0
0,0,0,0.0
7943,-6408,37034,1.0
7932,-5990,37080,1.0
0,0,0,0.0
7933,-5173,37279,1.0
7832,-4702,36901,1.0
0,0,0,0.0
0,0,0,0.0
0,0,0,0.0
7698,-3021,36664,1.0
7652,-2601,36541,1.0
0,0,0,0.0
0,0,0,0.0
0,0,0,0.0
0,0,0,0.0
0,0,0,0.0
4437,-93,21558,0.0
4224,139,20581,0.0
4101,358,20042,0.0
3997,568,19594,0.0
3888,766,19114,0.0
3881,980,19141,0.0
3873,1195,19162,0.0
3870,1412,19208,0.0
3875,1633,19296,0.0
3875,1855,19352,0.0
3868,2075,19383,0.0
3866,2299,19439,0.0
3868,2528,19513,0.0
3859,2750,19533,0.0
3857,2979,19587,0.0
3846,3205,19605,0.0
3847,3441,19676,0.0
3839,3670,19704,0.0
3841,3913,19788,0.0
5,4,24,0.0
3,2,14,0.0
5,5,25,0.0
4,5,23,0.0
10,13,53,0.0
11,15,58,0.0
12,17,61,0.0
12,18,62,0.0
13,20,66,0.0
14,23,74,0.0
15,26,80,0.0
13,24,71,0.0
14,27,76,0.0
14,27,77,0.0
17,33,91,0.0
15,31,82,0.0
16,34,84,0.0
17,40,96,0.0
16,38,89,0.0
17,41,94,0.0
19,49,109,0.0
18,45,98,0.0
17,45,94,0.0
18,52,106,0.0
18,54,106,0.0
19,57,110,0.0
17,51,95,0.0
19,61,112,0.0
18,59,105,0.0
19,65,111,0.0
18,64,107,0.0
18,67,110,0.0
17,61,97,0.0
19,71,112,0.0
19,75,114,0.0
16,65,97,0.0
16,69,102,0.0
17,75,108,0.0
16,74,103,0.0
15,73,99,0.0
14,69,91,0.0
14,70,90,0.0
15,74,94,0.0
14,75,93,0.0
14,75,92,0.0
14,78,93,0.0
14,79,93,0.0
14,80,91,0.0
13,80,89,0.0
13,85,92,0.0
13,88,94,0.0
13,92,96,0.0
13,95,96,0.0
13,94,94,0.0
13,100,99,0.0
12,98,93,0.0
13,105,98,0.0
11,-275,85,0.0
12,-268,85,0.0
13,-269,89,0.0
13,-270,92,0.0
14,-273,96,0.0
14,-266,98,0.0
15,-273,103,0.0
16,-274,107,0.0
16,-271,109,0.0
16,-266,110,0.0
18,-273,116,0.0
19,-273,120,0.0
19,-268,122,0.0
20,-276,128,0.0
20,-267,128,0.0
21,-273,135,0.0
22,-269,136,0.0
22,-265,137,0.0
21,-254,136,0.0
23,-263,144,0.0
25,-277,156,0.0
25,-270,155,0.0
27,-282,167,0.0
28,-276,167,0.0
27,-263,163,0.0
27,-259,165,0.0
27,-255,165,0.0
27,-245,163,0.0
26,-231,158,0.0
25,-216,150,0.0
24,-198,141,0.0
24,-190,138,0.0
21,-169,127,0.0
22,-171,130,0.0
19,-148,116,0.0
20,-143,114,0.0
18,-135,111,0.0
16,-119,99,0.0
2529,-17523,14991,0.0
2542,-17221,15060,0.0
2560,-16950,15153,0.0
2572,-16647,15210,0.0
2582,-16341,15261,0.0
2595,-16060,15330,0.0
2605,-15772,15387,0.0
2616,-15497,15452,0.0
2627,-15216,15507,0.0
2638,-14948,15571,0.0
2650,-14689,15639,0.0
2689,-14585,15872,0.0
2743,-14558,16195,0.0
2827,-14677,16689,0.0
2871,-14584,16954,0.0
2956,-14686,17456,0.0
3045,-14803,17991,0.0
3138,-14925,18549,0.0
4556,-21199,26944,1.0
0,0,0,0.0
0,0,0,0.0
4751,-20679,28140,1.0
0,0,0,0.0
0,0,0,0.0
4957,-20168,29425,1.0
5022,-19974,29836,1.0
0,0,0,0.0
0,0,0,0.0
5155,-19127,30711,1.0
5214,-18897,31098,1.0
5239,-18541,31280,1.0
0,0,0,0.0
0,0,0,0.0
0,0,0,0.0
5409,-17359,32456,1.0
0,0,0,0.0
5499,-16773,33089,1.0
5522,-16407,33270,1.0
0,0,0,0.0
5494,-15476,33204,1.0
0,0,0,0.0
5425,-14458,32889,1.0
0,0,0,0.0
0,0,0,0.0
0,0,0,0.0
0,0,0,0.0
0,0,0,0.0
0,0,0,0.0
5640,-12136,34627,1.0
0,0,0,0.0
0,0,0,0.0
5745,-11137,35488,1.0
0,0,0,0.0
0,0,0,0.0
0,0,0,0.0
5881,-9751,36653,1.0
0,0,0,0.0
0,0,0,0.0
0,0,0,0.0
0,0,0,0.0
0,0,0,0.0
0,0,0,0.0
5711,-6699,36214,1.0
0,0,0,0.0
0,0,0,0.0
0,0,0,0.0
5757,-5159,36909,1.0
0,0,0,0.0
0,0,0,0.0
0,0,0,0.0
0,0,0,0.0
0,0,0,0.0
0,0,0,0.0
5565,-2255,36461,1.0
0,0,0,0.0
0,0,0,0.0
0,0,0,0.0
0,0,0,0.0
3266,-147,21770,0.0
3105,87,20768,0.0
2986,304,20051,0.0
2958,522,19941,0.0
2828,712,19135,0.0
2810,920,19092,0.0
2803,1133,19125,0.0
2802,1348,19197,0.0
2801,1567,19270,0.0
2800,1787,19345,0.0
2794,2006,19392,0.0
2791,2228,19459,0.0
2785,2451,19505,0.0
2780,2677,19565,0.0
2773,2901,19603,0.0
2762,3124,19623,0.0
2755,3354,19672,0.0
2746,3582,19708,0.0
3,3,21,0.0
6,8,41,0.0
5,8,39,0.0
4,8,36,0.0
6,9,43,0.0
6,11,45,0.0
8,15,59,0.0
9,18,69,0.0
8,17,60,0.0
10,24,80,0.0
12,26,87,0.0
13,31,97,0.0
11,28,84,0.0
11,30,91,0.0
13,34,97,0.0
12,34,94,0.0
16,46,122,0.0
13,42,108,0.0
13,43,106,0.0
14,49,116,0.0
14,48,111,0.0
14,50,113,0.0
14,53,117,0.0
15,60,127,0.0
13,57,116,0.0
14,62,124,0.0
14,60,118,0.0
13,62,117,0.0
14,66,123,0.0
13,67,121,0.0
14,73,130,0.0
14,74,126,0.0
14,75,125,0.0
11,67,110,0.0
12,75,120,0.0
12,77,120,0.0
13,80,122,0.0
11,80,118,0.0
11,81,117,0.0
11,80,113,0.0
12,86,120,0.0
10,79,108,0.0
10,87,115,0.0
10,82,105,0.0
10,89,112,0.0
10,87,108,0.0
9,88,106,0.0
9,89,105,0.0
9,93,108,0.0
8,90,102,0.0
8,95,105,0.0
8,102,111,0.0
8,99,105,0.0
8,105,109,0.0
7,102,104,0.0
7,109,108,0.0
6,108,105,0.0
6,111,106,0.0
0,-277,87,0.0
0,-270,87,0.0
0,-271,91,0.0
0,-264,93,0.0
0,-267,96,0.0
1,-265,98,0.0
1,-263,101,0.0
3,-267,106,0.0
3,-268,110,0.0
4,-267,113,0.0
4,-258,112,0.0
5,-255,114,0.0
5,-266,122,0.0
5,-263,124,0.0
6,-254,124,0.0
7,-269,135,0.0
7,-257,132,0.0
8,-266,140,0.0
9,-254,138,0.0
8,-259,143,0.0
10,-278,159,0.0
10,-283,166,0.0
12,-283,170,0.0
12,-270,166,0.0
11,-254,160,0.0
13,-260,167,0.0
12,-243,160,0.0
13,-243,164,0.0
12,-222,153,0.0
12,-212,150,0.0
12,-203,146,0.0
12,-190,141,0.0
11,-177,133,0.0
10,-163,126,0.0
10,-160,127,0.0
10,-138,112,0.0
10,-137,114,0.0
9,-121,103,0.0
9,-115,100,0.0
1368,-17094,15101,0.0
1387,-16806,15173,0.0
1405,-16505,15229,0.0
1418,-16148,15227,0.0
1441,-15936,15357,0.0
1459,-15656,15418,0.0
1474,-15372,15470,0.0
1491,-15109,15539,0.0
1503,-14807,15563,0.0
1522,-14589,15671,0.0
1570,-14631,16062,0.0
1613,-14619,16404,0.0
1651,-14569,16710,0.0
1701,-14615,17133,0.0
1762,-14733,17656,0.0
1821,-14832,18173,0.0
1887,-14965,18749,0.0
0,0,0,0.0
0,0,0,0.0
2795,-20497,27471,1.0
0,0,0,0.0
2901,-20193,28328,1.0
2935,-19910,28584,1.0
3006,-19871,29201,1.0
0,0,0,0.0
3112,-19530,30085,1.0
0,0,0,0.0
0,0,0,0.0
3217,-18678,30940,1.0
0,0,0,0.0
0,0,0,0.0
0,0,0,0.0
0,0,0,0.0
0,0,0,0.0
3399,-16820,32484,1.0
0,0,0,0.0
0,0,0,0.0
0,0,0,0.0
3411,-15091,32545,1.0
0,0,0,0.0
0,0,0,0.0
0,0,0,0.0
0,0,0,0.0
0,0,0,0.0
3538,-13078,33842,1.0
3549,-12703,33970,1.0
3547,-12289,33988,1.0
0,0,0,0.0
0,0,0,0.0
3608,-11274,34691,1.0
3615,-10897,34820,1.0
0,0,0,0.0
3664,-10238,35405,1.0
0,0,0,0.0
3677,-9475,35667,1.0
3704,-9143,35996,1.0
3699,-8736,36035,1.0
0,0,0,0.0
0,0,0,0.0
0,0,0,0.0
3615,-6996,35568,1.0
0,0,0,0.0
0,0,0,0.0
0,0,0,0.0
0,0,0,0.0
0,0,0,0.0
0,0,0,0.0
0,0,0,0.0
0,0,0,0.0
3551,-3467,36010,1.0
0,0,0,0.0
0,0,0,0.0
0,0,0,0.0
3492,-1888,36020,1.0
0,0,0,0.0
0,0,0,0.0
0,0,0,0.0
2087,-192,21949,0.0
1986,44,21003,0.0
1889,261,20078,0.0
1885,482,20147,0.0
1816,679,19524,0.0
1768,874,19128,0.0
1763,1087,19198,0.0
1757,1300,19241,0.0
1751,1515,19296,0.0
1742,1730,19341,0.0
1737,1950,19416,0.0
1728,2168,19447,0.0
1716,2384,19457,0.0
1710,2610,19541,0.0
1702,2833,19591,0.0
1693,3062,19658,0.0
1685,3293,19727,0.0
1676,3524,19781,0.0
1664,3754,19824,0.0
2,6,31,0.0
4,10,50,0.0
3,8,37,0.0
4,13,56,0.0
3,10,43,0.0
6,17,70,0.0
5,16,62,0.0
6,21,78,0.0
6,20,71,0.0
6,24,80,0.0
6,23,76,0.0
6,28,86,0.0
7,30,89,0.0
7,35,100,0.0
7,36,100,0.0
7,39,105,0.0
7,39,100,0.0
7,42,107,0.0
7,43,104,0.0
8,51,120,0.0
8,49,112,0.0
7,52,115,0.0
8,57,122,0.0
7,59,124,0.0
7,60,121,0.0
7,62,121,0.0
7,65,125,0.0
7,74,140,0.0
6,62,112,0.0
7,74,132,0.0
7,73,126,0.0
6,75,127,0.0
6,75,123,0.0
6,83,135,0.0
5,78,122,0.0
5,85,131,0.0
5,82,125,0.0
5,85,125,0.0
5,87,125,0.0
4,85,119,0.0
4,89,122,0.0
5,94,126,0.0
3,84,110,0.0
3,88,112,0.0
3,91,113,0.0
3,92,112,0.0
3,93,111,0.0
2,87,102,0.0
1,89,101,0.0
1,91,101,0.0
2,100,110,0.0
1,94,101,0.0
1,104,109,0.0
1,100,102,0.0
1,111,112,0.0
0,115,113,0.0
0,110,105,0.0
-14,-293,94,0.0
-13,-277,91,0.0
-14,-287,98,0.0
-12,-272,96,0.0
-12,-281,103,0.0
-10,-270,102,0.0
-10,-262,102,0.0
-9,-260,105,0.0
-9,-262,108,0.0
-8,-256,110,0.0
-8,-263,116,0.0
-8,-266,120,0.0
-8,-256,119,0.0
-7,-245,117,0.0
-7,-256,126,0.0
-6,-254,129,0.0
-5,-249,129,0.0
-5,-248,132,0.0
-5,-264,145,0.0
-5,-269,151,0.0
-5,-279,160,0.0
-4,-283,167,0.0
-4,-283,171,0.0
-3,-276,171,0.0
-3,-255,161,0.0
-2,-251,163,0.0
-2,-232,154,0.0
-1,-238,163,0.0
-1,-211,147,0.0
0,-205,146,0.0
0,-207,151,0.0
0,-184,137,0.0
0,-181,138,0.0
0,-174,137,0.0
0,-144,115,0.0
1,-137,111,0.0
1,-124,103,0.0
174,-20272,17277,0.0
205,-19916,17348,0.0
234,-19540,17394,0.0
264,-19217,17482,0.0
292,-18867,17540,0.0
319,-18549,17622,0.0
345,-18202,17669,0.0
372,-17889,17745,0.0
397,-17546,17783,0.0
420,-17227,17842,0.0
436,-16630,17599,0.0
434,-15455,16714,0.0
487,-16277,17990,0.0
510,-15999,18071,0.0
531,-15728,18156,0.0
549,-15409,18181,0.0
549,-14585,17590,0.0
553,-13959,17211,0.0
584,-14025,17678,0.0
591,-13542,17455,0.0
616,-13484,17774,0.0
656,-13704,18475,0.0
671,-13440,18534,0.0
639,-12256,17292,0.0
652,-12003,17330,0.0
