//X,Y,Z,Classification
-2830,-474,14993,0.0
-2834,-640,14982,0.0
-2838,-806,14960,0.0
-2834,-969,14905,0.0
-2834,-1132,14867,0.0
-2838,-1297,14849,0.0
-2836,-1458,14802,0.0
-2842,-1624,14797,0.0
-2845,-1788,14781,0.0
-2840,-1947,14718,0.0
-2848,-2113,14721,0.0
-2849,-2277,14697,0.0
-2850,-2439,14668,0.0
-2850,-2601,14634,0.0
-2852,-2765,14610,0.0
-2856,-2930,14598,0.0
-2859,-3095,14577,0.0
-2862,-3260,14558,0.0
-2858,-3419,14509,0.0
-2862,-3586,14497,0.0
-2861,-3748,14465,0.0
-2867,-3919,14461,0.0
-2864,-4080,14418,0.0
-2868,-4250,14405,0.0
-2864,-4408,14352,0.0
-2857,-4562,14289,0.0
-2867,-4744,14307,0.0
-2862,-4900,14249,0.0
-2866,-5077,14244,0.0
-2867,-5245,14216,0.0
-2869,-5420,14204,0.0
-2865,-5582,14154,0.0
-2865,-5753,14128,0.0
-2871,-5933,14121,0.0
-2872,-6112,14104,0.0
-2865,-6270,14041,0.0
-2876,-6467,14063,0.0
-2863,-6613,13969,0.0
-2855,-6770,13903,0.0
-2852,-6943,13865,0.0
-2851,-7120,13833,0.0
-2847,-7291,13788,0.0
-2850,-7479,13774,0.0
-2878,-7741,13887,0.0
-2874,-7915,13839,0.0
-2872,-8097,13801,0.0
-2873,-8289,13775,0.0
-2883,-8511,13797,0.0
-2884,-8712,13779,0.0
-2891,-8930,13785,0.0
-2887,-9117,13740,0.0
-2891,-9330,13731,0.0
-2888,-9530,13695,0.0
-2888,-9737,13669,0.0
-2890,-9950,13647,0.0
-2888,-10155,13612,0.0
-2888,-10368,13582,0.0
-2885,-10579,13547,0.0
-2883,-10797,13515,0.0
-2882,-11011,13477,0.0
-2882,-11240,13452,0.0
-2874,-11439,13389,0.0
-2882,-11707,13401,0.0
-2876,-11920,13346,0.0
-2874,-12155,13310,0.0
-2875,-12409,13293,0.0
-9,-37,39,0.0
-9,-40,41,0.0
-15,-67,68,0.0
-12,-57,56,0.0
-14,-65,62,0.0
-12,-58,54,0.0
-13,-64,59,0.0
-16,-79,71,0.0
-14,-70,62,0.0
-17,-91,78,0.0
-17,-89,75,0.0
-20,-111,91,0.0
-19,-102,82,0.0
-18,-100,79,0.0
-19,-108,83,0.0
-18,-105,79,0.0
-21,-125,92,0.0
-3092,-19165,13763,0.0
-3063,-19382,13602,0.0
-18,-118,81,0.0
-18,-120,80,0.0
-20,-135,89,0.0
-18,-126,81,0.0
-21,-145,90,0.0
-20,-146,88,0.0
-19,-142,84,0.0
-20,-149,86,0.0
-21,-161,90,0.0
-21,-166,91,0.0
-20,-157,84,0.0
-22,-178,92,0.0
-22,-189,96,0.0
-22,-189,94,0.0
-22,-194,93,0.0
-22,-199,93,0.0
-23,-208,94,0.0
-22,-215,95,0.0
-23,-226,97,0.0
-22,-224,93,0.0
-22,-220,88,0.0
-22,-235,91,0.0
-25,-271,102,0.0
-28,-305,112,0.0
-27,-312,111,0.0
-26,-314,108,0.0
-26,-312,103,0.0
-25,-313,100,0.0
-25,-318,97,0.0
-23,-322,95,0.0
0,0,0,0.0
-1451,14914,14578,0.0
-1492,14766,14744,0.0
-1529,14579,14871,0.0
-1871,17199,17922,0.0
-1878,16643,17718,0.0
-1895,16204,17625,0.0
-1910,15761,17518,0.0
-1927,15364,17449,0.0
-1923,14811,17190,0.0
-1950,14513,17215,0.0
-2127,15309,18560,0.0
-2144,14924,18494,0.0
-2161,14554,18439,0.0
-2179,14189,18380,0.0
-3706,23362,30949,0.0
-3741,22824,30923,0.0
-2455,14496,20091,0.0
-2611,14931,21172,0.0
-2646,14645,21251,0.0
-2659,14256,21172,0.0
-2669,13852,21061,0.0
-2695,13543,21086,0.0
-3873,18844,30050,0.0
-3990,18797,30713,0.0
-4041,18431,30860,0.0
-4108,18139,31136,0.0
-4192,17919,31541,0.0
-3606,14916,26934,0.0
-3671,14692,27224,0.0
-3783,14652,27871,0.0
-3780,14157,27658,0.0
-3756,13602,27303,0.0
-3778,13228,27294,0.0
-2457,8311,17636,0.0
-2468,8064,17610,0.0
-2514,7930,17829,0.0
-2590,7881,18255,0.0
-3849,11301,26980,0.0
-2741,7758,19108,0.0
-2789,7607,19338,0.0
-2814,7390,19410,0.0
-2809,7095,19267,0.0
-2809,6824,19176,0.0
-2796,6526,18994,0.0
-2818,6311,19048,0.0
-2829,6076,19032,0.0
-2817,5792,18858,0.0
-2838,5581,18906,0.0
-2831,5320,18778,0.0
-2846,5102,18795,0.0
-2854,4874,18768,0.0
-2871,4662,18799,0.0
-2892,4455,18848,0.0
-2950,4305,19153,0.0
-2874,3963,18579,0.0
-2871,3731,18492,0.0
-2869,3504,18407,0.0
-2871,3284,18347,0.0
-2761,2948,17586,0.0
-2766,2743,17545,0.0
-2775,2543,17535,0.0
-2788,2351,17565,0.0
-2782,2142,17460,0.0
-2777,1937,17369,0.0
-2786,1742,17366,0.0
-2785,1544,17303,0.0
-2771,1340,17156,0.0
-2771,1147,17107,0.0
-2795,962,17200,0.0
-2797,770,17160,0.0
-2791,578,17069,0.0
-2794,388,17035,0.0
-2796,200,16996,0.0
-2804,12,16993,0.0
-2790,-173,16865,0.0
-2786,-358,16789,0.0
-2799,-544,16825,0.0
-2805,-730,16817,0.0
-2812,-916,16807,0.0
-2812,-1099,16766,0.0
-2813,-1282,16727,0.0
-2820,-1468,16727,0.0
-2818,-1649,16671,0.0
-2823,-1835,16659,0.0
-2824,-2017,16627,0.0
-2825,-2198,16586,0.0
-2819,-2375,16514,0.0
-2817,-2554,16463,0.0
-2820,-2737,16441,0.0
-2823,-2920,16420,0.0
-2821,-3098,16371,0.0
-2822,-3281,16345,0.0
-2826,-3465,16324,0.0
-2827,-3649,16302,0.0
-2830,-3834,16282,0.0
-2836,-4025,16283,0.0
-2841,-4213,16275,0.0
-2873,-4447,16429,0.0
-2879,-4642,16427,0.0
-2844,-4770,16194,0.0
-2835,-4939,16109,0.0
-2868,-5185,16267,0.0
-2881,-5397,16307,0.0
-2855,-5538,16133,0.0
-2838,-5692,16004,0.0
-2846,-5899,16022,0.0
-2842,-6081,15973,0.0
-2845,-6279,15961,0.0
-2844,-6469,15925,0.0
-2850,-6677,15929,0.0
-2844,-6858,15869,0.0
-2849,-7069,15873,0.0
-2843,-7251,15811,0.0
-2847,-7463,15811,0.0
-2851,-7675,15805,0.0
-2852,-7880,15783,0.0
-2850,-8080,15746,0.0
-2847,-8281,15710,0.0
-2852,-8506,15712,0.0
-2850,-8709,15674,0.0
-2850,-8923,15651,0.0
-2861,-9175,15689,0.0
-2856,-9381,15642,0.0
-2857,-9607,15627,0.0
-2864,-9855,15642,0.0
-2864,-10082,15620,0.0
-2850,-10263,15521,0.0
-2852,-10506,15515,0.0
-2864,-10787,15559,0.0
-2863,-11027,15538,0.0
-2861,-11259,15501,0.0
-2863,-11516,15496,0.0
-2862,-11762,15469,0.0
-2856,-11996,15421,0.0
-2854,-12247,15392,0.0
-2858,-12530,15398,0.0
-2859,-12802,15385,0.0
-2865,-13102,15399,0.0
-2862,-13368,15367,0.0
-2863,-13659,15358,0.0
-2865,-13957,15352,0.0
-2873,-14289,15374,0.0
-14,-71,75,0.0
-9,-48,50,0.0
-9,-45,46,0.0
-12,-63,62,0.0
-10,-55,54,0.0
-12,-66,62,0.0
-13,-74,69,0.0
-9,-55,50,0.0
-13,-78,69,0.0
-14,-82,71,0.0
-15,-93,78,0.0
-14,-89,74,0.0
-17,-108,87,0.0
-14,-93,73,0.0
-18,-122,94,0.0
-17,-119,90,0.0
-16,-111,82,0.0
-3104,-22710,16402,0.0
-3064,-22931,16186,0.0
-16,-123,84,0.0
-16,-124,83,0.0
-14,-114,75,0.0
-25,-207,133,0.0
-19,-164,103,0.0
-20,-169,103,0.0
-18,-160,95,0.0
-18,-160,92,0.0
-18,-168,96,0.0
-18,-174,96,0.0
-18,-176,95,0.0
-17,-175,92,0.0
-16,-172,89,0.0
-18,-193,96,0.0
-19,-202,98,0.0
-17,-196,92,0.0
-19,-219,100,0.0
-18,-212,94,0.0
-17,-209,90,0.0
-18,-220,92,0.0
-17,-228,92,0.0
-16,-214,85,0.0
-18,-243,93,0.0
-20,-294,109,0.0
-21,-314,112,0.0
-20,-313,109,0.0
-19,-314,105,0.0
-19,-319,103,0.0
-19,-325,100,0.0
-17,-321,96,0.0
-2375,34420,33110,0.0
-1070,14782,14526,0.0
-1102,14546,14601,0.0
-1134,14322,14686,0.0
0,0,0,0.0
-2614,30270,32397,0.0
0,0,0,0.0
-2683,28597,31952,0.0
-2748,28131,32116,0.0
-2766,27210,31746,0.0
-2830,26779,31930,0.0
-1698,15457,18837,0.0
-1738,15237,18982,0.0
-1747,14756,18793,0.0
-2893,23536,30650,0.0
-1929,15141,20164,0.0
-2993,22648,30847,0.0
-1972,14397,20059,0.0
-2110,14858,21180,0.0
-2140,14545,21218,0.0
-2168,14229,21244,0.0
0,0,0,0.0
-3178,19444,30434,0.0
-3195,18879,30268,0.0
-3269,18659,30650,0.0
-3324,18327,30851,0.0
-3417,18196,31402,0.0
-3475,17868,31622,0.0
-2943,14614,26532,0.0
-3103,14881,27725,0.0
-3150,14584,27895,0.0
-3148,14071,27642,0.0
-3158,13626,27504,0.0
-3177,13227,27446,0.0
-3224,12944,27621,0.0
-3231,12507,27466,0.0
-3225,12038,27218,0.0
-3242,11661,27164,0.0
-3208,11111,26681,0.0
-2340,7802,19328,0.0
-2358,7562,19339,0.0
-2370,7309,19312,0.0
-2396,7102,19401,0.0
-3979,11324,32013,0.0
0,0,0,0.0
-4006,10486,31843,0.0
-4016,10069,31739,0.0
-2889,6931,22707,0.0
-2902,6650,22675,0.0
-2930,6408,22768,0.0
-2992,6236,23127,0.0
-3039,6026,23361,0.0
-3075,5793,23522,0.0
-3087,5514,23493,0.0
-15,24,111,0.0
-2606,4160,19650,0.0
-2620,3936,19657,0.0
-3113,4391,23247,0.0
-3125,4125,23237,0.0
-2719,3346,20126,0.0
-2745,3136,20236,0.0
-2705,2853,19850,0.0
-2709,2626,19804,0.0
-2737,2420,19926,0.0
-2737,2189,19846,0.0
-2751,1971,19866,0.0
-2752,1744,19797,0.0
-2745,1517,19674,0.0
-2749,1296,19637,0.0
-2753,1077,19600,0.0
-2754,859,19536,0.0
-2752,642,19451,0.0
-2753,426,19396,0.0
-2760,212,19374,0.0
-2792,0,19540,0.0
-2787,-213,19440,0.0
-2765,-423,19238,0.0
-2759,-631,19134,0.0
-2768,-842,19136,0.0
-2762,-1048,19045,0.0
-2772,-1259,19052,0.0
-2768,-1463,18974,0.0
-2775,-1673,18968,0.0
-2770,-1875,18888,0.0
-2777,-2085,18885,0.0
-2776,-2290,18834,0.0
-2777,-2495,18791,0.0
-2784,-2706,18793,0.0
-2785,-2912,18756,0.0
-2779,-3109,18673,0.0
-2787,-3323,18676,0.0
-2789,-3528,18646,0.0
-2787,-3732,18599,0.0
-2793,-3944,18590,0.0
-2792,-4148,18545,0.0
-2788,-4348,18482,0.0
-2793,-4564,18482,0.0
-2793,-4770,18444,0.0
-2794,-4978,18410,0.0
-2787,-5174,18334,0.0
-2796,-5400,18358,0.0
-2793,-5605,18309,0.0
-2804,-5838,18349,0.0
-2803,-6049,18308,0.0
-2801,-6259,18267,0.0
-2803,-6478,18250,0.0
-2803,-6693,18217,0.0
-2801,-6909,18184,0.0
-2802,-7130,18161,0.0
-2804,-7355,18146,0.0
-2800,-7569,18100,0.0
-2801,-7796,18081,0.0
-2798,-8012,18035,0.0
-2802,-8252,18038,0.0
-2802,-8479,18011,0.0
-2803,-8718,18002,0.0
-2808,-8972,18016,0.0
-2815,-9231,18037,0.0
-2809,-9455,17986,0.0
-2821,-9736,18038,0.0
-2841,-10058,18154,0.0
-2822,-10239,18013,0.0
-2802,-10419,17870,0.0
-2813,-10719,17929,0.0
-2719,-10614,17321,0.0
-2709,-10826,17238,0.0
-2754,-11268,17514,0.0
-2804,-11745,17823,0.0
-2806,-12035,17833,0.0
-2799,-12280,17774,0.0
-2732,-12264,17341,0.0
-2694,-12373,17096,0.0
-2750,-12918,17443,0.0
-2803,-13466,17773,0.0
-2800,-13762,17757,0.0
-2803,-14087,17771,0.0
-2805,-14416,17783,0.0
-2808,-14754,17799,0.0
-2802,-15055,17763,0.0
-2803,-15399,17771,0.0
-2800,-15728,17755,0.0
-2800,-16082,17760,0.0
-2795,-16416,17736,0.0
-7,-45,48,0.0
-16,-93,97,0.0
-11,-67,68,0.0
-10,-65,65,0.0
-10,-70,68,0.0
-12,-81,77,0.0
-10,-72,67,0.0
-12,-78,71,0.0
-14,-95,84,0.0
-11,-83,72,0.0
-13,-94,81,0.0
-15,-113,93,0.0
-13,-106,86,0.0
-12,-104,82,0.0
-13,-110,85,0.0
-14,-120,91,0.0
-14,-119,88,0.0
-13,-118,86,0.0
-15,-135,95,0.0
-14,-131,90,0.0
-14,-134,90,0.0
-14,-141,93,0.0
-18,-182,117,0.0
-16,-168,106,0.0
-14,-150,92,0.0
-15,-155,93,0.0
-14,-160,93,0.0
-15,-174,99,0.0
-14,-175,97,0.0
-15,-189,103,0.0
-15,-196,103,0.0
-16,-203,104,0.0
-14,-185,93,0.0
-14,-193,95,0.0
-14,-211,101,0.0
-14,-215,100,0.0
-14,-214,96,0.0
-14,-223,97,0.0
-14,-228,96,0.0
-13,-235,97,0.0
-13,-232,91,0.0
-13,-242,93,0.0
-14,-288,108,0.0
-16,-318,115,0.0
-14,-317,110,0.0
-14,-323,109,0.0
-14,-324,105,0.0
-13,-327,102,0.0
-13,-331,100,0.0
-120,17208,16737,0.0
-159,16973,16863,0.0
-182,15360,15588,0.0
-237,16449,17053,0.0
-231,13682,14491,0.0
-296,15155,16399,0.0
-334,15055,16644,0.0
-376,15120,17078,0.0
-413,14958,17265,0.0
-448,14716,17358,0.0
0,0,0,0.0
-914,25220,31074,0.0
-965,24583,30962,0.0
-1029,24339,31339,0.0
-692,15248,20075,0.0
-1109,22807,30706,0.0
-757,14590,20090,0.0
-800,14479,20395,0.0
-862,14676,21152,0.0
-894,14354,21171,0.0
-1328,20162,30436,0.0
-1360,19545,30209,0.0
-1387,18891,29900,0.0
-1455,18799,30478,0.0
-1514,18580,30864,0.0
-1690,19721,33572,0.0
0,0,0,0.0
-1689,17865,31976,0.0
-1749,17627,32368,0.0
-1586,15248,28735,0.0
-1554,14253,27576,0.0
-1580,13837,27496,0.0
-1608,13444,27453,0.0
-1637,13084,27468,0.0
-1675,12789,27614,0.0
-1754,12794,28428,0.0
-1707,11896,27220,0.0
-1722,11464,27027,0.0
-1739,11064,26891,0.0
-1911,11614,29123,0.0
-1938,11251,29126,0.0
-2145,11893,31811,0.0
0,0,0,0.0
-1473,7438,21295,0.0
-1493,7189,21325,0.0
-1515,6949,21379,0.0
-1488,6500,20761,0.0
-1559,6480,21518,0.0
-1647,6508,22494,0.0
-1665,6245,22498,0.0
-1757,6253,23514,0.0
-1773,5972,23488,0.0
-1796,5723,23578,0.0
-1810,5444,23542,0.0
-1816,5146,23413,0.0
-1826,4866,23347,0.0
-1836,4586,23273,0.0
-1848,4318,23242,0.0
-1856,4045,23175,0.0
-1864,3774,23100,0.0
-1874,3508,23051,0.0
-1874,3229,22889,0.0
-1880,2964,22808,0.0
-1889,2707,22768,0.0
-1859,2401,22258,0.0
-1825,2103,21721,0.0
-1851,1880,21897,0.0
-1858,1635,21844,0.0
-1865,1394,21811,0.0
-1888,1164,21952,0.0
-1896,922,21925,0.0
-1939,696,22321,0.0
-1941,450,22237,0.0
-1951,208,22237,0.0
-1955,-34,22186,0.0
-1957,-274,22107,0.0
-1963,-516,22077,0.0
-1965,-754,22010,0.0
-1965,-990,21918,0.0
-1967,-1227,21853,0.0
-1969,-1462,21805,0.0
-1971,-1697,21743,0.0
-1973,-1930,21685,0.0
-1974,-2163,21630,0.0
-1974,-2395,21566,0.0
-1975,-2625,21498,0.0
-1977,-2859,21458,0.0
-1977,-3090,21406,0.0
-1975,-3317,21332,0.0
-1976,-3548,21284,0.0
-1975,-3777,21228,0.0
-1974,-4005,21169,0.0
-1972,-4232,21105,0.0
-1971,-4459,21040,0.0
-1969,-4688,20991,0.0
-1964,-4909,20905,0.0
-1963,-5138,20855,0.0
-1961,-5364,20797,0.0
-1958,-5591,20741,0.0
-1953,-5813,20661,0.0
-1949,-6038,20597,0.0
-1946,-6265,20539,0.0
-1943,-6495,20488,0.0
-1938,-6722,20429,0.0
-1935,-6954,20383,0.0
-1933,-7195,20359,0.0
-1929,-7426,20305,0.0
-1925,-7659,20255,0.0
-1918,-7886,20186,0.0
-1913,-8121,20137,0.0
-1910,-8365,20106,0.0
-1903,-8598,20050,0.0
-1897,-8830,19985,0.0
-1892,-9077,19952,0.0
-1886,-9314,19897,0.0
-1875,-9535,19804,0.0
-1872,-9795,19788,0.0
-1864,-10037,19733,0.0
-1855,-10273,19665,0.0
-1848,-10525,19624,0.0
-1842,-10785,19593,0.0
-1833,-11034,19540,0.0
-1815,-11228,19387,0.0
-1807,-11488,19347,0.0
-1805,-11790,19372,0.0
-1789,-12007,19255,0.0
-1782,-12289,19236,0.0
-1762,-12474,19066,0.0
-1740,-12662,18901,0.0
-1731,-12937,18865,0.0
-1731,-13290,18935,0.0
-1688,-13309,18530,0.0
-1715,-13899,18913,0.0
-1717,-14298,19020,0.0
-1702,-14568,18947,0.0
-1689,-14855,18892,0.0
-1675,-15145,18835,0.0
-1662,-15444,18786,0.0
-1648,-15753,18743,0.0
-1633,-16053,18684,0.0
-1618,-16366,18635,0.0
-1601,-16675,18575,0.0
-7,-79,87,0.0
-6,-68,73,0.0
-5,-51,54,0.0
-5,-63,65,0.0
-5,-62,62,0.0
-5,-62,60,0.0
-5,-62,59,0.0
-6,-86,80,0.0
-6,-84,76,0.0
-6,-85,76,0.0
-6,-88,76,0.0
-6,-90,78,0.0
-6,-104,87,0.0
-6,-110,90,0.0
-6,-107,86,0.0
-6,-111,88,0.0
-7,-131,100,0.0
-7,-119,89,0.0
-7,-139,102,0.0
-6,-131,94,0.0
-6,-127,89,0.0
-6,-134,91,0.0
-6,-136,91,0.0
-5,-131,86,0.0
-5,-141,90,0.0
-5,-151,94,0.0
-5,-170,103,0.0
-5,-170,101,0.0
-5,-163,94,0.0
-5,-178,101,0.0
-4,-170,93,0.0
-4,-183,98,0.0
-4,-195,102,0.0
-4,-191,98,0.0
-4,-197,98,0.0
-3,-214,103,0.0
-3,-217,102,0.0
-3,-219,99,0.0
-2,-219,97,0.0
-2,-233,100,0.0
-1,-223,92,0.0
-1,-231,94,0.0
-1,-228,89,0.0
0,-251,95,0.0
0,-296,108,0.0
0,-310,111,0.0
1,-313,108,0.0
1,-319,105,0.0
2,-314,100,0.0
2,-316,98,0.0
468,15254,14912,0.0
383,13331,13311,0.0
355,13255,13520,0.0
329,13218,13773,0.0
305,13295,14151,0.0
278,13285,14447,0.0
249,13146,14606,0.0
254,15021,17052,0.0
220,14888,17269,0.0
216,17040,20199,0.0
177,16820,20378,0.0
139,16596,20552,0.0
100,16336,20679,0.0
62,16127,20871,0.0
24,15904,21045,0.0
-12,15586,21091,0.0
-49,15243,21096,0.0
-80,14310,20261,0.0
-118,14499,21004,0.0
-152,14139,20962,0.0
-188,14063,21340,0.0
-251,15664,24335,0.0
-354,18832,29961,0.0
-406,18716,30501,0.0
-455,18531,30943,0.0
-541,19617,33573,0.0
-587,19154,33606,0.0
0,0,0,0.0
-528,14223,26256,0.0
-560,13843,26226,0.0
-600,13633,26519,0.0
-638,13416,26806,0.0
0,0,0,0.0
-706,12786,26989,0.0
-723,12193,26473,0.0
-766,12073,26977,0.0
-801,11814,27182,0.0
-828,11437,27113,0.0
-850,11027,26954,0.0
-1011,12299,31018,0.0
-1055,12078,31449,0.0
-1107,11927,32090,0.0
-1131,11468,31911,0.0
-782,7468,21512,0.0
-803,7225,21561,0.0
0,0,0,0.0
-901,7194,23122,0.0
-738,5544,18523,0.0
-754,5338,18568,0.0
-739,4920,17841,0.0
-767,4803,18182,0.0
-805,4734,18744,0.0
-1032,5693,23614,0.0
-1045,5401,23519,0.0
-1056,5112,23422,0.0
-1070,4835,23370,0.0
-1083,4563,23331,0.0
-1095,4288,23260,0.0
-1105,4011,23163,0.0
-1118,3746,23127,0.0
-1128,3477,23048,0.0
-1119,3161,22613,0.0
-1093,2811,21831,0.0
-1100,2560,21744,0.0
-1110,2316,21701,0.0
-1119,2073,21653,0.0
0,0,0,0.0
0,0,0,0.0
0,0,0,0.0
0,0,0,0.0
0,0,0,0.0
0,0,0,0.0
-1195,424,21810,0.0
-1217,190,22036,0.0
-1231,-49,22139,0.0
-1238,-289,22135,0.0
-1241,-528,22041,0.0
-1244,-765,21978,0.0
-1249,-1002,21927,0.0
-1252,-1237,21865,0.0
-1253,-1470,21785,0.0
-1256,-1703,21723,0.0
-1258,-1936,21665,0.0
-1263,-2172,21651,0.0
-1263,-2400,21562,0.0
-1264,-2632,21512,0.0
-1263,-2856,21416,0.0
-1265,-3087,21377,0.0
-1265,-3316,21319,0.0
-1266,-3546,21271,0.0
-1264,-3771,21200,0.0
-1262,-3994,21121,0.0
-1265,-4230,21108,0.0
-1262,-4451,21019,0.0
-1261,-4679,20974,0.0
-1259,-4906,20915,0.0
-1256,-5131,20855,0.0
-1253,-5352,20781,0.0
-1249,-5575,20716,0.0
-1247,-5807,20677,0.0
-1243,-6033,20618,0.0
-1239,-6253,20542,0.0
-1235,-6480,20484,0.0
-1231,-6706,20423,0.0
-1227,-6940,20386,0.0
-1223,-7169,20332,0.0
-1217,-7398,20276,0.0
-1214,-7641,20258,0.0
-1208,-7870,20198,0.0
-1201,-8101,20140,0.0
-1193,-8326,20068,0.0
-1189,-8576,20054,0.0
-1183,-8813,20004,0.0
-1174,-9037,19924,0.0
-1166,-9278,19877,0.0
-1158,-9512,19815,0.0
-1150,-9754,19767,0.0
-1141,-10000,19722,0.0
-1131,-10232,19650,0.0
-1122,-10480,19603,0.0
-1114,-10741,19578,0.0
-1103,-10989,19525,0.0
-1094,-11250,19490,0.0
-1084,-11510,19451,0.0
-1073,-11773,19412,0.0
-1061,-12029,19356,0.0
-1049,-12294,19314,0.0
-1037,-12551,19253,0.0
-1025,-12831,19225,0.0
-1011,-13095,19166,0.0
-998,-13380,19134,0.0
-983,-13649,19076,0.0
-971,-13946,19052,0.0
-955,-14221,18991,0.0
-939,-14503,18937,0.0
-915,-14669,18730,0.0
-875,-14579,18206,0.0
-855,-14793,18067,0.0
-867,-15605,18644,0.0
-847,-15873,18552,0.0
-831,-16229,18557,0.0
-813,-16578,18548,0.0
-794,-16916,18518,0.0
-772,-17219,18443,0.0
-3,-61,64,0.0
-2,-54,55,0.0
-3,-82,83,0.0
-2,-69,68,0.0
-3,-65,63,0.0
-2,-76,72,0.0
-2,-85,78,0.0
-2,-78,70,0.0
-2,-100,88,0.0
-2,-90,77,0.0
-2,-91,77,0.0
-2,-97,79,0.0
-2,-96,78,0.0
-2,-108,85,0.0
-1,-116,90,0.0
-1,-117,88,0.0
-1,-121,88,0.0
-1,-118,84,0.0
-1,-121,85,0.0
-1,-131,90,0.0
-1,-127,85,0.0
0,-131,86,0.0
0,-138,89,0.0
0,-141,88,0.0
0,-158,96,0.0
0,-166,99,0.0
0,-155,90,0.0
0,-164,93,0.0
1,-190,105,0.0
1,-177,95,0.0
2,-195,103,0.0
2,-200,102,0.0
2,-205,103,0.0
3,-213,104,0.0
3,-202,96,0.0
4,-222,102,0.0
3,-222,99,0.0
4,-220,96,0.0
4,-226,95,0.0
5,-227,92,0.0
6,-232,91,0.0
6,-227,87,0.0
8,-303,112,0.0
9,-312,112,0.0
10,-315,109,0.0
11,-321,107,0.0
12,-322,104,0.0
11,-316,98,0.0
1004,14648,14375,0.0
974,14495,14531,0.0
943,14324,14667,0.0
869,13475,14095,0.0
854,13518,14444,0.0
813,13160,14367,0.0
793,13125,14640,0.0
767,12995,14810,0.0
856,14865,17310,0.0
723,12872,15318,0.0
700,12780,15544,0.0
1331,24949,31017,0.0
941,18162,23081,0.0
911,18086,23498,0.0
879,17966,23867,0.0
728,15371,20883,0.0
690,15045,20906,0.0
630,14225,20221,0.0
632,14800,21526,0.0
575,13991,20826,0.0
552,13982,21303,0.0
591,15618,24362,0.0
560,15489,24743,0.0
532,15452,25285,0.0
498,15228,25532,0.0
463,14946,25683,0.0
428,14689,25879,0.0
394,14443,26097,0.0
344,13540,25099,0.0
315,13408,25509,0.0
285,13286,25954,0.0
255,13106,26297,0.0
222,12777,26344,0.0
190,12474,26443,0.0
159,12156,26507,0.0
130,12016,26966,0.0
99,11746,27147,0.0
67,11121,26483,0.0
39,10969,26934,0.0
12,12233,30991,0.0
-20,12148,31776,0.0
-53,11802,31901,0.0
-85,11408,31890,0.0
-115,11001,31836,0.0
-146,10617,31836,0.0
-173,10178,31657,0.0
-147,7128,23020,0.0
-172,7075,23757,0.0
-193,6813,23815,0.0
-212,6495,23670,0.0
-230,6208,23620,0.0
-249,5935,23622,0.0
-265,5633,23490,0.0
-282,5362,23475,0.0
-298,5083,23422,0.0
-315,4813,23397,0.0
-308,4237,21789,0.0
-323,4006,21863,0.0
-334,3718,21605,0.0
-346,3472,21571,0.0
-362,3259,21743,0.0
-374,3014,21711,0.0
-385,2760,21596,0.0
-396,2522,21591,0.0
-407,2284,21573,0.0
-419,2050,21598,0.0
-426,1804,21466,0.0
-437,1569,21454,0.0
-447,1339,21505,0.0
-456,1106,21521,0.0
-464,871,21476,0.0
-476,642,21607,0.0
-487,410,21707,0.0
-490,173,21541,0.0
-506,-60,21862,0.0
-511,-295,21770,0.0
-517,-530,21725,0.0
-523,-764,21719,0.0
-526,-996,21618,0.0
-493,-1141,20038,0.0
-520,-1420,20950,0.0
-524,-1644,20900,0.0
-527,-1869,20863,0.0
-538,-2121,21108,0.0
-550,-2391,21454,0.0
-553,-2621,21409,0.0
-554,-2845,21325,0.0
-556,-3076,21293,0.0
-555,-3297,21198,0.0
-555,-3518,21107,0.0
-558,-3758,21136,0.0
-557,-3983,21075,0.0
-556,-4202,20986,0.0
-555,-4428,20936,0.0
-553,-4653,20880,0.0
-552,-4883,20847,0.0
-549,-5093,20730,0.0
-548,-5333,20740,0.0
-545,-5562,20695,0.0
-542,-5781,20621,0.0
-538,-6003,20551,0.0
-532,-6211,20441,0.0
-527,-6419,20330,0.0
-521,-6629,20231,0.0
-516,-6859,20190,0.0
-501,-6949,19753,0.0
-496,-7168,19691,0.0
-490,-7396,19652,0.0
-486,-7654,19689,0.0
-481,-7913,19718,0.0
-474,-8145,19680,0.0
-467,-8375,19630,0.0
-458,-8570,19502,0.0
-450,-8812,19477,0.0
-440,-9032,19401,0.0
-431,-9267,19357,0.0
-422,-9492,19288,0.0
-412,-9719,19221,0.0
-402,-9957,19174,0.0
-390,-10187,19109,0.0
-379,-10399,19008,0.0
-366,-10604,18895,0.0
-354,-10836,18828,0.0
-341,-11078,18776,0.0
-328,-11304,18696,0.0
-313,-11469,18512,0.0
-297,-11641,18344,0.0
-287,-12046,18536,0.0
-272,-12305,18495,0.0
-255,-12501,18356,0.0
-238,-12682,18195,0.0
-225,-13152,18442,0.0
-215,-13845,18975,0.0
-198,-14150,18960,0.0
-179,-14421,18893,0.0
-160,-14713,18849,0.0
-134,-14334,17961,0.0
-111,-14168,17365,0.0
-94,-15030,18021,0.0
-73,-15251,17887,0.0
-53,-16103,18479,0.0
-30,-16169,18155,0.0
-7,-16268,17875,0.0
16,-16537,17780,0.0
41,-16829,17706,0.0
0,-52,54,0.0
0,-48,48,0.0
0,-62,61,0.0
0,-60,58,0.0
0,-86,82,0.0
0,-87,80,0.0
0,-79,71,0.0
0,-99,87,0.0
1,-82,71,0.0
1,-104,88,0.0
1,-101,84,0.0
1,-109,89,0.0
2,-97,76,0.0
1,-113,88,0.0
2,-104,78,0.0
2,-108,80,0.0
2,-117,84,0.0
2,-113,80,0.0
3,-124,86,0.0
3,-128,87,0.0
4,-137,90,0.0
3,-127,82,0.0
4,-139,87,0.0
4,-150,92,0.0
5,-150,89,0.0
5,-147,86,0.0
6,-158,91,0.0
6,-175,97,0.0
8,-188,102,0.0
8,-185,97,0.0
8,-198,102,0.0
9,-209,104,0.0
9,-212,103,0.0
10,-212,100,0.0
10,-225,104,0.0
10,-219,98,0.0
11,-218,95,0.0
11,-217,92,0.0
12,-234,95,0.0
12,-225,89,0.0
13,-239,92,0.0
15,-273,102,0.0
17,-288,104,0.0
18,-303,106,0.0
19,-298,100,0.0
19,-300,98,0.0
20,-305,95,0.0
1264,13462,13237,0.0
1237,13313,13371,0.0
1310,14242,14611,0.0
1266,13911,14580,0.0
1222,13570,14528,0.0
1176,13187,14425,0.0
1157,13123,14667,0.0
1130,12956,14794,0.0
1281,14838,17314,0.0
1639,19193,22887,0.0
1615,19127,23309,0.0
1065,12769,15906,0.0
1041,12615,16064,0.0
1474,18074,23529,0.0
1523,18892,25149,0.0
1822,22855,31114,0.0
1128,14329,19952,0.0
1107,14236,20277,0.0
1089,14178,20663,0.0
1077,14193,21170,0.0
1047,13969,21327,0.0
1215,16417,25663,0.0
1377,18833,30149,0.0
1171,16239,26629,0.0
1129,15864,26655,0.0
1084,15436,26582,0.0
985,14222,25111,0.0
1018,14893,26969,0.0
957,14209,26398,0.0
914,13764,26244,0.0
873,13345,26124,0.0
811,12577,25290,0.0
792,12467,25762,0.0
818,13074,27778,0.0
788,12783,27937,0.0
773,12747,28673,0.0
743,12460,28861,0.0
798,13585,32425,0.0
755,13085,32203,0.0
691,12190,30955,0.0
680,12212,32017,0.0
646,11823,32035,0.0
614,11432,32033,0.0
576,10942,31739,0.0
546,10577,31792,0.0
371,7337,22877,0.0
355,7163,23192,0.0
343,7074,23814,0.0
323,6820,23901,0.0
302,6526,23846,0.0
281,6228,23760,0.0
261,5922,23632,0.0
244,5678,23744,0.0
224,5363,23552,0.0
205,5072,23441,0.0
189,4798,23394,0.0
162,4273,22044,0.0
147,4012,21964,0.0
130,3711,21636,0.0
118,3480,21691,0.0
105,3255,21797,0.0
92,3013,21781,0.0
80,2762,21688,0.0
68,2516,21623,0.0
56,2279,21617,0.0
45,2052,21713,0.0
35,1817,21725,0.0
25,1581,21730,0.0
15,1341,21659,0.0
6,1108,21714,0.0
-1,895,22256,0.0
-10,655,22264,0.0
-19,412,22134,0.0
-26,168,21621,0.0
-34,-66,22174,0.0
-40,-304,22114,0.0
-46,-542,22033,0.0
-52,-777,21973,0.0
-57,-1010,21859,0.0
-57,-1142,20011,0.0
-64,-1421,20934,0.0
-69,-1647,20914,0.0
-72,-1870,20862,0.0
-76,-2123,21113,0.0
-81,-2403,21556,0.0
-84,-2630,21488,0.0
-86,-2861,21444,0.0
-87,-3088,21379,0.0
-88,-3313,21305,0.0
-89,-3541,21257,0.0
-89,-3769,21207,0.0
-90,-3993,21142,0.0
-89,-4220,21090,0.0
-88,-4445,21030,0.0
-87,-4667,20957,0.0
-86,-4898,20930,0.0
-83,-5126,20886,0.0
-81,-5345,20804,0.0
-78,-5565,20732,0.0
-74,-5801,20710,0.0
-71,-6025,20651,0.0
-67,-6244,20572,0.0
-62,-6460,20486,0.0
-58,-6667,20370,0.0
-52,-6862,20226,0.0
-46,-6941,19754,0.0
-39,-7147,19659,0.0
-33,-7346,19547,0.0
-26,-7554,19457,0.0
-19,-7987,19934,0.0
-12,-8215,19878,0.0
-3,-8433,19794,0.0
4,-8645,19700,0.0
13,-8801,19483,0.0
22,-9030,19426,0.0
32,-9268,19387,0.0
43,-9493,19322,0.0
53,-9727,19269,0.0
64,-9972,19234,0.0
76,-10200,19164,0.0
89,-10436,19109,0.0
101,-10680,19062,0.0
114,-10918,19003,0.0
128,-11164,18955,0.0
142,-11413,18908,0.0
157,-11643,18826,0.0
172,-11900,18785,0.0
188,-12155,18737,0.0
204,-12401,18673,0.0
221,-12650,18608,0.0
238,-12900,18542,0.0
256,-13170,18500,0.0
279,-13629,18714,0.0
301,-14002,18797,0.0
322,-14315,18791,0.0
343,-14592,18731,0.0
353,-14387,18063,0.0
359,-14074,17283,0.0
397,-14939,17946,0.0
431,-15609,18344,0.0
424,-14804,17023,0.0
489,-16488,18552,0.0
516,-16799,18496,0.0
543,-17109,18434,0.0
570,-17405,18350,0.0
593,-17563,18121,0.0
1,-74,74,0.0
2,-72,71,0.0
2,-78,76,0.0
2,-79,76,0.0
3,-95,87,0.0
2,-85,76,0.0
3,-88,78,0.0
4,-98,85,0.0
4,-107,90,0.0
4,-114,94,0.0
3,-104,85,0.0
5,-114,91,0.0
5,-118,92,0.0
5,-122,92,0.0
5,-126,93,0.0
6,-133,97,0.0
5,-130,92,0.0
6,-130,90,0.0
8,-149,101,0.0
6,-127,84,0.0
7,-141,91,0.0
8,-154,98,0.0
9,-169,104,0.0
10,-173,104,0.0
10,-182,106,0.0
10,-178,102,0.0
11,-188,105,0.0
11,-194,105,0.0
12,-198,105,0.0
14,-218,113,0.0
14,-222,112,0.0
15,-221,108,0.0
15,-228,108,0.0
16,-236,110,0.0
17,-247,110,0.0
17,-237,103,0.0
18,-245,104,0.0
17,-238,98,0.0
19,-248,99,0.0
19,-255,98,0.0
21,-275,103,0.0
24,-306,111,0.0
25,-314,110,0.0
26,-321,109,0.0
26,-314,102,0.0
26,-316,100,0.0
2265,13277,13092,0.0
2258,13220,13315,0.0
2281,13337,13722,0.0
2260,13193,13866,0.0
2772,16163,17353,0.0
2252,13105,14375,0.0
2253,13085,14665,0.0
2589,14999,17177,0.0
2277,13157,15397,0.0
2087,12025,14381,0.0
2081,11957,14615,0.0
2102,12043,15046,0.0
2127,12143,15509,0.0
2124,12077,15771,0.0
2127,12046,16084,0.0
2167,12219,16685,0.0
2179,12231,17084,0.0
2191,12238,17488,0.0
2419,13436,19645,0.0
2417,13354,19982,0.0
2431,13345,20442,0.0
2455,13390,21000,0.0
2422,13119,21070,0.0
2379,12791,21046,0.0
2331,12435,20964,0.0
2240,11854,20483,0.0
2233,11714,20753,0.0
2231,11600,21080,0.0
2233,11496,21432,0.0
2683,13670,26157,0.0
2626,13234,26001,0.0
2564,12779,25791,0.0
2289,11274,23383,0.0
2475,12037,25669,0.0
2327,11166,24494,0.0
2699,12770,28830,0.0
2351,10962,25488,0.0
2339,10737,25723,0.0
2324,10492,25919,0.0
2316,10280,26203,0.0
2311,10070,26505,0.0
2745,11731,31908,0.0
2704,11324,31857,0.0
1756,7197,20962,0.0
1730,6931,20917,0.0
1705,6670,20883,0.0
1680,6410,20840,0.0
1653,6141,20762,0.0
1629,5884,20708,0.0
1608,5635,20678,0.0
1582,5372,20584,0.0
1561,5126,20545,0.0
1540,4879,20493,0.0
1519,4633,20434,0.0
1498,4388,20369,0.0
1479,4147,20316,0.0
1459,3908,20250,0.0
1446,3683,20259,0.0
1426,3443,20173,0.0
1407,3204,20076,0.0
1598,3419,23012,0.0
1577,3152,22909,0.0
1562,2897,22876,0.0
1391,2377,20541,0.0
1382,2154,20557,0.0
1439,2025,21567,0.0
1493,1871,22536,0.0
1341,1472,20381,0.0
1350,1268,20642,0.0
1343,1046,20675,0.0
1332,821,20619,0.0
1322,597,20574,0.0
1311,374,20507,0.0
1304,154,20475,0.0
1271,-65,20066,0.0
1257,-279,19923,0.0
1269,-500,20180,0.0
1273,-722,20308,0.0
1267,-939,20276,0.0
1260,-1154,20200,0.0
1256,-1371,20174,0.0
1248,-1582,20092,0.0
1246,-1799,20077,0.0
1241,-2010,20015,0.0
1239,-2227,20003,0.0
1236,-2439,19948,0.0
1236,-2657,19945,0.0
1238,-2880,19976,0.0
1233,-3082,19866,0.0
1229,-3288,19783,0.0
1229,-3502,19756,0.0
1226,-3703,19656,0.0
1228,-3920,19641,0.0
1230,-4133,19609,0.0
1231,-4344,19562,0.0
1234,-4557,19527,0.0
1236,-4766,19470,0.0
1239,-4981,19446,0.0
1243,-5195,19409,0.0
1245,-5399,19338,0.0
1249,-5610,19291,0.0
1254,-5825,19250,0.0
1261,-6047,19235,0.0
1266,-6253,19171,0.0
1271,-6464,19117,0.0
1277,-6675,19062,0.0
1284,-6885,19004,0.0
1292,-7108,18978,0.0
1301,-7321,18926,0.0
1302,-7498,18777,0.0
1313,-7725,18758,0.0
1322,-7934,18691,0.0
1331,-8149,18638,0.0
1344,-8382,18623,0.0
1355,-8599,18567,0.0
1371,-8846,18573,0.0
1383,-9065,18517,0.0
1394,-9285,18462,0.0
1408,-9510,18413,0.0
1422,-9734,18360,0.0
1436,-9964,18314,0.0
1452,-10194,18266,0.0
1468,-10424,18213,0.0
1482,-10640,18136,0.0
1500,-10884,18102,0.0
1518,-11113,18043,0.0
1536,-11347,17985,0.0
1556,-11598,17950,0.0
1573,-11822,17872,0.0
1597,-12084,17848,0.0
1617,-12323,17786,0.0
1641,-12596,17768,0.0
2723,-21017,28979,1.0
2750,-21344,28773,1.0
2763,-21556,28414,1.0
2790,-21870,28192,1.0
0,0,0,0.0
2831,-22374,27593,1.0
1991,-15798,19061,0.0
1973,-15702,18533,0.0
1965,-15682,18111,0.0
1947,-15581,17607,0.0
1931,-15485,17124,0.0
1943,-15604,16886,0.0
1940,-15606,16527,0.0
1926,-15515,16081,0.0
1951,-15730,15955,0.0
1987,-16020,15903,0.0
2021,-16310,15845,0.0
2056,-16597,15780,0.0
2093,-16887,15713,0.0
10,-85,76,0.0
10,-82,73,0.0
2210,-17799,15519,0.0
9,-82,70,0.0
10,-84,71,0.0
11,-98,81,0.0
10,-85,68,0.0
11,-94,74,0.0
13,-111,85,0.0
13,-108,81,0.0
14,-124,91,0.0
14,-118,84,0.0
16,-132,91,0.0
15,-127,87,0.0
17,-141,94,0.0
20,-159,104,0.0
17,-144,91,0.0
17,-141,87,0.0
19,-149,90,0.0
20,-155,92,0.0
20,-159,91,0.0
22,-174,97,0.0
22,-176,96,0.0
25,-192,103,0.0
25,-198,103,0.0
27,-208,105,0.0
28,-217,107,0.0
29,-220,105,0.0
29,-221,103,0.0
30,-228,104,0.0
29,-222,98,0.0
32,-241,103,0.0
32,-239,99,0.0
35,-256,103,0.0
35,-256,99,0.0
35,-261,99,0.0
40,-293,107,0.0
39,-283,100,0.0
40,-289,98,0.0
40,-282,93,0.0
42,-296,94,0.0
-3610,15994,14718,0.0
-3687,15938,14984,0.0
-3765,15881,15255,0.0
-3844,15823,15529,0.0
-3925,15768,15810,0.0
-4006,15705,16089,0.0
-4079,15604,16335,0.0
-4170,15570,16654,0.0
-4248,15482,16923,0.0
-4218,14997,16752,0.0
-4280,14852,16956,0.0
-4322,14633,17076,0.0
-4610,15229,18166,0.0
-4702,15155,18483,0.0
-4802,15097,18826,0.0
-4884,14981,19103,0.0
-4974,14880,19406,0.0
-5074,14802,19748,0.0
-5037,14327,19555,0.0
-5047,13995,19546,0.0
-5410,14623,20903,0.0
-5522,14547,21286,0.0
-5633,14459,21664,0.0
-5748,14371,22053,0.0
-5868,14290,22463,0.0
-5991,14206,22885,0.0
-6113,14108,23295,0.0
-6207,13940,23599,0.0
-6356,13885,24112,0.0
-6385,13566,24171,0.0
-2866,5920,10827,0.0
-2897,5814,10918,0.0
-2917,5688,10973,0.0
-2937,5560,11022,0.0
-2957,5433,11074,0.0
-2974,5301,11116,0.0
-2997,5179,11180,0.0
-3018,5053,11232,0.0
-3033,4917,11266,0.0
-2942,4616,10907,0.0
-2913,4419,10773,0.0
-2916,4276,10764,0.0
-2916,4129,10741,0.0
-2917,3984,10722,0.0
-2921,3845,10713,0.0
-2921,3704,10697,0.0
-2924,3566,10682,0.0
-2925,3428,10665,0.0
-2929,3296,10660,0.0
-2928,3156,10633,0.0
-2926,3019,10602,0.0
-2930,2889,10597,0.0
-2927,2753,10567,0.0
-2930,2624,10556,0.0
-2934,2496,10547,0.0
-2934,2367,10529,0.0
-2934,2238,10505,0.0
-2933,2110,10481,0.0
-2937,1986,10474,0.0
-2944,1864,10478,0.0
-2126,1255,7552,0.0
-2185,1198,7746,0.0
-2934,1486,10377,0.0
-2947,1370,10402,0.0
-2944,1247,10374,0.0
-2944,1125,10352,0.0
-2946,1005,10333,0.0
-2951,888,10329,0.0
-2938,765,10267,0.0
-2947,648,10273,0.0
-2140,385,7448,0.0
-2933,411,10186,0.0
-2955,298,10240,0.0
-2956,182,10221,0.0
-2960,66,10212,0.0
-2957,-49,10180,0.0
-2955,-164,10152,0.0
-2958,-279,10140,0.0
-2954,-394,10107,0.0
-2951,-507,10073,0.0
-2125,-447,7239,0.0
-2938,-730,9988,0.0
-2958,-848,10030,0.0
-2960,-961,10016,0.0
-2960,-1074,9995,0.0
-2963,-1187,9981,0.0
-2963,-1300,9958,0.0
-2964,-1412,9940,0.0
-2966,-1525,9923,0.0
-2966,-1637,9902,0.0
-2962,-1747,9865,0.0
-2971,-1863,9870,0.0
-2969,-1975,9841,0.0
-2967,-2084,9809,0.0
-2969,-2198,9794,0.0
-2963,-2304,9750,0.0
-2970,-2422,9751,0.0
-2966,-2529,9714,0.0
-2966,-2642,9692,0.0
-2969,-2756,9676,0.0
-2972,-2870,9659,0.0
-2162,-2170,7009,0.0
-2971,-3095,9609,0.0
-2969,-3206,9579,0.0
-2972,-3322,9563,0.0
-2973,-3436,9540,0.0
-2975,-3551,9521,0.0
-2976,-3668,9500,0.0
-2976,-3780,9470,0.0
-2972,-3890,9435,0.0
-2974,-4006,9412,0.0
-2974,-4123,9387,0.0
-2980,-4247,9379,0.0
-2978,-4361,9348,0.0
-2979,-4478,9324,0.0
-2980,-4598,9300,0.0
-2978,-4712,9265,0.0
-2980,-4832,9243,0.0
-2982,-4956,9222,0.0
-2982,-5075,9193,0.0
-2151,-3747,6610,0.0
-2969,-5291,9092,0.0
-2986,-5442,9115,0.0
-2985,-5563,9081,0.0
-2984,-5685,9050,0.0
-2985,-5810,9021,0.0
-2987,-5938,8996,0.0
-2992,-6073,8979,0.0
-2991,-6199,8946,0.0
-2991,-6327,8914,0.0
-2994,-6462,8891,0.0
-2995,-6592,8859,0.0
-2991,-6715,8815,0.0
-2989,-6842,8776,0.0
-2993,-6984,8753,0.0
-2990,-7111,8710,0.0
-2995,-7258,8690,0.0
-2173,-5365,6279,0.0
-2157,-5426,6208,0.0
-2994,-7670,8580,0.0
-2994,-7811,8543,0.0
-2996,-7957,8510,0.0
-2997,-8106,8477,0.0
-2998,-8250,8436,0.0
-2997,-8395,8396,0.0
-2994,-8539,8351,0.0
-2991,-8677,8299,0.0
-2996,-8846,8273,0.0
-2994,-8993,8225,0.0
-2997,-9159,8191,0.0
-2996,-9310,8143,0.0
-2994,-9466,8095,0.0
-2186,-7032,5879,0.0
-2997,-9801,8011,0.0
-3000,-9981,7975,0.0
-2997,-10139,7919,0.0
-2998,-10313,7874,0.0
-2999,-10491,7827,0.0
-3002,-10680,7785,0.0
-3000,-10852,7729,0.0
-3000,-11033,7677,0.0
-3002,-11225,7628,0.0
-3001,-11412,7572,0.0
-32,-126,81,0.0
-2204,-8667,5480,0.0
-3006,-12018,7416,0.0
-3008,-12227,7361,0.0
-3006,-12426,7297,0.0
-37,-158,90,0.0
-37,-163,90,0.0
-37,-166,90,0.0
-44,-195,103,0.0
-45,-206,107,0.0
-49,-225,113,0.0
-48,-227,110,0.0
-48,-232,110,0.0
-48,-235,108,0.0
-43,-215,97,0.0
-44,-223,97,0.0
-46,-234,99,0.0
-45,-235,96,0.0
-46,-244,97,0.0
-47,-257,99,0.0
-53,-293,109,0.0
-56,-314,113,0.0
-54,-312,109,0.0
-53,-310,104,0.0
-53,-320,104,0.0
-53,-324,101,0.0
-51,-320,97,0.0
-51,-324,94,0.0
-50,-319,89,0.0
-2848,15979,14944,0.0
-2916,15920,15210,0.0
-2986,15865,15485,0.0
-3057,15808,15763,0.0
-3127,15743,16038,0.0
-3198,15681,16322,0.0
-3272,15616,16608,0.0
-3325,15453,16792,0.0
-3421,15482,17193,0.0
-3472,15305,17368,0.0
-3524,15126,17544,0.0
-3538,14789,17533,0.0
-3560,14490,17560,0.0
-3811,15106,18715,0.0
-3903,15066,19085,0.0
-3989,14995,19424,0.0
-4049,14824,19639,0.0
-4153,14799,20055,0.0
-4241,14716,20403,0.0
-4207,14208,20158,0.0
-4228,13897,20179,0.0
-4533,14502,21558,0.0
-4634,14422,21952,0.0
-4734,14333,22345,0.0
-4841,14256,22770,0.0
-4946,14162,23179,0.0
-5057,14078,23619,0.0
-5169,13984,24056,0.0
-5254,13813,24374,0.0
-5364,13697,24802,0.0
-5375,13326,24769,0.0
-5413,13028,24865,0.0
-5480,12796,25090,0.0
-5895,13351,26907,0.0
-6024,13228,27413,0.0
-6159,13104,27938,0.0
-6264,12908,28331,0.0
-6416,12798,28932,0.0
-6509,12560,29264,0.0
-6678,12459,29936,0.0
-6853,12351,30630,0.0
-7060,12287,31471,0.0
-4589,7704,20398,0.0
-4060,6569,17994,0.0
-4103,6394,18134,0.0
-4473,6707,19719,0.0
-2844,4098,12505,0.0
-2858,3954,12531,0.0
-2863,3798,12520,0.0
-2866,3640,12500,0.0
-2868,3483,12475,0.0
-2866,3324,12436,0.0
-2871,3173,12425,0.0
-2868,3015,12382,0.0
-2873,2866,12369,0.0
-2877,2718,12355,0.0
-2907,2596,12456,0.0
-2907,2444,12424,0.0
-2888,2280,12313,0.0
-2879,2125,12240,0.0
-2884,1984,12235,0.0
-2882,1838,12194,0.0
-2886,1697,12183,0.0
-2886,1554,12153,0.0
-2886,1414,12129,0.0
-2886,1274,12100,0.0
-2889,1135,12085,0.0
-2893,998,12070,0.0
-2894,861,12049,0.0
-2896,724,12028,0.0
-2899,587,12012,0.0
-2897,451,11975,0.0
-2902,317,11969,0.0
-2900,182,11931,0.0
-2912,48,11955,0.0
-2911,-84,11923,0.0
-2913,-218,11903,0.0
-2908,-350,11856,0.0
-2906,-482,11819,0.0
-2904,-613,11783,0.0
-2910,-746,11780,0.0
-2908,-876,11747,0.0
-2908,-1007,11720,0.0
-2910,-1138,11700,0.0
-2908,-1267,11665,0.0
-2908,-1397,11640,0.0
-2908,-1526,11613,0.0
-2907,-1655,11584,0.0
-2913,-1787,11581,0.0
-2916,-1919,11567,0.0
-2914,-2046,11531,0.0
-2919,-2179,11523,0.0
-2915,-2304,11480,0.0
-2914,-2433,11451,0.0
-2916,-2564,11433,0.0
-2917,-2694,11411,0.0
-2919,-2824,11389,0.0
-2920,-2953,11368,0.0
-2924,-3088,11356,0.0
-2925,-3220,11336,0.0
-2918,-3341,11280,0.0
-2922,-3477,11271,0.0
-2921,-3604,11238,0.0
-2926,-3742,11231,0.0
-2930,-3879,11218,0.0
-2930,-4010,11191,0.0
-2933,-4148,11175,0.0
-2934,-4282,11152,0.0
-2933,-4413,11121,0.0
-2934,-4548,11096,0.0
-2938,-4688,11082,0.0
-2939,-4824,11055,0.0
-2942,-4966,11041,0.0
-2941,-5101,11009,0.0
-2940,-5236,10976,0.0
-2940,-5373,10947,0.0
-2940,-5512,10919,0.0
-2947,-5665,10917,0.0
-2938,-5788,10854,0.0
-2941,-5935,10836,0.0
-2938,-6071,10796,0.0
-2938,-6213,10766,0.0
-2935,-6350,10725,0.0
-2934,-6494,10692,0.0
-2940,-6652,10682,0.0
-2941,-6804,10659,0.0
-2942,-6953,10629,0.0
-2939,-7096,10588,0.0
-2942,-7254,10567,0.0
-2945,-7414,10546,0.0
-2946,-7573,10521,0.0
-2946,-7727,10486,0.0
-2947,-7888,10459,0.0
-2947,-8048,10428,0.0
-2949,-8211,10398,0.0
-2952,-8381,10373,0.0
-2954,-8549,10345,0.0
-2956,-8723,10319,0.0
-2952,-8880,10272,0.0
-2955,-9058,10245,0.0
-2956,-9233,10212,0.0
-2952,-9395,10163,0.0
-2953,-9576,10131,0.0
-2951,-9748,10087,0.0
-2951,-9931,10051,0.0
-2954,-10124,10022,0.0
-2954,-10312,9985,0.0
-20,-73,68,0.0
-19,-71,67,0.0
-21,-77,70,0.0
-18,-70,62,0.0
-19,-75,66,0.0
-23,-91,78,0.0
-30,-121,101,0.0
-30,-123,100,0.0
-23,-96,76,0.0
-21,-92,71,0.0
-25,-107,81,0.0
-25,-111,83,0.0
-23,-104,75,0.0
-27,-124,87,0.0
-27,-127,88,0.0
-21,-101,68,0.0
-24,-114,75,0.0
-25,-125,80,0.0
-30,-150,95,0.0
-26,-135,83,0.0
-26,-137,81,0.0
-30,-158,91,0.0
-27,-145,82,0.0
-30,-164,91,0.0
-30,-171,92,0.0
-30,-172,90,0.0
-31,-180,93,0.0
-33,-194,97,0.0
-31,-186,90,0.0
-33,-203,96,0.0
-34,-213,97,0.0
-32,-209,92,0.0
-33,-216,93,0.0
-34,-227,95,0.0
-31,-214,87,0.0
-34,-237,93,0.0
-36,-254,97,0.0
-41,-299,111,0.0
-42,-309,110,0.0
-40,-306,105,0.0
-40,-309,103,0.0
-40,-313,100,0.0
-39,-316,98,0.0
-37,-310,92,0.0
-37,-314,90,0.0
-2220,15610,14754,0.0
-2258,15398,14867,0.0
0,0,0,0.0
0,0,0,0.0
-5000,31162,32083,0.0
-2886,17470,18375,0.0
-2786,16374,17596,0.0
-2800,15985,17554,0.0
-2805,15553,17452,0.0
-2813,15153,17375,0.0
-3111,16283,19081,0.0
-2826,14375,17219,0.0
-2987,14762,18076,0.0
-3000,14413,18041,0.0
-3581,16719,21399,0.0
-3582,16257,21278,0.0
-3610,15919,21309,0.0
-3604,15448,21155,0.0
-3547,14776,20702,0.0
-3554,14386,20623,0.0
-3629,14273,20943,0.0
-3598,13747,20650,0.0
-3670,13624,20956,0.0
-3947,14233,22422,0.0
-5441,19060,30763,0.0
-4242,14429,23866,0.0
-4264,14083,23877,0.0
-4330,13878,24128,0.0
-4424,13762,24543,0.0
-4533,13677,25029,0.0
-4628,13542,25442,0.0
-4737,13441,25932,0.0
-4758,13083,25931,0.0
-4769,12703,25879,0.0
-5086,13121,27491,0.0
-3275,8177,17628,0.0
-3299,7969,17686,0.0
-3374,7883,18021,0.0
-3469,7833,18457,0.0
-5651,12324,29950,0.0
-3672,7729,19388,0.0
-3762,7639,19794,0.0
-3796,7429,19899,0.0
-3759,7085,19638,0.0
-3730,6765,19417,0.0
-3894,6787,20197,0.0
-3902,6531,20171,0.0
-3908,6275,20134,0.0
-3914,6020,20097,0.0
-3909,5753,20005,0.0
-3913,5502,19962,0.0
-2811,3771,14297,0.0
-2833,3617,14358,0.0
-2832,3437,14308,0.0
-2840,3269,14309,0.0
-2846,3099,14292,0.0
-2854,2934,14292,0.0
-2851,2759,14237,0.0
-2853,2590,14207,0.0
-2853,2419,14159,0.0
-2856,2255,14141,0.0
-2857,2089,14100,0.0
-2856,1923,14059,0.0
-2861,1762,14046,0.0
-2858,1598,13990,0.0
-2861,1438,13972,0.0
-2862,1279,13938,0.0
-2858,1117,13878,0.0
-2862,962,13862,0.0
-2868,806,13850,0.0
-2869,650,13824,0.0
-2866,495,13774,0.0
-2878,341,13792,0.0
-2877,188,13757,0.0
-2880,34,13732,0.0
-2878,-117,13690,0.0
-2880,-270,13665,0.0
-2880,-421,13634,0.0
-2876,-570,13581,0.0
-2873,-720,13536,0.0
-2879,-871,13529,0.0
-2880,-1021,13502,0.0
-2882,-1170,13479,0.0
-2883,-1319,13455,0.0
-2883,-1467,13421,0.0
-2887,-1617,13409,0.0
-2886,-1764,13372,0.0
-2884,-1911,13331,0.0
-2890,-2062,13324,0.0
-2890,-2209,13294,0.0
-2890,-2357,13270,0.0
-2891,-2506,13244,0.0
-2897,-2658,13239,0.0
-2900,-2808,13220,0.0
-2901,-2956,13194,0.0
-2902,-3107,13175,0.0
-2902,-3254,13143,0.0
-2904,-3404,13124,0.0
-2906,-3555,13100,0.0
-2907,-3704,13075,0.0
-2906,-3854,13045,0.0
-2910,-4010,13033,0.0
-2910,-4158,13002,0.0
-2908,-4307,12964,0.0
-2909,-4460,12941,0.0
-2907,-4607,12900,0.0
-2910,-4764,12885,0.0
-2914,-4925,12876,0.0
-2914,-5078,12846,0.0
-2910,-5227,12804,0.0
-2912,-5386,12784,0.0
-2915,-5547,12766,0.0
-2914,-5701,12731,0.0
-2911,-5853,12691,0.0
-2911,-6011,12661,0.0
-2914,-6176,12643,0.0
-2914,-6337,12617,0.0
-2916,-6505,12599,0.0
-2913,-6659,12553,0.0
-2918,-6837,12551,0.0
-2916,-6997,12512,0.0
-2920,-7174,12499,0.0
-2915,-7329,12448,0.0
-2915,-7499,12417,0.0
-2918,-7682,12408,0.0
-2910,-7831,12342,0.0
-2910,-8005,12313,0.0
-2916,-8198,12308,0.0
-2919,-8384,12290,0.0
-2923,-8578,12280,0.0
-2921,-8753,12239,0.0
-2920,-8937,12209,0.0
-2924,-9134,12193,0.0
-2922,-9317,12154,0.0
-2925,-9520,12139,0.0
-2923,-9708,12100,0.0
-2927,-9913,12081,0.0
-2928,-10118,12056,0.0
-2923,-10304,12006,0.0
-2960,-10639,12122,0.0
-2929,-10738,11966,0.0
-2929,-10948,11933,0.0
-2932,-11170,11910,0.0
-7,-28,29,0.0
-13,-52,53,0.0
-13,-52,53,0.0
-13,-53,52,0.0
-18,-74,72,0.0
-19,-79,74,0.0
-19,-81,74,0.0
-20,-87,78,0.0
-18,-81,71,0.0
-17,-80,68,0.0
-18,-85,71,0.0
-21,-97,80,0.0
-19,-94,75,0.0
-19,-94,74,0.0
-21,-104,80,0.0
-18,-94,70,0.0
-22,-118,86,0.0
-23,-124,88,0.0
-25,-135,94,0.0
-25,-137,93,0.0
-21,-118,79,0.0
-25,-141,91,0.0
-26,-154,98,0.0
-23,-136,84,0.0
-22,-136,82,0.0
-23,-150,87,0.0
-25,-161,92,0.0
-24,-162,90,0.0
-24,-162,88,0.0
-25,-172,92,0.0
-25,-175,90,0.0
-31,-216,109,0.0
-30,-225,110,0.0
-30,-228,109,0.0
-27,-210,97,0.0
-27,-213,96,0.0
-26,-209,92,0.0
-25,-208,88,0.0
-26,-217,90,0.0
-26,-221,88,0.0
-26,-228,88,0.0
-31,-273,102,0.0
-34,-312,114,0.0
-33,-316,111,0.0
-33,-312,106,0.0
-32,-314,103,0.0
-32,-320,101,0.0
-31,-322,98,0.0
-30,-316,93,0.0
657,15203,14882,0.0
552,13301,13300,0.0
571,14349,14657,0.0
526,13818,14418,0.0
493,13574,14469,0.0
456,13204,14379,0.0
430,13138,14618,0.0
402,13024,14807,0.0
374,12899,14985,0.0
450,16568,19668,0.0
422,16712,20275,0.0
385,16546,20518,0.0
348,16347,20723,0.0
312,16130,20905,0.0
274,15886,21052,0.0
238,15675,21242,0.0
201,15422,21375,0.0
156,14239,20190,0.0
123,14135,20506,0.0
90,14033,20834,0.0
58,13990,21259,0.0
28,15733,24478,0.0
-8,15497,24690,0.0
-45,15194,24798,0.0
-83,15008,25097,0.0
-119,14737,25259,0.0
-155,14375,25259,0.0
-190,14043,25309,0.0
-233,14254,26353,0.0
-266,13824,26230,0.0
-300,13512,26324,0.0
-335,13282,26579,0.0
-358,12567,25842,0.0
-395,12445,26309,0.0
-430,12210,26551,0.0
-466,12050,26967,0.0
-500,11773,27132,0.0
-527,11395,27058,0.0
-553,11001,26934,0.0
-669,12261,30972,0.0
-710,12055,31441,0.0
-755,11893,32054,0.0
-785,11487,32019,0.0
0,0,0,0.0
-838,10637,31798,0.0
-866,10258,31807,0.0
-645,7132,22964,0.0
-680,7009,23459,0.0
-712,6860,23903,0.0
-551,4963,18028,0.0
-561,4720,17901,0.0
-761,5976,23705,0.0
-777,5690,23648,0.0
-791,5392,23528,0.0
-689,4373,20076,0.0
-708,4175,20223,0.0
-832,4554,23331,0.0
-845,4276,23247,0.0
-855,4000,23150,0.0
-869,3735,23112,0.0
-881,3472,23070,0.0
-889,3200,22946,0.0
-901,2945,22934,0.0
-910,2679,22821,0.0
-899,2370,22267,0.0
-891,2080,21788,0.0
-917,1871,22140,0.0
-935,1643,22320,0.0
-922,1367,21786,0.0
-928,1125,21704,0.0
-966,916,22355,0.0
-935,646,21460,0.0
-952,417,21644,0.0
-973,184,21927,0.0
-993,-53,22167,0.0
-997,-293,22111,0.0
-1002,-531,22037,0.0
-1006,-769,21981,0.0
-1008,-1003,21895,0.0
-1013,-1239,21863,0.0
-1016,-1474,21801,0.0
-1019,-1707,21737,0.0
-1021,-1937,21653,0.0
-1025,-2172,21635,0.0
-1027,-2402,21573,0.0
-1028,-2633,21518,0.0
-1027,-2858,21431,0.0
-1028,-3089,21379,0.0
-1029,-3317,21328,0.0
-1030,-3545,21271,0.0
-1029,-3773,21213,0.0
-1029,-3998,21143,0.0
-1028,-4223,21080,0.0
-1025,-4447,21011,0.0
-1025,-4675,20963,0.0
-1022,-4896,20885,0.0
-1020,-5125,20842,0.0
-1019,-5359,20819,0.0
-1015,-5575,20726,0.0
-1012,-5802,20672,0.0
-1007,-6021,20590,0.0
-1004,-6251,20547,0.0
-1001,-6480,20499,0.0
-996,-6706,20438,0.0
-991,-6927,20364,0.0
-977,-7094,20135,0.0
-972,-7324,20089,0.0
-967,-7553,20040,0.0
-969,-7848,20157,0.0
-964,-8090,20131,0.0
-958,-8326,20085,0.0
-951,-8562,20038,0.0
-943,-8789,19967,0.0
-935,-9027,19920,0.0
-927,-9256,19851,0.0
-918,-9499,19808,0.0
-909,-9729,19736,0.0
-901,-9988,19718,0.0
-891,-10218,19640,0.0
-882,-10475,19613,0.0
-872,-10729,19577,0.0
-861,-10977,19523,0.0
-850,-11231,19478,0.0
-840,-11499,19452,0.0
-828,-11754,19400,0.0
-815,-12002,19334,0.0
-803,-12277,19308,0.0
-791,-12554,19279,0.0
-777,-12805,19206,0.0
-762,-13081,19167,0.0
-749,-13358,19126,0.0
-733,-13627,19068,0.0
-717,-13915,19030,0.0
-702,-14193,18977,0.0
-682,-14430,18864,0.0
-661,-14624,18695,0.0
-619,-14334,17922,0.0
-601,-14619,17876,0.0
-587,-15009,17954,0.0
-569,-15315,17922,0.0
-571,-16188,18534,0.0
-544,-16333,18297,0.0
-515,-16373,17947,0.0
-489,-16518,17717,0.0
-466,-16815,17648,0.0
-1,-67,69,0.0
-1,-60,60,0.0
-1,-73,73,0.0
-2,-73,71,0.0
-1,-71,67,0.0
-1,-84,78,0.0
-1,-78,70,0.0
-1,-104,92,0.0
-1,-102,88,0.0
-1,-96,82,0.0
-1,-111,91,0.0
-1,-102,82,0.0
0,-116,92,0.0
0,-111,86,0.0
0,-120,91,0.0
0,-118,87,0.0
0,-121,88,0.0
0,-132,94,0.0
0,-114,79,0.0
0,-128,86,0.0
0,-133,88,0.0
1,-149,96,0.0
1,-149,93,0.0
1,-166,101,0.0
1,-169,102,0.0
1,-161,94,0.0
2,-179,102,0.0
2,-180,99,0.0
3,-190,102,0.0
4,-196,103,0.0
4,-199,102,0.0
4,-211,106,0.0
5,-218,106,0.0
5,-213,101,0.0
5,-219,101,0.0
6,-220,98,0.0
6,-228,99,0.0
7,-229,96,0.0
7,-230,94,0.0
8,-233,92,0.0
8,-234,90,0.0
11,-285,106,0.0
12,-308,111,0.0
12,-309,107,0.0
13,-304,102,0.0
14,-316,103,0.0
14,-309,96,0.0
1598,13384,13179,0.0
1575,13253,13330,0.0
1572,13295,13660,0.0
1555,13209,13864,0.0
1545,13187,14140,0.0
1525,13075,14322,0.0
1505,12968,14513,0.0
1488,12872,14721,0.0
1481,12868,15038,0.0
1467,12800,15286,0.0
1452,12717,15521,0.0
1441,12670,15807,0.0
1427,12596,16063,0.0
1418,12563,16380,0.0
1404,12489,16651,0.0
1607,14330,19537,0.0
1726,15445,21539,0.0
1677,15044,21463,0.0
1585,14267,20827,0.0
1562,14090,21048,0.0
1541,13935,21309,0.0
1709,15489,24250,0.0
1800,16343,26206,0.0
1749,15908,26128,0.0
1718,15657,26349,0.0
1700,15501,26739,0.0
1786,16303,28830,0.0
1754,16009,29036,0.0
1541,14067,26178,0.0
1506,13757,26275,0.0
1456,13284,26051,0.0
1400,12766,25715,0.0
1372,12488,25850,0.0
1443,13108,27897,0.0
1424,12900,28243,0.0
1423,12857,28970,0.0
1493,13434,31173,0.0
1384,12404,29660,0.0
1412,12590,31039,0.0
1393,12354,31428,0.0
1383,12193,32027,0.0
1342,11745,31882,0.0
1304,11319,31777,0.0
1274,10957,31845,0.0
1232,10501,31623,0.0
872,7349,22956,0.0
1167,9711,31504,0.0
862,7078,23874,0.0
839,6785,23825,0.0
817,6502,23808,0.0
792,6184,23644,0.0
771,5899,23592,0.0
749,5607,23494,0.0
728,5324,23428,0.0
709,5051,23397,0.0
692,4783,23373,0.0
671,4491,23220,0.0
653,4216,23131,0.0
636,3949,23079,0.0
618,3667,22918,0.0
604,3418,22938,0.0
591,3167,22951,0.0
576,2905,22878,0.0
562,2648,22817,0.0
525,2288,21764,0.0
514,2052,21776,0.0
505,1819,21822,0.0
494,1581,21808,0.0
487,1352,21920,0.0
487,1134,22305,0.0
475,886,22143,0.0
465,646,22112,0.0
457,406,22058,0.0
445,166,21837,0.0
441,-69,21995,0.0
434,-306,21946,0.0
427,-541,21897,0.0
420,-775,21821,0.0
409,-994,21467,0.0
378,-1148,20101,0.0
390,-1422,20926,0.0
386,-1647,20893,0.0
375,-1837,20490,0.0
388,-2149,21369,0.0
387,-2386,21398,0.0
385,-2618,21387,0.0
383,-2843,21313,0.0
381,-3069,21253,0.0
379,-3294,21198,0.0
378,-3523,21166,0.0
375,-3718,20936,0.0
378,-3980,21089,0.0
375,-4170,20859,0.0
379,-4430,20977,0.0
380,-4658,20937,0.0
382,-4882,20879,0.0
385,-5111,20842,0.0
385,-5315,20709,0.0
389,-5556,20715,0.0
390,-5751,20554,0.0
395,-5989,20550,0.0
398,-6192,20422,0.0
402,-6408,20344,0.0
405,-6602,20194,0.0
403,-6687,19732,0.0
389,-6591,18781,0.0
396,-6800,18728,0.0
402,-7006,18664,0.0
409,-7220,18623,0.0
448,-7991,19970,0.0
456,-8230,19942,0.0
465,-8464,19894,0.0
476,-8719,19895,0.0
485,-8948,19835,0.0
497,-9201,19821,0.0
507,-9423,19739,0.0
520,-9688,19745,0.0
532,-9931,19698,0.0
545,-10171,19645,0.0
558,-10416,19600,0.0
572,-10679,19582,0.0
587,-10947,19569,0.0
602,-11190,19505,0.0
616,-11438,19449,0.0
632,-11691,19398,0.0
649,-11948,19348,0.0
667,-12227,19331,0.0
685,-12482,19273,0.0
703,-12745,19220,0.0
723,-13025,19191,0.0
742,-13280,19119,0.0
760,-13509,19008,0.0
784,-13820,19008,0.0
808,-14138,19011,0.0
830,-14407,18942,0.0
844,-14540,18695,0.0
845,-14423,18139,0.0
869,-14709,18093,0.0
914,-15339,18459,0.0
887,-14737,17350,0.0
949,-15631,18006,0.0
1010,-16471,18566,0.0
1040,-16806,18536,0.0
986,-15776,17027,0.0
994,-15740,16624,0.0
1044,-16364,16914,0.0
1075,-16667,16860,0.0
4,-79,78,0.0
5,-81,79,0.0
4,-66,62,0.0
4,-80,74,0.0
6,-97,88,0.0
6,-93,83,0.0
5,-92,80,0.0
7,-107,90,0.0
7,-102,85,0.0
7,-113,92,0.0
7,-105,83,0.0
8,-117,91,0.0
9,-129,99,0.0
8,-120,89,0.0
9,-131,95,0.0
11,-151,108,0.0
10,-135,93,0.0
9,-126,86,0.0
10,-143,95,0.0
11,-146,95,0.0
12,-161,101,0.0
12,-162,100,0.0
13,-172,103,0.0
15,-186,109,0.0
15,-183,105,0.0
15,-182,102,0.0
17,-202,111,0.0
17,-200,106,0.0
18,-216,112,0.0
18,-207,105,0.0
20,-225,110,0.0
21,-231,110,0.0
21,-231,107,0.0
22,-249,112,0.0
22,-243,106,0.0
23,-248,105,0.0
23,-252,104,0.0
24,-251,101,0.0
25,-260,101,0.0
27,-274,103,0.0
30,-308,112,0.0
31,-308,108,0.0
32,-315,107,0.0
31,-309,102,0.0
33,-315,99,0.0
-3034,15952,14862,0.0
-3104,15892,15126,0.0
-3175,15840,15402,0.0
-3244,15758,15654,0.0
-3313,15682,15917,0.0
-3385,15613,16190,0.0
-3465,15573,16500,0.0
-3524,15428,16702,0.0
-3596,15342,16973,0.0
-3688,15331,17334,0.0
-3608,14615,16887,0.0
-3745,14785,17462,0.0
-3761,14464,17463,0.0
-4031,15105,18644,0.0
-4121,15047,18991,0.0
-4209,14971,19321,0.0
-4276,14817,19557,0.0
-4368,14745,19909,0.0
-4449,14628,20206,0.0
