//X,Y,Z,Classification
3,-101,75,0.0
4,-113,81,0.0
3,-99,70,0.0
3,-105,73,0.0
83,-1996,1353,0.0
86,-2005,1328,0.0
88,-1995,1290,0.0
91,-1995,1259,0.0
6,-135,83,0.0
5,-129,78,0.0
7,-149,88,0.0
7,-152,87,0.0
7,-162,90,0.0
9,-175,95,0.0
9,-178,94,0.0
9,-179,93,0.0
10,-179,90,0.0
11,-201,98,0.0
11,-198,94,0.0
11,-206,95,0.0
13,-214,96,0.0
14,-230,100,0.0
13,-221,93,0.0
14,-227,93,0.0
15,-232,92,0.0
16,-242,93,0.0
20,-289,108,0.0
21,-308,111,0.0
23,-324,114,0.0
22,-316,107,0.0
23,-317,103,0.0
23,-311,98,0.0
2005,13827,13628,0.0
2002,13826,13920,0.0
1976,13662,14050,0.0
2064,14286,15009,0.0
1966,13627,14625,0.0
1950,13526,14831,0.0
1997,13858,15525,0.0
2045,14193,16247,0.0
1796,12471,14587,0.0
1997,13867,16577,0.0
2011,13967,17065,0.0
2017,13997,17479,0.0
2020,14005,17878,0.0
2019,13992,18262,0.0
2022,13994,18675,0.0
2035,14070,19203,0.0
2029,14007,19555,0.0
2021,13919,19878,0.0
2015,13847,20235,0.0
2019,13838,20695,0.0
1811,12379,18950,0.0
1807,12318,19305,0.0
1804,12252,19666,0.0
1802,12182,20030,0.0
1798,12102,20388,0.0
1792,12005,20731,0.0
1788,11917,21100,0.0
1785,11829,21480,0.0
1782,11741,21875,0.0
1781,11657,22291,0.0
1780,11565,22705,0.0
1780,11474,23142,0.0
1779,11373,23571,0.0
1776,11260,23995,0.0
1781,11178,24503,0.0
1779,11051,24931,0.0
1782,10951,25442,0.0
1784,10835,25940,0.0
1788,10727,26480,0.0
1902,11256,28671,0.0
2095,12221,32143,0.0
2051,11783,32026,0.0
2016,11397,32039,0.0
1972,10959,31892,0.0
1361,7424,22389,0.0
1337,7149,22361,0.0
1314,6878,22345,0.0
1288,6591,22261,0.0
1265,6317,22216,0.0
1242,6047,22173,0.0
1218,5772,22099,0.0
1197,5502,22035,0.0
1175,5235,21970,0.0
1156,4976,21930,0.0
1136,4716,21874,0.0
1116,4456,21810,0.0
1097,4201,21751,0.0
1080,3949,21702,0.0
1062,3695,21632,0.0
1046,3450,21594,0.0
1031,3205,21552,0.0
1014,2957,21471,0.0
1002,2719,21452,0.0
986,2473,21359,0.0
974,2237,21333,0.0
959,1998,21252,0.0
946,1761,21185,0.0
935,1528,21141,0.0
924,1297,21103,0.0
914,1066,21048,0.0
904,838,21022,0.0
893,609,20948,0.0
885,382,20911,0.0
878,157,20898,0.0
868,-68,20826,0.0
883,-299,21301,0.0
899,-541,21836,0.0
942,-818,22996,1.0
957,-1089,23484,1.0
950,-1338,23411,1.0
952,-1602,23576,1.0
953,-1865,23661,1.0
960,-2143,23896,1.0
965,-2422,24083,1.0
965,-2686,24112,1.0
970,-2971,24286,1.0
969,-3234,24260,1.0
973,-3513,24347,1.0
981,-3812,24544,1.0
983,-4088,24575,1.0
984,-4361,24572,1.0
982,-4614,24466,1.0
1000,-4963,24840,1.0
1006,-5257,24915,1.0
1016,-5572,25068,1.0
1029,-5901,25259,1.0
1030,-6167,25172,1.0
1043,-6501,25354,1.0
1049,-6785,25323,1.0
1047,-7017,25107,1.0
1055,-7317,25131,1.0
1051,-7525,24847,1.0
1056,-7789,24754,1.0
1056,-8017,24549,1.0
1056,-8224,24295,1.0
1057,-8445,24090,1.0
1057,-8652,23853,1.0
1057,-8845,23591,1.0
1055,-9011,23270,1.0
1053,-9179,22962,1.0
1057,-9389,22774,1.0
1066,-9630,22664,1.0
1081,-9933,22692,1.0
1099,-10251,22752,1.0
79,-750,1620,0.0
1130,-10840,22737,1.0
1139,-11054,22558,1.0
1138,-11172,22190,1.0
1134,-11258,21775,1.0
1145,-11483,21635,1.0
1163,-11778,21624,1.0
1196,-12207,21847,1.0
1218,-12527,21865,1.0
1242,-12869,21911,1.0
1268,-13218,21960,1.0
1298,-13609,22068,1.0
1322,-13931,22055,1.0
1331,-14092,21786,1.0
1350,-14344,21661,1.0
1363,-14539,21451,1.0
1362,-14571,21006,1.0
1358,-14568,20526,1.0
1366,-14680,20219,1.0
1375,-14797,19925,1.0
1385,-14917,19641,1.0
1400,-15097,19439,1.0
1409,-15194,19136,1.0
1430,-15418,18992,1.0
1425,-15357,18507,0.0
1436,-15460,18228,0.0
1433,-15422,17791,0.0
1437,-15439,17428,0.0
1465,-15714,17358,0.0
1493,-15976,17269,0.0
1525,-16278,17219,0.0
1557,-16570,17153,0.0
1589,-16863,17084,0.0
1623,-17183,17037,0.0
1657,-17480,16963,0.0
1694,-17803,16907,0.0
1731,-18120,16841,0.0
1769,-18438,16769,0.0
1807,-18765,16700,0.0
1846,-19080,16616,0.0
1889,-19435,16560,0.0
1932,-19781,16490,0.0
1973,-20091,16386,0.0
11,-119,96,0.0
2063,-20806,16235,0.0
2112,-21174,16158,0.0
11,-122,91,0.0
11,-124,91,0.0
2259,-22261,15877,0.0
2312,-22662,15798,0.0
205,-2007,1366,0.0
208,-2019,1344,0.0
206,-1993,1296,0.0
210,-2014,1279,0.0
204,-1942,1204,0.0
17,-162,98,0.0
16,-162,95,0.0
16,-160,92,0.0
18,-168,94,0.0
18,-175,96,0.0
20,-194,103,0.0
20,-188,97,0.0
22,-203,103,0.0
23,-213,105,0.0
23,-210,101,0.0
24,-222,103,0.0
28,-247,112,0.0
28,-248,109,0.0
29,-253,108,0.0
29,-254,105,0.0
31,-268,107,0.0
32,-269,104,0.0
35,-294,112,0.0
38,-317,116,0.0
40,-327,115,0.0
39,-323,109,0.0
40,-324,106,0.0
40,-328,104,0.0
-4684,16493,14827,0.0
-4776,16445,15105,0.0
-4864,16378,15370,0.0
-4945,16279,15610,0.0
-5052,16262,15934,0.0
-5137,16169,16188,0.0
-5089,15659,16020,0.0
-5185,15597,16306,0.0
-5167,15196,16235,0.0
-5949,17101,18673,0.0
-6019,16912,18875,0.0
-6005,16487,18809,0.0
-5831,15645,18245,0.0
-5925,15534,18520,0.0
-6009,15395,18766,0.0
-5998,15010,18711,0.0
-6015,14701,18745,0.0
-6076,14502,18914,0.0
-9964,23221,30984,0.0
-9786,22263,30398,0.0
-9826,21816,30485,0.0
-9798,21227,30366,0.0
-7337,15508,22713,0.0
-7325,15100,22650,0.0
-9933,19966,30679,0.0
-10045,19680,30985,0.0
-10063,19215,31009,0.0
-11016,20490,33901,0.0
-10985,19898,33765,0.0
-10994,19388,33753,0.0
-10940,18774,33546,0.0
-10928,18242,33465,0.0
0,0,0,0.0
-10916,17222,33348,0.0
-10880,16674,33192,0.0
-9910,14745,30192,0.0
-9851,14224,29976,0.0
-9868,13820,29987,0.0
-9878,13409,29978,0.0
-9990,13135,30276,0.0
-10090,12842,30541,0.0
-10433,12843,31533,0.0
0,0,0,0.0
0,0,0,0.0
-6978,7734,21001,0.0
-7342,7845,22066,0.0
-7398,7611,22205,0.0
-7400,7321,22177,0.0
-7400,7034,22144,0.0
-7402,6750,22118,0.0
-7405,6469,22094,0.0
-7394,6177,22028,0.0
-7408,5910,22032,0.0
-7410,5635,22007,0.0
-7397,5351,21933,0.0
-7395,5077,21893,0.0
-7393,4804,21850,0.0
-7376,4526,21764,0.0
-7234,4179,21312,0.0
-7362,3989,21652,0.0
-8488,4298,24924,0.0
-7411,3490,21725,0.0
-7457,3250,21823,0.0
-8445,3386,24671,0.0
-7433,2722,21675,0.0
-7402,2456,21547,0.0
-7433,2210,21600,0.0
-7441,1959,21585,0.0
-7428,1704,21507,0.0
-7397,1446,21377,0.0
-7449,1206,21490,0.0
-7437,954,21413,0.0
-7449,707,21409,0.0
-7445,459,21355,0.0
-7459,213,21354,0.0
-7458,-32,21307,0.0
-7450,-277,21242,0.0
-7461,-521,21231,0.0
-7446,-763,21148,0.0
-7446,-1006,21103,0.0
-7452,-1248,21073,0.0
-7451,-1489,21029,0.0
-7465,-1733,21026,0.0
-7461,-1972,20967,0.0
-7460,-2211,20916,0.0
-7465,-2452,20886,0.0
-7465,-2691,20840,0.0
-7463,-2929,20787,0.0
-7459,-3166,20729,0.0
-7468,-3407,20704,0.0
-7476,-3649,20678,0.0
-7468,-3883,20609,0.0
-7488,-4131,20614,0.0
-7476,-4362,20530,0.0
-7473,-4598,20473,0.0
-7477,-4838,20431,0.0
-7486,-5080,20403,0.0
-7479,-5312,20334,0.0
-7490,-5558,20311,0.0
-7495,-5800,20274,0.0
-7485,-6030,20191,0.0
-7493,-6274,20156,0.0
-7494,-6514,20105,0.0
-7490,-6749,20037,0.0
-7492,-6991,19990,0.0
-7491,-7228,19928,0.0
-7488,-7465,19862,0.0
-7496,-7714,19826,0.0
-7492,-7950,19757,0.0
-7497,-8196,19709,0.0
-7506,-8449,19675,0.0
-7505,-8691,19609,0.0
-7518,-8950,19584,0.0
-7508,-9181,19493,0.0
-7508,-9426,19430,0.0
-7515,-9682,19383,0.0
-7510,-9922,19306,0.0
-7516,-10177,19255,0.0
-7520,-10432,19201,0.0
-7440,-10569,18930,0.0
-7466,-10855,18930,0.0
-7504,-11160,18956,0.0
-7517,-11433,18919,0.0
-7511,-11678,18834,0.0
-7517,-11942,18776,0.0
-7523,-12209,18719,0.0
-7517,-12457,18628,0.0
-7514,-12712,18549,0.0
-7519,-12980,18483,0.0
-7528,-13260,18431,0.0
-7530,-13525,18355,0.0
-7531,-13794,18280,0.0
-7522,-14048,18180,0.0
-7530,-14331,18117,0.0
-7540,-14621,18058,0.0
-7527,-14871,17945,0.0
-7534,-15161,17877,0.0
-7542,-15453,17808,0.0
-7531,-15712,17696,0.0
-7544,-16020,17637,0.0
-7549,-16315,17558,0.0
-7544,-16594,17457,0.0
-7556,-16907,17388,0.0
-7547,-17181,17274,0.0
-7551,-17484,17187,0.0
-7563,-17811,17118,0.0
-7544,-18066,16975,0.0
-7521,-18314,16823,0.0
-7512,-18598,16702,0.0
-7530,-18949,16637,0.0
-7539,-19285,16552,0.0
-7420,-19293,16186,0.0
-7359,-19446,15946,0.0
-7553,-20281,16254,0.0
-7551,-20603,16137,0.0
-7549,-20929,16018,0.0
-31,-90,67,0.0
-33,-96,70,0.0
-30,-89,64,0.0
-35,-106,74,0.0
-64,-194,132,0.0
-65,-200,133,0.0
-40,-127,82,0.0
-38,-124,78,0.0
-40,-129,80,0.0
-37,-124,74,0.0
-37,-126,74,0.0
-42,-141,81,0.0
-34,-118,66,0.0
-35,-123,67,0.0
-39,-140,74,0.0
-39,-141,73,0.0
-42,-156,78,0.0
-41,-153,75,0.0
-45,-172,81,0.0
-45,-172,79,0.0
-49,-192,86,0.0
-52,-205,89,0.0
-55,-224,94,0.0
-55,-224,91,0.0
-57,-236,94,0.0
-59,-249,96,0.0
-71,-304,113,0.0
-76,-330,119,0.0
-74,-325,113,0.0
-72,-322,108,0.0
-71,-328,105,0.0
-71,-331,104,0.0
-71,-336,100,0.0
-69,-329,95,0.0
-69,-334,92,0.0
-68,-337,89,0.0
-4497,16506,14912,0.0
-4580,16432,15169,0.0
-4670,16377,15446,0.0
-4739,16245,15655,0.0
-4843,16227,15977,0.0
-4853,15894,15991,0.0
-4975,15926,16372,0.0
-4979,15578,16365,0.0
-4992,15265,16388,0.0
-5313,15876,17419,0.0
-5407,15787,17705,0.0
-5868,16742,19190,0.0
-5556,15485,18145,0.0
-5710,15547,18625,0.0
-5545,14747,18065,0.0
-5782,15017,18811,0.0
-5817,14752,18900,0.0
-5850,14483,18980,0.0
-9650,23322,31269,0.0
-9420,22220,30485,0.0
-7261,16713,23467,0.0
-7268,16319,23456,0.0
-7256,15894,23390,0.0
-7264,15513,23383,0.0
-7261,15117,23342,0.0
-9532,19340,30599,0.0
-9684,19143,31043,0.0
-7226,13913,23132,0.0
-7314,13713,23384,0.0
-10554,19260,33694,0.0
0,0,0,0.0
0,0,0,0.0
0,0,0,0.0
-10484,17103,33282,0.0
-10442,16543,33099,0.0
-10440,16059,33049,0.0
-9495,14170,30013,0.0
-9487,13729,29944,0.0
-9556,13403,30119,0.0
-9726,13210,30610,0.0
-9765,12836,30686,0.0
-9826,12491,30831,0.0
-535,658,1678,0.0
0,0,0,0.0
0,0,0,0.0
0,0,0,0.0
0,0,0,0.0
0,0,0,0.0
-10248,10046,31810,0.0
-582,547,1806,0.0
-10271,9251,31781,0.0
-10562,9098,32631,0.0
-7922,6513,24431,0.0
-8031,6294,24732,0.0
-8159,6081,25085,0.0
-8253,5835,25328,0.0
-8249,5522,25275,0.0
-8234,5202,25184,0.0
-8206,4878,25057,0.0
-8202,4573,25002,0.0
-8190,4265,24923,0.0
-8159,3951,24784,0.0
-8158,3655,24739,0.0
-7212,2970,21831,0.0
-7212,2712,21793,0.0
-7209,2454,21744,0.0
-7219,2201,21733,0.0
-7198,1941,21631,0.0
-7221,1694,21661,0.0
-7241,1445,21676,0.0
-7324,1207,21885,0.0
-7417,966,22121,0.0
-7411,711,22062,0.0
-7408,456,22011,0.0
-7270,200,21556,0.0
-7265,-47,21499,0.0
-7408,-300,21878,0.0
-7423,-551,21875,0.0
-7421,-800,21824,0.0
-7417,-1049,21771,0.0
-7417,-1298,21724,0.0
-7427,-1547,21708,0.0
-7430,-1796,21670,0.0
-7437,-2045,21645,0.0
-7430,-2289,21575,0.0
-7437,-2537,21547,0.0
-7434,-2781,21491,0.0
-7427,-3023,21420,0.0
-7438,-3274,21406,0.0
-7445,-3522,21375,0.0
-7441,-3764,21313,0.0
-7446,-4012,21281,0.0
-7442,-4253,21218,0.0
-7445,-4499,21175,0.0
-7447,-4744,21128,0.0
-7455,-4993,21097,0.0
-7457,-5239,21049,0.0
-7451,-5478,20982,0.0
-7458,-5728,20946,0.0
-7462,-5976,20903,0.0
-7459,-6218,20839,0.0
-7456,-6460,20776,0.0
-7431,-6682,20650,0.0
-7449,-6945,20645,0.0
-7456,-7195,20603,0.0
-7437,-7424,20495,0.0
-7412,-7644,20369,0.0
-7415,-7891,20316,0.0
-7448,-8175,20350,0.0
-7464,-8441,20331,0.0
-7467,-8692,20277,0.0
-7468,-8944,20220,0.0
-7478,-9206,20183,0.0
-7473,-9452,20106,0.0
-7474,-9706,20047,0.0
-7481,-9967,19999,0.0
-7474,-10214,19918,0.0
-7468,-10460,19835,0.0
-7474,-10723,19781,0.0
-7473,-10979,19713,0.0
-7474,-11239,19647,0.0
-7474,-11497,19576,0.0
-7471,-11753,19498,0.0
-7481,-12030,19451,0.0
-7478,-12290,19373,0.0
-7384,-12396,19057,0.0
-7473,-12813,19214,0.0
-7475,-13084,19144,0.0
-7482,-13365,19086,0.0
-7489,-13648,19025,0.0
-7489,-13923,18948,0.0
-7488,-14193,18864,0.0
-7485,-14464,18777,0.0
-7489,-14751,18705,0.0
-7495,-15044,18638,0.0
-7495,-15327,18554,0.0
-7501,-15625,18484,0.0
-7502,-15914,18400,0.0
-7504,-16209,18317,0.0
-7510,-16513,18241,0.0
-7507,-16802,18142,0.0
-7510,-17108,18060,0.0
-7508,-17401,17960,0.0
-7513,-17717,17879,0.0
-7512,-18020,17778,0.0
-8293,-20235,19519,0.0
-8301,-20598,19427,0.0
-8334,-21032,19395,0.0
-8351,-21427,19317,0.0
-8368,-21830,19241,0.0
-8393,-22260,19181,0.0
-8405,-22658,19086,0.0
-30,-84,70,0.0
-8095,-22545,18144,0.0
-30,-89,70,0.0
-32,-94,72,0.0
-630,-1845,1386,0.0
-30,-93,69,0.0
-29,-89,64,0.0
-35,-110,77,0.0
-31,-99,68,0.0
-32,-104,70,0.0
-37,-122,79,0.0
-40,-131,83,0.0
-34,-115,71,0.0
-37,-125,75,0.0
-546,-1873,1106,0.0
-39,-136,78,0.0
-39,-139,78,0.0
-36,-134,73,0.0
-39,-143,76,0.0
-42,-158,82,0.0
-45,-171,86,0.0
-42,-165,81,0.0
-46,-179,85,0.0
-49,-196,91,0.0
-52,-213,96,0.0
-49,-200,88,0.0
-51,-212,90,0.0
-53,-228,94,0.0
-55,-237,94,0.0
-58,-257,99,0.0
-66,-296,111,0.0
-71,-326,118,0.0
-70,-320,112,0.0
-69,-326,110,0.0
-67,-322,105,0.0
-66,-319,100,0.0
-65,-322,97,0.0
-65,-327,95,0.0
-64,-332,92,0.0
-64,-335,90,0.0
-3313,16396,15215,0.0
-3387,16335,15486,0.0
-3464,16284,15772,0.0
-3541,16224,16054,0.0
-3621,16173,16350,0.0
-3697,16098,16627,0.0
-3770,16007,16894,0.0
-3699,15311,16512,0.0
-3924,15832,17448,0.0
-3937,15488,17444,0.0
-3928,15065,17340,0.0
-4181,15636,18395,0.0
-4283,15612,18775,0.0
-4373,15540,19107,0.0
-4458,15442,19413,0.0
-4525,15277,19641,0.0
-4474,14723,19358,0.0
-4534,14542,19559,0.0
-4654,14543,20011,0.0
-4941,15043,21181,0.0
-5057,14995,21610,0.0
-5159,14901,21983,0.0
-5270,14820,22388,0.0
-5387,14746,22815,0.0
-5493,14638,23201,0.0
-5610,14546,23625,0.0
-5732,14458,24071,0.0
-5845,14341,24481,0.0
-5780,13787,24141,0.0
-5913,13708,24628,0.0
-5945,13390,24694,0.0
-6375,13948,26413,0.0
-6513,13834,26912,0.0
-6654,13716,27424,0.0
-6790,13579,27915,0.0
-6924,13424,28393,0.0
-7030,13207,28754,0.0
-7420,13501,30274,0.0
-7573,13336,30820,0.0
0,0,0,0.0
-7800,12844,31588,0.0
-8014,12746,32373,0.0
0,0,0,0.0
-7983,11819,32097,0.0
-7979,11382,32003,0.0
0,0,0,0.0
0,0,0,0.0
-5807,7366,23132,0.0
-5880,7154,23369,0.0
-5897,6874,23381,0.0
-5897,6575,23326,0.0
-6033,6425,23809,0.0
-6130,6224,24138,0.0
-6276,6065,24656,0.0
-6457,5926,25310,0.0
-6449,5609,25224,0.0
-6438,5291,25121,0.0
-6436,4985,25057,0.0
-6419,4672,24938,0.0
-6430,4380,24926,0.0
-6427,4081,24856,0.0
-6419,3781,24769,0.0
-6356,3456,24475,0.0
-6187,3085,23771,0.0
-6104,2769,23400,0.0
-6094,2494,23311,0.0
-6096,2224,23268,0.0
-6098,1957,23225,0.0
-6098,1691,23175,0.0
-6102,1426,23136,0.0
-6087,1159,23033,0.0
-6101,899,23034,0.0
-6171,645,23247,0.0
-6258,388,23523,0.0
-6320,124,23701,0.0
-6346,-143,23745,0.0
-6343,-410,23683,0.0
-6337,-674,23608,0.0
-6326,-938,23517,0.0
-6325,-1201,23458,0.0
-6321,-1462,23391,0.0
-6316,-1723,23321,0.0
-6312,-1982,23257,0.0
-6309,-2241,23190,0.0
-6303,-2498,23118,0.0
-6306,-2758,23078,0.0
-6292,-3008,22975,0.0
-6291,-3265,22919,0.0
-6293,-3523,22875,0.0
-6292,-3779,22817,0.0
-6282,-4029,22728,0.0
-6271,-4276,22634,0.0
-6273,-4533,22590,0.0
-6267,-4784,22516,0.0
-6254,-5027,22414,0.0
-6251,-5280,22352,0.0
-6257,-5539,22318,0.0
-6251,-5788,22247,0.0
-6242,-6033,22159,0.0
-6239,-6285,22094,0.0
-6237,-6538,22034,0.0
-6233,-6789,21965,0.0
-6240,-7052,21938,0.0
-6240,-7307,21879,0.0
-6238,-7563,21819,0.0
-6241,-7822,21772,0.0
-6229,-8065,21676,0.0
-6238,-8336,21652,0.0
-6242,-8601,21609,0.0
-6237,-8854,21535,0.0
-6240,-9121,21491,0.0
-6237,-9375,21418,0.0
-6238,-9642,21365,0.0
-6236,-9903,21302,0.0
-6239,-10172,21252,0.0
-6237,-10436,21187,0.0
-6241,-10711,21140,0.0
-6249,-10994,21107,0.0
-6244,-11258,21032,0.0
-6250,-11540,20989,0.0
-6260,-11833,20960,0.0
-6266,-12122,20917,0.0
-6272,-12412,20876,0.0
-6268,-12685,20799,0.0
-6277,-12987,20765,0.0
-6277,-13270,20699,0.0
-6283,-13570,20652,0.0
-6286,-13866,20596,0.0
-6294,-14175,20554,0.0
-6300,-14484,20507,0.0
-6297,-14774,20429,0.0
-6306,-15096,20389,0.0
-6305,-15394,20314,0.0
-6315,-15725,20274,0.0
-6323,-16055,20229,0.0
-6330,-16382,20175,0.0
-6338,-16720,20127,0.0
-6336,-17034,20046,0.0
-6348,-17389,20007,0.0
-6346,-17713,19927,0.0
-6354,-18064,19871,0.0
-6351,-18388,19780,0.0
-6303,-18586,19552,0.0
-6209,-18644,19181,0.0
-6198,-18949,19067,0.0
-6340,-19732,19418,0.0
-23,-75,72,0.0
-22,-74,69,0.0
-22,-75,69,0.0
-26,-89,81,0.0
-27,-95,84,0.0
-28,-101,88,0.0
-24,-86,72,0.0
-24,-88,73,0.0
-24,-93,75,0.0
-26,-100,79,0.0
-26,-103,79,0.0
-26,-105,80,0.0
-27,-110,81,0.0
-25,-105,76,0.0
-25,-107,75,0.0
-30,-128,88,0.0
-27,-116,78,0.0
-29,-128,84,0.0
-24,-109,70,0.0
-29,-132,82,0.0
-31,-141,85,0.0
-27,-127,75,0.0
-33,-158,91,0.0
-30,-146,82,0.0
-30,-151,83,0.0
-32,-162,86,0.0
-31,-161,84,0.0
-34,-177,89,0.0
-34,-182,89,0.0
-35,-190,91,0.0
-35,-191,89,0.0
-35,-195,89,0.0
-38,-218,96,0.0
-36,-212,90,0.0
-37,-222,92,0.0
-41,-244,98,0.0
-39,-239,94,0.0
-46,-281,106,0.0
-50,-319,116,0.0
-49,-319,112,0.0
-48,-315,107,0.0
-47,-318,105,0.0
-47,-321,102,0.0
-46,-325,99,0.0
-46,-329,97,0.0
-44,-322,91,0.0
-6179,40047,37724,0.0
0,0,0,0.0
0,0,0,0.0
-3031,18007,18085,0.0
-3097,17875,18341,0.0
-3062,17176,18006,0.0
-3197,17436,18676,0.0
-2958,15682,17164,0.0
-3288,16949,18954,0.0
-3353,16813,19214,0.0
-3124,15231,17790,0.0
-3195,15150,18087,0.0
-3212,14815,18079,0.0
-3456,15504,19343,0.0
-3583,15633,19942,0.0
-3640,15443,20145,0.0
-3659,15101,20146,0.0
-3760,15090,20594,0.0
-3831,14955,20882,0.0
-3845,14591,20848,0.0
-3853,14219,20794,0.0
-4140,14855,22240,0.0
-4234,14768,22639,0.0
-4333,14686,23058,0.0
-4429,14588,23465,0.0
-4531,14500,23901,0.0
-4629,14386,24310,0.0
-4739,14304,24783,0.0
-4818,14118,25093,0.0
-4935,14033,25594,0.0
-4989,13767,25774,0.0
-4999,13381,25726,0.0
-5296,13742,27144,0.0
-5420,13633,27678,0.0
-5546,13516,28219,0.0
-5665,13368,28718,0.0
-5760,13154,29088,0.0
-5873,12975,29555,0.0
-5991,12796,30043,0.0
-6281,12961,31385,0.0
-6403,12760,31890,0.0
-6511,12520,32321,0.0
-6553,12148,32419,0.0
0,0,0,0.0
0,0,0,0.0
-6546,10819,32070,0.0
-6531,10369,31897,0.0
-6485,9880,31576,0.0
-5049,7370,24503,0.0
-5161,7212,24977,0.0
-5265,7030,25400,0.0
-5291,6742,25453,0.0
-5299,6431,25414,0.0
-5294,6109,25318,0.0
-5298,5799,25262,0.0
-5295,5486,25175,0.0
-5287,5172,25071,0.0
-5284,4866,24986,0.0
-4965,4290,23414,0.0
-4924,3977,23153,0.0
-4969,3737,23305,0.0
-4990,3477,23339,0.0
-4998,3208,23316,0.0
-4996,2935,23246,0.0
-5002,2669,23215,0.0
-5000,2400,23143,0.0
-5005,2136,23104,0.0
-5006,1873,23056,0.0
-5006,1610,22991,0.0
-5009,1350,22951,0.0
-5008,1091,22890,0.0
-5024,836,22907,0.0
-5066,584,23041,0.0
-5071,326,23010,0.0
-5071,69,22952,0.0
-5074,-186,22908,0.0
-5071,-440,22843,0.0
-5079,-695,22822,0.0
-5078,-948,22762,0.0
-5034,-1189,22511,0.0
-5051,-1443,22536,0.0
-5047,-1690,22464,0.0
-5017,-1927,22275,0.0
-5073,-2197,22471,0.0
-5072,-2446,22416,0.0
-5069,-2691,22351,0.0
-5070,-2938,22301,0.0
-5072,-3186,22258,0.0
-5073,-3434,22213,0.0
-5072,-3679,22155,0.0
-5075,-3927,22118,0.0
-5069,-4169,22046,0.0
-5072,-4417,22004,0.0
-5066,-4658,21931,0.0
-5068,-4906,21888,0.0
-5069,-5152,21841,0.0
-5068,-5397,21786,0.0
-5066,-5640,21728,0.0
-5064,-5886,21675,0.0
-5058,-6124,21596,0.0
-5062,-6377,21562,0.0
-5053,-6613,21478,0.0
-5026,-6824,21310,0.0
-5025,-7070,21261,0.0
-5025,-7318,21210,0.0
-5051,-7605,21269,0.0
-5053,-7861,21231,0.0
-5051,-8110,21175,0.0
-5048,-8356,21110,0.0
-5044,-8604,21047,0.0
-5045,-8861,21003,0.0
-5012,-9056,20813,0.0
-5027,-9342,20832,0.0
-5026,-9596,20775,0.0
-5031,-9865,20746,0.0
-5029,-10123,20691,0.0
-5024,-10374,20619,0.0
-5022,-10634,20562,0.0
-5023,-10901,20514,0.0
-5021,-11163,20455,0.0
-5019,-11431,20402,0.0
-5016,-11695,20339,0.0
-5010,-11951,20259,0.0
-5007,-12222,20202,0.0
-5000,-12483,20124,0.0
-4986,-12724,20014,0.0
-5010,-13069,20060,0.0
-5007,-13346,19997,0.0
-5004,-13624,19929,0.0
-5001,-13906,19865,0.0
-4989,-14165,19766,0.0
-4960,-14380,19602,0.0
-4970,-14705,19586,0.0
-4973,-15015,19544,0.0
-4823,-14858,18904,0.0
-4984,-15661,19477,0.0
-4986,-15983,19433,0.0
-4972,-16255,19324,0.0
-4976,-16587,19281,0.0
-4976,-16914,19227,0.0
-4968,-17215,19138,0.0
-4963,-17531,19061,0.0
-4957,-17846,18979,0.0
-4961,-18205,18937,0.0
-4942,-18479,18803,0.0
-15,-55,55,0.0
-17,-64,63,0.0
-20,-80,77,0.0
-26,-101,95,0.0
-25,-100,91,0.0
-27,-113,101,0.0
-27,-116,101,0.0
-24,-103,88,0.0
-24,-104,87,0.0
-23,-101,83,0.0
-24,-107,85,0.0
-24,-110,85,0.0
-23,-107,81,0.0
-24,-114,85,0.0
-25,-124,90,0.0
-22,-109,78,0.0
-23,-118,81,0.0
-25,-128,87,0.0
-22,-117,77,0.0
-24,-129,84,0.0
-24,-136,86,0.0
-24,-140,86,0.0
-26,-149,89,0.0
-24,-143,83,0.0
-27,-163,93,0.0
-28,-171,95,0.0
-26,-164,89,0.0
-30,-186,99,0.0
-29,-192,99,0.0
-28,-182,91,0.0
-29,-196,96,0.0
-29,-203,97,0.0
-30,-211,97,0.0
-30,-218,98,0.0
-30,-220,96,0.0
-29,-222,94,0.0
-32,-244,99,0.0
-31,-244,97,0.0
-32,-256,98,0.0
-38,-310,116,0.0
-38,-323,116,0.0
-38,-329,115,0.0
-38,-335,113,0.0
-36,-328,107,0.0
-35,-330,104,0.0
-35,-336,101,0.0
-34,-330,95,0.0
-1841,15607,14846,0.0
-1878,15393,14958,0.0
-2280,18069,17936,0.0
-2331,17875,18127,0.0
-2407,17867,18511,0.0
-2476,17801,18842,0.0
-2525,17578,19011,0.0
-2543,17156,18957,0.0
-2551,16670,18823,0.0
-2566,16260,18762,0.0
-2577,15831,18670,0.0
-2585,15397,18560,0.0
-2601,15023,18511,0.0
-2615,14651,18455,0.0
-3069,16684,21488,0.0
-3100,16351,21536,0.0
-3111,15917,21443,0.0
-3131,15542,21415,0.0
-2950,14212,20036,0.0
-3009,14058,20282,0.0
-3148,14276,21080,0.0
-3184,14011,21179,0.0
-4640,19802,30652,0.0
-4632,19179,30408,0.0
-4746,19058,30956,0.0
-4161,16206,26976,0.0
-4258,16083,27443,0.0
-4358,15957,27923,0.0
-4378,15537,27888,0.0
-4402,15138,27884,0.0
-4409,14689,27774,0.0
-4122,13302,25831,0.0
-4241,13248,26433,0.0
-4285,12956,26571,0.0
-4588,13419,28304,0.0
-4707,13315,28895,0.0
-4908,13420,29984,0.0
-4984,13169,30311,0.0
-5163,13172,31252,0.0
-5196,12795,31311,0.0
-5336,12672,32007,0.0
-5389,12331,32179,0.0
-5408,11919,32155,0.0
-5408,11472,32021,0.0
-5433,11081,32036,0.0
-5435,10647,31916,0.0
-5418,10184,31684,0.0
-5393,9717,31415,0.0
-4225,7288,24519,0.0
-4384,7230,25342,0.0
-4433,6980,25528,0.0
-4430,6650,25417,0.0
-4436,6338,25361,0.0
-16,20,87,0.0
-19,23,105,0.0
-13,16,77,0.0
-16,17,88,0.0
-8,8,46,0.0
-4,3,25,0.0
-4444,4197,24804,0.0
-4440,3900,24706,0.0
-4438,3606,24611,0.0
-4371,3268,24163,0.0
-4384,2997,24163,0.0
-4441,2753,24407,0.0
-4297,2392,23539,0.0
-4285,2116,23401,0.0
-4308,1860,23461,0.0
-4292,1588,23307,0.0
-4348,1343,23545,0.0
-4381,1087,23652,0.0
-4372,820,23547,0.0
-4380,558,23518,0.0
-4348,296,23284,0.0
-4346,37,23207,0.0
-4366,-220,23260,0.0
-4366,-477,23194,0.0
-4369,-733,23153,0.0
-4367,-987,23086,0.0
-4262,-1210,22470,0.0
-4271,-1460,22458,0.0
-4271,-1706,22404,0.0
-4231,-1933,22138,0.0
-4359,-2242,22753,0.0
-4378,-2501,22797,0.0
-4385,-2755,22776,0.0
-4388,-3007,22736,0.0
-4372,-3246,22604,0.0
-4390,-3508,22642,0.0
-4384,-3752,22561,0.0
-4387,-4003,22524,0.0
-4382,-4247,22450,0.0
-4396,-4510,22468,0.0
-4387,-4749,22371,0.0
-4384,-4995,22308,0.0
-4357,-5212,22121,0.0
-4362,-5468,22099,0.0
-4328,-5670,21878,0.0
-4363,-5966,22009,0.0
-4358,-6208,21937,0.0
-4347,-6442,21837,0.0
-4254,-6548,21318,0.0
-4195,-6699,20977,0.0
-4194,-6941,20933,0.0
-4176,-7153,20796,0.0
-4244,-7518,21093,0.0
-4341,-7943,21530,0.0
-4338,-8194,21471,0.0
-4324,-8423,21358,0.0
-4333,-8700,21364,0.0
-4305,-8899,21179,0.0
-4291,-9129,21067,0.0
-4320,-9453,21168,0.0
-4318,-9712,21118,0.0
-4309,-9955,21031,0.0
-4307,-10216,20976,0.0
-4300,-10467,20903,0.0
-4321,-10790,20964,0.0
-4317,-11053,20904,0.0
-4286,-11249,20717,0.0
-4301,-11566,20748,0.0
-4309,-11864,20743,0.0
-4306,-12140,20690,0.0
-4294,-12389,20589,0.0
-4282,-12644,20498,0.0
-4288,-12950,20483,0.0
-4289,-13246,20449,0.0
-4283,-13524,20383,0.0
-4287,-13840,20365,0.0
-4294,-14164,20357,0.0
-4286,-14448,20284,0.0
-4111,-14154,19414,0.0
-4153,-14604,19574,0.0
-4132,-14841,19441,0.0
-4016,-14728,18859,0.0
-4250,-15910,19916,0.0
-4280,-16359,20022,0.0
-4282,-16702,19989,0.0
-4273,-17011,19909,0.0
-4269,-17344,19852,0.0
-4269,-17698,19814,0.0
-4275,-18082,19801,0.0
-4265,-18407,19719,0.0
-4268,-18791,19692,0.0
-10,-47,47,0.0
-12,-58,58,0.0
-15,-71,69,0.0
-16,-77,74,0.0
-13,-64,60,0.0
-14,-72,67,0.0
-17,-88,79,0.0
-18,-92,82,0.0
-17,-86,74,0.0
-18,-98,82,0.0
-16,-88,72,0.0
-17,-95,76,0.0
-18,-101,80,0.0
-19,-107,82,0.0
-20,-119,89,0.0
-20,-120,87,0.0
-19,-119,86,0.0
-18,-116,82,0.0
-18,-118,81,0.0
-21,-141,94,0.0
-19,-128,84,0.0
-20,-135,86,0.0
-20,-141,88,0.0
-21,-147,90,0.0
-20,-147,88,0.0
-22,-160,91,0.0
-22,-169,94,0.0
-21,-161,89,0.0
-22,-178,95,0.0
-21,-175,91,0.0
-22,-190,96,0.0
-21,-182,90,0.0
-22,-192,93,0.0
-21,-195,91,0.0
-22,-206,94,0.0
-24,-226,100,0.0
-22,-218,93,0.0
-24,-237,98,0.0
-24,-249,100,0.0
-24,-251,98,0.0
-27,-298,112,0.0
-28,-317,116,0.0
-28,-322,115,0.0
-26,-318,109,0.0
-27,-331,109,0.0
-26,-326,104,0.0
-25,-329,101,0.0
-25,-335,99,0.0
-1437,15364,14702,0.0
-1477,15190,14847,0.0
-3303,32698,32650,0.0
-1863,17758,18114,0.0
-1916,17607,18348,0.0
-1888,16734,17816,0.0
-1913,16357,17793,0.0
-1925,15889,17659,0.0
-1932,15405,17495,0.0
-1945,14984,17390,0.0
-2106,15678,18597,0.0
-2063,14845,17998,0.0
-2141,14904,18470,0.0
-2173,14629,18535,0.0
-2402,15649,20272,0.0
-3733,23524,31162,0.0
-2501,15262,20677,0.0
-2588,15285,21184,0.0
-2623,15001,21271,0.0
-2656,14700,21330,0.0
-2660,14259,21177,0.0
-2693,13975,21248,0.0
-3848,19334,30102,0.0
-3952,19236,30676,0.0
-4021,18949,30960,0.0
-4410,20114,33679,0.0
-4433,19574,33599,0.0
-3583,15314,26956,0.0
-3667,15171,27393,0.0
-3760,15049,27886,0.0
-3768,14589,27751,0.0
-3645,13651,26668,0.0
-3650,13216,26527,0.0
-3738,13085,26999,0.0
-3783,12795,27153,0.0
-3828,12505,27306,0.0
-3713,11712,26332,0.0
-3796,11556,26762,0.0
-4484,13167,31437,0.0
-4530,12823,31580,0.0
-4628,12621,32087,0.0
-4669,12261,32199,0.0
-4678,11820,32096,0.0
-4690,11391,32010,0.0
-4699,10964,31912,0.0
-4715,10559,31865,0.0
-4707,10106,31656,0.0
-3403,6996,22777,0.0
-3741,7358,24926,0.0
-3827,7192,25385,0.0
-3862,6921,25497,0.0
-3862,6594,25394,0.0
-3867,6279,25316,0.0
-3546,5464,23118,0.0
-3403,4967,22095,0.0
-3512,4843,22707,0.0
-3583,4656,23076,0.0
-3619,4420,23217,0.0
-3890,4449,24861,0.0
-3888,4151,24760,0.0
-3895,3862,24705,0.0
-3897,3573,24629,0.0
-3903,3291,24585,0.0
-3895,2999,24448,0.0
-3903,2721,24411,0.0
-3717,2325,23173,0.0
-3743,2075,23255,0.0
-3780,1829,23409,0.0
-3753,1553,23166,0.0
-3789,1305,23316,0.0
-3627,999,22247,0.0
-3617,749,22117,0.0
-3629,505,22130,0.0
-3635,260,22095,0.0
-44,0,270,0.0
-3605,-224,21791,0.0
-3913,-503,23585,0.0
-3848,-748,23125,0.0
-3912,-1017,23450,0.0
-3873,-1262,23154,0.0
-3748,-1465,22347,0.0
-3772,-1720,22429,0.0
-3793,-1975,22498,0.0
-3906,-2287,23109,0.0
-3640,-2365,21480,0.0
-3644,-2602,21455,0.0
-3648,-2839,21423,0.0
-3641,-3067,21329,0.0
-3893,-3529,22751,0.0
-3892,-3777,22693,0.0
-3893,-4028,22647,0.0
-3892,-4274,22587,0.0
-3891,-4521,22528,0.0
-3886,-4766,22456,0.0
-3886,-5016,22407,0.0
-3856,-5224,22187,0.0
-3871,-5493,22225,0.0
-3872,-5743,22184,0.0
-3642,-5637,20823,0.0
-3647,-5881,20810,0.0
-3640,-6106,20728,0.0
-3642,-6345,20693,0.0
-3750,-6781,21272,0.0
-3839,-7192,21730,0.0
-3704,-7185,20929,0.0
-3824,-7672,21572,0.0
-3626,-7515,20412,0.0
-3826,-8186,21498,0.0
-3625,-8000,20334,0.0
-3807,-8661,21317,0.0
-3641,-8531,20351,0.0
-3810,-9189,21261,0.0
-3817,-9470,21263,0.0
-3792,-9670,21084,0.0
-3601,-9440,19996,0.0
-3595,-9675,19923,0.0
-3596,-9936,19900,0.0
-3585,-10165,19809,0.0
-3581,-10416,19757,0.0
-3591,-10710,19785,0.0
-3795,-11599,20874,0.0
-3797,-11890,20854,0.0
-3788,-12151,20777,0.0
-3553,-11668,19456,0.0
-3548,-11929,19405,0.0
-3542,-12187,19343,0.0
-3539,-12462,19305,0.0
-3529,-12709,19221,0.0
-3543,-13048,19270,0.0
-3542,-13338,19241,0.0
-3507,-13502,19025,0.0
-3513,-13823,19033,0.0
-3507,-14104,18976,0.0
-3491,-14348,18868,0.0
-3482,-14625,18801,0.0
-3478,-14924,18757,0.0
-3473,-15220,18703,0.0
-3462,-15503,18631,0.0
-3383,-15468,18180,0.0
-3284,-15340,17634,0.0
-3259,-15550,17485,0.0
-3258,-15872,17457,0.0
-3249,-16160,17388,0.0
-3242,-16473,17339,0.0
-11,-54,55,0.0
-9,-45,46,0.0
-11,-56,56,0.0
-10,-54,52,0.0
-13,-73,69,0.0
-12,-69,64,0.0
-11,-60,54,0.0
-14,-82,72,0.0
-10,-65,57,0.0
-15,-93,78,0.0
-16,-102,84,0.0
-16,-102,83,0.0
-14,-94,74,0.0
-14,-93,72,0.0
-16,-114,86,0.0
-16,-119,87,0.0
-16,-120,87,0.0
-15,-110,77,0.0
-17,-126,87,0.0
-15,-119,80,0.0
-15,-122,80,0.0
-16,-135,86,0.0
-17,-148,93,0.0
-17,-144,88,0.0
-16,-145,86,0.0
-17,-151,88,0.0
-18,-163,93,0.0
-17,-161,89,0.0
-18,-177,95,0.0
-19,-183,96,0.0
-18,-190,96,0.0
-18,-192,95,0.0
-18,-203,99,0.0
-19,-210,100,0.0
-19,-217,99,0.0
-19,-218,97,0.0
-18,-218,95,0.0
-18,-228,96,0.0
-18,-242,98,0.0
-18,-243,96,0.0
-20,-272,104,0.0
-22,-314,116,0.0
-22,-327,117,0.0
-22,-325,113,0.0
-21,-326,109,0.0
-20,-330,106,0.0
-19,-335,104,0.0
-19,-341,102,0.0
0,0,0,0.0
-1081,14953,14693,0.0
-1116,14738,14794,0.0
0,0,0,0.0
-2593,31334,32826,0.0
0,0,0,0.0
-2640,29310,32051,0.0
0,0,0,0.0
-2727,27911,31865,0.0
-2779,27341,31899,0.0
-1689,15979,19052,0.0
-2813,25620,31224,0.0
-1736,15228,18971,0.0
-2858,24136,30740,0.0
-1916,15593,20306,0.0
-2959,23211,30910,0.0
-2946,22293,30364,0.0
-2079,15171,21138,0.0
-2115,14891,21227,0.0
-2156,14657,21381,0.0
-3075,20182,30133,0.0
-3151,19967,30521,0.0
-3156,19311,30227,0.0
-3272,19335,30999,0.0
-3608,20593,33827,0.0
-3639,20064,33775,0.0
-3673,19557,33750,0.0
-2933,15084,26695,0.0
-3161,15698,28501,0.0
-3105,14891,27743,0.0
-3131,14497,27729,0.0
-3142,14042,27585,0.0
-3168,13666,27584,0.0
-3224,13418,27840,0.0
-3303,13262,28301,0.0
-3215,12449,27339,0.0
-3148,11749,26567,0.0
-3220,11581,26975,0.0
-3796,13148,31573,0.0
-3845,12821,31760,0.0
-3932,12615,32258,0.0
-3969,12243,32345,0.0
-3973,11778,32173,0.0
0,0,0,0.0
-4003,10931,32012,0.0
-2840,7434,22574,0.0
-2851,7149,22536,0.0
-2864,6867,22499,0.0
-2869,6574,22413,0.0
-2875,6288,22343,0.0
-2882,6008,22279,0.0
-2894,5738,22245,0.0
-2896,5455,22149,0.0
-2909,5195,22135,0.0
-2914,4926,22074,0.0
-2918,4655,21990,0.0
-2925,4396,21951,0.0
-2931,4133,21885,0.0
-2934,3874,21817,0.0
-2940,3618,21763,0.0
-2946,3366,21719,0.0
-2951,3114,21662,0.0
-2956,2865,21608,0.0
-2960,2616,21547,0.0
-2964,2370,21487,0.0
-2965,2124,21411,0.0
-2974,1885,21399,0.0
-2974,1643,21320,0.0
-2977,1404,21263,0.0
-2983,1167,21231,0.0
-2984,931,21163,0.0
-2985,696,21097,0.0
-2987,462,21046,0.0
-2991,230,21008,0.0
-2988,0,20914,0.0
-3052,-233,21298,0.0
-3143,-480,21865,0.0
-3154,-722,21870,0.0
-3149,-958,21767,0.0
-3152,-1196,21733,0.0
-3158,-1434,21706,0.0
-3158,-1669,21647,0.0
-3157,-1904,21580,0.0
-3158,-2138,21532,0.0
-3164,-2376,21516,0.0
-3161,-2607,21446,0.0
-3164,-2842,21403,0.0
-3163,-3073,21347,0.0
-3165,-3308,21307,0.0
-3160,-3535,21228,0.0
-3165,-3773,21213,0.0
-3162,-4001,21140,0.0
-3165,-4239,21121,0.0
-3164,-4470,21064,0.0
-3163,-4701,21014,0.0
-3158,-4926,20937,0.0
-3166,-5172,20945,0.0
-3161,-5398,20873,0.0
-3154,-5620,20786,0.0
-3154,-5857,20751,0.0
-3157,-6097,20729,0.0
-3150,-6321,20647,0.0
-3150,-6560,20615,0.0
-3143,-6783,20531,0.0
-3147,-7031,20521,0.0
-3144,-7267,20471,0.0
-3140,-7498,20408,0.0
-3133,-7727,20338,0.0
-3130,-7966,20291,0.0
-3124,-8196,20222,0.0
-3128,-8456,20220,0.0
-3123,-8692,20159,0.0
-3123,-8944,20133,0.0
-3116,-9177,20060,0.0
-3111,-9419,20003,0.0
-3103,-9653,19929,0.0
-3103,-9911,19904,0.0
-3099,-10164,19862,0.0
-3093,-10407,19798,0.0
-3091,-10670,19769,0.0
-3081,-10908,19689,0.0
-3084,-11192,19690,0.0
-3086,-11475,19681,0.0
-3073,-11711,19589,0.0
-3080,-12019,19612,1.0
-3080,-12314,19609,1.0
-3079,-12601,19586,1.0
-3092,-12953,19655,1.0
-3098,-13281,19680,1.0
-3096,-13581,19656,1.0
-3097,-13903,19659,1.0
-3082,-14156,19558,1.0
-3093,-14534,19625,1.0
-3085,-14821,19561,1.0
-3070,-15086,19465,1.0
-3082,-15488,19539,1.0
-3004,-15439,19045,1.0
-2942,-15458,18648,0.0
-2861,-15371,18137,0.0
-2802,-15392,17762,0.0
-2763,-15516,17516,0.0
-2753,-15813,17464,0.0
-2745,-16123,17418,0.0
-2735,-16419,17356,0.0
-2722,-16714,17285,0.0
-10,-58,59,0.0
-10,-65,65,0.0
-10,-70,68,0.0
-13,-85,81,0.0
-12,-83,77,0.0
-10,-74,67,0.0
-13,-88,78,0.0
-13,-93,81,0.0
-14,-98,84,0.0
-13,-105,86,0.0
-13,-106,86,0.0
-12,-104,82,0.0
-14,-116,90,0.0
-14,-123,94,0.0
-14,-125,93,0.0
-13,-113,82,0.0
-12,-114,80,0.0
-12,-112,77,0.0
-13,-123,83,0.0
-13,-127,84,0.0
-12,-125,80,0.0
-14,-139,88,0.0
-13,-141,87,0.0
-14,-158,95,0.0
-14,-160,93,0.0
-14,-169,96,0.0
-13,-161,89,0.0
-14,-170,93,0.0
-14,-178,94,0.0
-14,-191,98,0.0
-14,-190,96,0.0
-15,-209,102,0.0
-15,-220,105,0.0
-15,-221,102,0.0
-14,-237,106,0.0
-14,-225,98,0.0
-14,-236,100,0.0
-14,-248,101,0.0
-13,-249,99,0.0
-14,-275,106,0.0
-15,-301,113,0.0
-15,-322,116,0.0
-15,-328,114,0.0
-15,-333,112,0.0
-14,-335,109,0.0
-14,-340,107,0.0
-13,-342,103,0.0
-120,17371,16895,0.0
-148,15833,15730,0.0
-201,16926,17178,0.0
-201,14058,14574,0.0
-277,16403,17372,0.0
-303,15515,16787,0.0
-343,15460,17091,0.0
-383,15391,17384,0.0
-419,15160,17497,0.0
-799,26259,30972,0.0
-860,25831,31138,0.0
-917,25309,31182,0.0
-960,24472,30821,0.0
-662,15656,20158,0.0
-1080,23782,31310,0.0
-731,15026,20230,0.0
-797,15362,21154,0.0
-827,14962,21077,0.0
-866,14768,21284,0.0
-1304,20950,30900,0.0
-1318,20003,30199,0.0
-1381,19844,30671,0.0
-1408,19177,30352,0.0
-1478,19098,30961,0.0
-1654,20297,33715,0.0
-1692,19739,33604,0.0
-1732,19233,33568,0.0
-1416,14979,26812,0.0
-1805,18198,33415,0.0
-1529,14697,27696,0.0
-1557,14286,27639,0.0
-1585,13879,27581,0.0
-1615,13506,27579,0.0
-1638,13089,27476,0.0
-1664,12703,27427,0.0
-1821,13280,29511,0.0
-1685,11742,26866,0.0
-1725,11491,27090,0.0
-2046,13019,31644,0.0
-2061,12529,31415,0.0
-2123,12324,31904,0.0
-2168,12017,32145,0.0
-2197,11626,32160,0.0
-2206,11139,31893,0.0
-2235,10760,31916,0.0
-1596,7325,22533,0.0
-1612,7044,22499,0.0
-1625,6754,22428,0.0
-1639,6475,22380,0.0
-1650,6189,22295,0.0
-1659,5903,22198,0.0
-1674,5640,22182,0.0
-1684,5366,22109,0.0
-1696,5102,22065,0.0
-1706,4835,21999,0.0
-1716,4571,21930,0.0
-1725,4310,21868,0.0
-1735,4056,21828,0.0
-1745,3802,21780,0.0
-1753,3548,21719,0.0
-1759,3292,21634,0.0
-1765,3041,21560,0.0
-1774,2795,21512,0.0
-1780,2550,21443,0.0
-1789,2310,21413,0.0
-1794,2067,21345,0.0
-1803,1831,21324,0.0
-1810,1594,21282,0.0
-1816,1357,21226,0.0
-1819,1122,21154,0.0
-1826,888,21126,0.0
-1830,657,21071,0.0
-1837,426,21033,0.0
-1841,196,20981,0.0
-1831,-31,20776,0.0
-1888,-265,21317,0.0
-1943,-509,21851,0.0
-2009,-770,22491,1.0
-2028,-1022,22620,1.0
-2025,-1262,22498,1.0
-2041,-1515,22593,1.0
-2052,-1766,22631,1.0
-2062,-2018,22672,1.0
-2080,-2280,22792,1.0
-2101,-2548,22942,1.0
-2122,-2822,23108,1.0
-2124,-3073,23063,1.0
-2134,-3335,23107,1.0
-2141,-3596,23122,1.0
-2158,-3876,23254,1.0
-2185,-4179,23485,1.0
-2203,-4469,23620,1.0
-2203,-4727,23571,1.0
-2214,-5010,23643,1.0
-2205,-5248,23497,1.0
-2202,-5504,23439,1.0
-2207,-5775,23443,1.0
-2211,-6051,23460,1.0
-2202,-6290,23330,1.0
-2202,-6554,23297,1.0
-2197,-6807,23221,1.0
-2178,-7015,22998,1.0
-2162,-7229,22802,1.0
-2146,-7445,22625,1.0
-2152,-7736,22673,1.0
-2147,-7989,22605,1.0
-2116,-8148,22277,1.0
-2091,-8323,22009,1.0
-2090,-8592,21994,1.0
-2103,-8926,22133,1.0
-2098,-9186,22079,1.0
-2100,-9481,22107,1.0
-2103,-9789,22154,1.0
-2091,-10030,22046,1.0
-2084,-10296,21995,1.0
-2057,-10465,21735,1.0
-2030,-10625,21465,1.0
-2005,-10798,21229,1.0
-2009,-11128,21301,1.0
-2035,-11586,21601,1.0
-2040,-11944,21700,1.0
-2034,-12238,21671,1.0
-2025,-12523,21623,1.0
-2019,-12835,21615,1.0
-2008,-13114,21548,1.0
-1994,-13379,21454,1.0
-1970,-13582,21260,1.0
-1943,-13759,21030,1.0
-1932,-14051,20975,1.0
-1905,-14235,20757,1.0
-1878,-14413,20533,1.0
-1862,-14685,20446,1.0
-1838,-14896,20270,1.0
-1806,-15043,20011,1.0
-1772,-15167,19726,1.0
-1744,-15342,19512,1.0
-1709,-15458,19225,1.0
-1650,-15338,18658,0.0
-1618,-15470,18406,0.0
-1569,-15427,17955,0.0
-1522,-15400,17535,0.0
-1506,-15684,17472,0.0
-1486,-15929,17362,0.0
-1472,-16253,17333,0.0
-1455,-16545,17265,0.0
-1438,-16860,17216,0.0
-5,-68,69,0.0
-6,-74,73,0.0
-5,-67,65,0.0
-6,-78,74,0.0
-5,-69,63,0.0
-7,-92,83,0.0
-7,-106,93,0.0
-6,-98,83,0.0
-7,-105,88,0.0
-6,-101,83,0.0
-7,-113,91,0.0
-6,-114,89,0.0
-6,-109,84,0.0
-6,-121,90,0.0
-6,-121,88,0.0
-6,-125,90,0.0
-6,-136,95,0.0
-5,-114,79,0.0
-5,-127,86,0.0
-5,-123,80,0.0
-5,-141,90,0.0
-5,-138,86,0.0
-4,-150,91,0.0
-5,-150,89,0.0
-5,-161,93,0.0
-5,-170,95,0.0
-5,-172,95,0.0
-4,-167,90,0.0
-4,-190,99,0.0
-3,-183,93,0.0
-3,-202,100,0.0
-4,-216,104,0.0
-3,-207,97,0.0
-3,-219,99,0.0
-2,-231,103,0.0
-2,-236,102,0.0
-1,-235,98,0.0
0,-235,95,0.0
0,-253,100,0.0
0,-259,98,0.0
0,-314,116,0.0
0,-323,114,0.0
0,-325,112,0.0
2,-329,109,0.0
2,-327,104,0.0
3,-328,101,0.0
463,15127,14787,0.0
425,14783,14762,0.0
371,13852,14128,0.0
343,13736,14313,0.0
312,13601,14478,0.0
285,13599,14788,0.0
292,15440,17155,0.0
260,15347,17423,0.0
258,17472,20268,0.0
219,17242,20440,0.0
180,17002,20598,0.0
140,16799,20802,0.0
101,16567,20971,0.0
63,16344,21152,0.0
25,16122,21333,0.0
-12,14815,20047,0.0
-47,14703,20350,0.0
-86,15248,21589,0.0
-120,14730,21339,0.0
-155,14486,21476,0.0
-216,16156,24515,0.0
-311,19365,30086,0.0
-361,19221,30581,0.0
-412,18999,30962,0.0
-496,20154,33652,0.0
-541,19605,33551,0.0
-461,15033,26377,0.0
-495,14639,26341,0.0
-530,14271,26344,0.0
-570,14091,26696,0.0
-609,13855,26951,0.0
-620,13042,26056,0.0
-682,13297,27299,0.0
-699,12663,26730,0.0
-742,12519,27179,0.0
-838,13203,29500,0.0
-787,11611,26717,0.0
-828,11429,27096,0.0
-982,12724,31101,0.0
-1031,12551,31651,0.0
-1080,12361,32187,0.0
-1107,11917,32061,0.0
-1138,11537,32102,0.0
-1166,11131,32059,0.0
0,0,0,0.0
-856,7260,22472,0.0
-875,6985,22450,0.0
-892,6706,22406,0.0
-907,6419,22323,0.0
-922,6135,22246,0.0
-935,5853,22154,0.0
-951,5591,22136,0.0
-965,5328,22099,0.0
-977,5056,22015,0.0
-991,4797,21980,0.0
-1003,4530,21893,0.0
-1013,4267,21818,0.0
-1027,4018,21797,0.0
-1038,3766,21748,0.0
-1048,3513,21689,0.0
-1059,3263,21629,0.0
-1068,3016,21578,0.0
-1076,2767,21497,0.0
-1087,2528,21470,0.0
-1096,2286,21418,0.0
-1103,2044,21347,0.0
-1109,1804,21277,0.0
-1117,1568,21223,0.0
-1126,1335,21197,0.0
-1132,1101,21136,0.0
-1138,868,21078,0.0
-1145,638,21038,0.0
-1150,409,20982,0.0
-1156,180,20937,0.0
-1148,-46,20652,0.0
-1192,-279,21323,0.0
-1232,-524,21881,0.0
-1282,-788,22630,1.0
-1301,-1044,22852,1.0
-1323,-1308,23109,1.0
-1347,-1581,23429,1.0
-1354,-1836,23424,1.0
-1364,-2098,23485,1.0
-1377,-2370,23628,1.0
-1389,-2642,23734,1.0
-1399,-2912,23804,1.0
-1407,-3182,23861,1.0
-1420,-3466,23997,1.0
-1423,-3728,23967,1.0
-1432,-4013,24071,1.0
-1437,-4284,24084,1.0
-1436,-4541,24014,1.0
-1452,-4857,24241,1.0
-1487,-5248,24788,1.0
-1493,-5540,24833,1.0
-1493,-5820,24814,1.0
-1487,-6076,24696,1.0
-1476,-6309,24497,1.0
-1470,-6562,24380,1.0
-1466,-6824,24297,1.0
-1467,-7112,24308,1.0
-1457,-7355,24157,1.0
-1455,-7635,24136,1.0
-1451,-7912,24097,1.0
-1438,-8132,23890,1.0
-1428,-8378,23759,1.0
-1406,-8546,23422,1.0
-1387,-8736,23162,1.0
-1371,-8938,22939,1.0
-1351,-9116,22665,1.0
-1349,-9413,22689,1.0
-1333,-9612,22475,1.0
-1336,-9962,22611,1.0
-1330,-10243,22581,1.0
-1315,-10469,22429,1.0
-1286,-10572,22024,1.0
-1261,-10699,21682,1.0
-1249,-10945,21587,1.0
-1247,-11280,21661,1.0
-1253,-11706,21897,1.0
-1254,-12094,22045,1.0
-1250,-12456,22130,1.0
-1238,-12725,22047,1.0
-1225,-13011,21987,1.0
-1209,-13261,21865,1.0
-1192,-13512,21744,1.0
-1177,-13781,21650,1.0
-1153,-13957,21409,1.0
-1133,-14195,21267,1.0
-1115,-14444,21139,1.0
-1096,-14688,21006,1.0
-1070,-14858,20766,1.0
-1052,-15120,20654,1.0
-1018,-15159,20244,1.0
-985,-15229,19885,1.0
-959,-15375,19632,1.0
-931,-15506,19362,1.0
-889,-15384,18789,1.0
-860,-15480,18494,0.0
-820,-15381,17976,0.0
-785,-15341,17542,0.0
-765,-15600,17453,0.0
-743,-15841,17342,0.0
-726,-16185,17338,0.0
-704,-16472,17265,0.0
-4,-79,81,0.0
-3,-67,67,0.0
-3,-68,67,0.0
-2,-75,72,0.0
-2,-71,67,0.0
-3,-91,84,0.0
-2,-85,77,0.0
-2,-87,78,0.0
-2,-90,77,0.0
-3,-104,88,0.0
-3,-106,88,0.0
-2,-107,86,0.0
-2,-118,93,0.0
-2,-113,88,0.0
-1,-117,88,0.0
-1,-115,85,0.0
-1,-99,71,0.0
-1,-117,83,0.0
0,-123,84,0.0
0,-115,76,0.0
0,-116,76,0.0
0,-127,81,0.0
0,-135,84,0.0
0,-136,83,0.0
0,-156,93,0.0
0,-146,85,0.0
0,-164,93,0.0
1,-171,95,0.0
1,-181,97,0.0
1,-191,100,0.0
2,-203,104,0.0
2,-196,97,0.0
3,-208,101,0.0
3,-211,100,0.0
4,-222,102,0.0
3,-215,96,0.0
4,-227,98,0.0
5,-229,96,0.0
5,-238,97,0.0
6,-239,95,0.0
7,-250,96,0.0
8,-312,115,0.0
10,-322,116,0.0
10,-335,116,0.0
11,-333,112,0.0
11,-324,105,0.0
12,-327,102,0.0
1021,14906,14628,0.0
993,14780,14816,0.0
954,14484,14831,0.0
906,14040,14686,0.0
859,13614,14548,0.0
840,13597,14844,0.0
933,15438,17219,0.0
902,15278,17412,0.0
768,13343,15538,0.0
744,13239,15755,0.0
1403,25613,31153,0.0
994,18640,23172,0.0
964,18591,23626,0.0
1197,23744,30849,0.0
775,15859,21068,0.0
747,15766,21420,0.0
719,15700,21816,0.0
672,15179,21579,0.0
625,14638,21290,0.0
593,14440,21494,0.0
636,16091,24516,0.0
601,15882,24774,0.0
566,15638,24982,0.0
529,15358,25132,0.0
496,15179,25450,0.0
468,15142,26020,0.0
433,14881,26217,0.0
382,13972,25244,0.0
354,13919,25802,0.0
316,13429,25549,0.0
291,13503,26377,0.0
257,13227,26539,0.0
222,12803,26398,0.0
192,12624,26762,0.0
163,12484,27222,0.0
126,11632,26105,0.0
97,11535,26658,0.0
68,11408,27166,0.0
46,13138,32256,0.0
12,12719,32222,0.0
-21,12305,32187,0.0
-54,11906,32182,0.0
-85,11436,31969,0.0
-116,11042,31951,0.0
-145,10613,31822,0.0
-123,7219,22453,0.0
-143,6931,22384,0.0
-162,6652,22338,0.0
-181,6365,22250,0.0
-198,6083,22169,0.0
-216,5820,22146,0.0
-233,5546,22074,0.0
-249,5288,22051,0.0
-265,5017,21970,0.0
-279,4755,21912,0.0
-294,4496,21855,0.0
-308,4232,21765,0.0
-322,3988,21757,0.0
-335,3735,21703,0.0
-347,3488,21665,0.0
-359,3238,21608,0.0
-371,2990,21535,0.0
-382,2744,21467,0.0
-393,2505,21444,0.0
-402,2261,21354,0.0
-412,2021,21293,0.0
-422,1787,21262,0.0
-431,1552,21221,0.0
-440,1319,21183,0.0
-448,1086,21127,0.0
-456,854,21065,0.0
-463,624,21008,0.0
-469,396,20949,0.0
-477,169,20928,0.0
-482,-57,20865,0.0
-500,-289,21330,0.0
-520,-532,21847,0.0
-551,-806,22878,1.0
-567,-1074,23310,1.0
-578,-1337,23485,1.0
-585,-1596,23553,1.0
-43,-134,1703,0.0
-603,-2136,23843,1.0
-608,-2397,23846,1.0
-614,-2667,23934,1.0
-621,-2945,24057,1.0
-624,-3209,24053,1.0
-631,-3499,24218,1.0
-636,-3776,24279,1.0
-638,-4046,24282,1.0
-642,-4331,24359,1.0
-644,-4609,24390,1.0
-644,-4866,24305,1.0
-658,-5253,24840,1.0
-667,-5611,25177,1.0
-666,-5890,25149,1.0
-662,-6147,25021,1.0
-658,-6399,24883,1.0
-654,-6669,24818,1.0
-650,-6937,24742,1.0
-640,-7144,24457,1.0
-641,-7466,24572,1.0
-631,-7690,24355,1.0
-629,-8008,24439,1.0
-618,-8208,24161,1.0
-609,-8446,24007,1.0
-599,-8666,23806,1.0
-585,-8829,23461,1.0
-573,-9011,23179,1.0
-561,-9227,22994,1.0
-556,-9543,23056,1.0
-549,-9847,23081,1.0
-542,-10150,23098,1.0
-533,-10436,23068,1.0
-513,-10495,22546,1.0
-495,-10627,22197,1.0
-480,-10797,21941,1.0
-465,-10986,21728,1.0
-462,-11460,22070,1.0
-453,-11815,22162,1.0
-445,-12223,22344,1.0
-436,-12633,22511,1.0
-424,-12985,22563,1.0
-406,-13194,22363,1.0
-392,-13508,22339,1.0
-373,-13684,22088,1.0
-355,-13900,21903,1.0
-335,-14087,21676,1.0
-317,-14321,21523,1.0
-296,-14492,21279,1.0
-277,-14736,21142,1.0
-256,-14906,20901,1.0
-235,-15067,20650,1.0
-211,-15111,20246,1.0
-189,-15223,19944,1.0
-167,-15388,19715,1.0
-145,-15527,19456,1.0
-120,-15413,18892,1.0
-97,-15428,18497,0.0
-74,-15336,17988,0.0
-51,-15381,17652,0.0
-29,-15521,17428,0.0
-6,-15818,17379,0.0
16,-16099,17308,0.0
40,-16391,17245,0.0
65,-16680,17174,0.0
91,-16985,17114,0.0
0,-65,65,0.0
143,-17596,16980,0.0
0,-70,67,0.0
0,-84,78,0.0
0,-82,75,0.0
1,-85,75,0.0
0,-79,69,0.0
1,-95,81,0.0
0,-90,75,0.0
1,-100,82,0.0
2,-109,87,0.0
1,-117,91,0.0
2,-104,79,0.0
2,-108,81,0.0
2,-114,83,0.0
3,-119,84,0.0
3,-129,90,0.0
60,-2001,1355,0.0
61,-1972,1304,0.0
65,-2011,1299,0.0
4,-137,86,0.0
4,-136,83,0.0
5,-161,96,0.0
5,-159,92,0.0
4,-143,81,0.0
6,-174,97,0.0
6,-166,90,0.0
7,-178,94,0.0
8,-188,96,0.0
8,-201,101,0.0
9,-208,101,0.0
9,-213,101,0.0
11,-223,103,0.0
11,-237,106,0.0
11,-229,100,0.0
11,-225,95,0.0
13,-251,103,0.0
13,-244,97,0.0
13,-247,96,0.0
17,-295,110,0.0
19,-310,112,0.0
19,-313,109,0.0
19,-318,107,0.0
20,-312,101,0.0
20,-317,99,0.0
1298,13821,13589,0.0
1324,14246,14307,0.0
1314,14274,14646,0.0
1268,13928,14597,0.0
1230,13642,14607,0.0
1212,13593,14869,0.0
1360,15418,17230,0.0
1595,18276,20869,0.0
1666,19296,22516,0.0
1654,19379,23107,0.0
1117,13235,16129,0.0
1091,13073,16285,0.0
1561,18914,24084,0.0
1568,19226,25030,0.0
1199,14869,19792,0.0
1175,14749,20078,0.0
1154,14654,20404,0.0
1172,15068,21463,0.0
1129,14686,21405,0.0
1096,14443,21543,0.0
1497,19966,30484,0.0
1429,19298,30166,0.0
1222,16721,26768,0.0
1177,16311,26747,0.0
1131,15885,26690,0.0
1032,14684,25286,0.0
1012,14608,25793,0.0
990,14491,26240,0.0
956,14178,26340,0.0
910,13715,26150,0.0
863,13191,25824,0.0
833,12918,25977,0.0
861,13555,28013,0.0
833,13309,28276,0.0
818,13274,29011,0.0
782,12897,29009,0.0
835,13995,32417,0.0
795,13540,32316,0.0
758,13126,32304,0.0
719,12676,32188,0.0
682,12245,32105,0.0
646,11819,32021,0.0
614,11433,32039,0.0
580,11022,31973,0.0
549,10616,31909,0.0
363,7182,22395,0.0
342,6910,22373,0.0
320,6624,22298,0.0
301,6354,22270,0.0
280,6052,22113,0.0
262,5798,22121,0.0
243,5532,22076,0.0
226,5272,22047,0.0
209,5007,21988,0.0
191,4742,21915,0.0
176,4478,21836,0.0
161,4229,21817,0.0
146,3976,21763,0.0
131,3724,21711,0.0
117,3476,21668,0.0
104,3226,21597,0.0
91,2980,21541,0.0
78,2733,21457,0.0
67,2493,21426,0.0
55,2256,21390,0.0
44,2014,21309,0.0
34,1778,21266,0.0
24,1541,21177,0.0
15,1311,21168,0.0
6,1077,21094,0.0
-2,847,21051,0.0
-10,618,21026,0.0
-17,390,20966,0.0
-25,162,20902,0.0
-32,-62,20868,0.0
-39,-294,21317,0.0
-46,-537,21835,0.0
-55,-816,23047,1.0
-62,-1082,23419,1.0
-67,-1339,23470,1.0
-72,-1594,23478,1.0
-78,-1874,23792,1.0
-83,-2145,23930,1.0
-87,-2409,23957,1.0
-90,-2683,24067,1.0
-94,-2962,24196,1.0
-96,-3236,24258,1.0
-99,-3541,24522,1.0
-101,-3789,24370,1.0
-103,-4090,24555,1.0
-103,-4336,24402,1.0
-104,-4622,24473,1.0
-105,-4971,24844,1.0
-105,-5316,25153,1.0
-105,-5621,25244,1.0
-103,-5946,25410,1.0
-101,-6199,25253,1.0
-97,-6450,25106,1.0
-94,-6737,25097,1.0
-90,-7028,25094,1.0
-86,-7267,24909,1.0
-81,-7556,24894,1.0
-76,-7846,24878,1.0
-70,-8090,24719,1.0
-63,-8293,24445,1.0
-56,-8531,24277,1.0
-48,-8717,23976,1.0
-40,-8919,23733,1.0
-32,-9081,23390,1.0
-23,-9326,23273,1.0
-14,-9601,23231,1.0
-5,-9930,23311,1.0
5,-10213,23275,1.0
16,-10456,23144,1.0
27,-10695,23008,1.0
38,-10826,22647,1.0
49,-10925,22236,1.0
61,-11097,21981,1.0
74,-11440,22065,1.0
87,-11742,22062,1.0
103,-12156,22257,1.0
118,-12522,22351,1.0
135,-12843,22354,1.0
151,-13183,22382,1.0
168,-13522,22401,1.0
0,0,0,0.0
202,-13978,22065,1.0
219,-14150,21813,1.0
237,-14395,21675,1.0
255,-14574,21438,1.0
273,-14789,21257,1.0
291,-14965,21022,1.0
308,-15046,20660,1.0
325,-15151,20340,1.0
340,-15110,19835,1.0
358,-15237,19559,1.0
380,-15518,19483,1.0
395,-15442,18963,1.0
410,-15417,18521,0.0
423,-15331,18018,0.0
440,-15386,17693,0.0
459,-15499,17439,0.0
485,-15805,17400,0.0
510,-16076,17319,0.0
536,-16349,17238,0.0
563,-16660,17190,0.0
591,-16960,17125,0.0
620,-17263,17059,0.0
649,-17569,16991,0.0
680,-17900,16941,0.0
2,-73,69,0.0
743,-18513,16779,0.0
3,-88,78,0.0
810,-19172,16638,0.0
4,-99,85,0.0
4,-109,90,0.0
4,-109,89,0.0
4,-115,92,0.0
5,-115,90,0.0
4,-111,84,0.0
5,-116,86,0.0
6,-139,101,0.0
5,-119,84,0.0
1209,-22778,15819,0.0
106,-1982,1345,0.0
111,-2021,1340,0.0
116,-2054,1330,0.0
111,-1951,1233,0.0
7,-133,82,0.0
8,-160,96,0.0
9,-164,96,0.0
9,-157,90,0.0
10,-176,98,0.0
11,-182,99,0.0
11,-184,97,0.0
12,-188,96,0.0
13,-202,102,0.0
14,-211,104,0.0
15,-226,108,0.0
16,-234,108,0.0
17,-241,109,0.0
17,-239,105,0.0
17,-246,104,0.0
18,-253,104,0.0
20,-265,107,0.0
20,-263,102,0.0
24,-310,116,0.0
25,-318,115,0.0
27,-335,117,0.0
26,-332,113,0.0
27,-332,109,0.0
28,-334,105,0.0
2362,13845,13651,0.0
2358,13802,13901,0.0
2333,13643,14037,0.0
2471,14428,15164,0.0
2337,13617,14621,0.0
2319,13493,14800,0.0
2651,15398,17257,0.0
2157,12494,14308,0.0
2152,12436,14554,0.0
2164,12478,14922,0.0
2173,12488,15264,0.0
2203,12624,15772,0.0
2216,12647,16154,0.0
2212,12580,16428,0.0
2243,12709,16970,0.0
2261,12748,17408,0.0
2252,12642,17658,0.0
2491,13913,19881,0.0
2487,13818,20204,0.0
2537,14013,20969,0.0
2522,13845,21208,0.0
2488,13568,21280,0.0
2287,12389,19898,0.0
2294,12336,20297,0.0
2319,12375,20864,0.0
2288,12111,20927,0.0
2287,11999,21260,0.0
2288,11894,21614,0.0
2734,14074,26238,0.0
2670,13604,26031,0.0
2368,11938,23455,0.0
2349,11707,23626,0.0
2523,12427,25772,0.0
2392,11628,24796,0.0
2401,11521,25271,0.0
2397,11342,25605,0.0
3005,14008,32568,0.0
2380,10924,26172,0.0
2374,10714,26469,0.0
2643,11727,29892,0.0
2807,12227,32183,0.0
2753,11765,32003,0.0
2713,11362,31964,0.0
2671,10948,31887,0.0
1849,7409,22360,0.0
1825,7140,22354,0.0
1798,6862,22310,0.0
1770,6573,22220,0.0
1744,6299,22167,0.0
1718,6021,22093,0.0
1694,5751,22037,0.0
1673,5490,22007,0.0
1650,5227,21957,0.0
1624,4954,21853,0.0
1602,4692,21781,0.0
1585,4445,21771,0.0
1563,4187,21697,0.0
1548,3940,21676,0.0
1527,3685,21590,0.0
1511,3441,21560,0.0
1493,3195,21506,0.0
