//X,Y,Z,Classification
-27.0,-85.0,102.0,0.0
-27.0,-87.0,102.0,0.0
-28.0,-93.0,106.0,0.0
-29.0,-100.0,111.0,0.0
-28.0,-97.0,106.0,0.0
-27.0,-96.0,102.0,0.0
-28.0,-104.0,109.0,0.0
-27.0,-104.0,105.0,0.0
-28.0,-104.0,105.0,0.0
-30.0,-118.0,115.0,0.0
-31.0,-122.0,116.0,0.0
-28.0,-113.0,106.0,0.0
-30.0,-124.0,114.0,0.0
-29.0,-122.0,109.0,0.0
-30.0,-128.0,111.0,0.0
-30.0,-129.0,110.0,0.0
-29.0,-128.0,106.0,0.0
-29.0,-132.0,107.0,0.0
-28.0,-127.0,101.0,0.0
-30.0,-139.0,108.0,0.0
-30.0,-141.0,108.0,0.0
-31.0,-148.0,110.0,0.0
-28.0,-140.0,101.0,0.0
-27.0,-138.0,98.0,0.0
-30.0,-153.0,106.0,0.0
-28.0,-149.0,100.0,0.0
-28.0,-151.0,100.0,0.0
-29.0,-157.0,102.0,0.0
-30.0,-164.0,103.0,0.0
-29.0,-162.0,100.0,0.0
-29.0,-167.0,100.0,0.0
-30.0,-175.0,102.0,0.0
-29.0,-172.0,98.0,0.0
-30.0,-181.0,101.0,0.0
-28.0,-176.0,95.0,0.0
-27.0,-171.0,90.0,0.0
-28.0,-178.0,92.0,0.0
-29.0,-186.0,94.0,0.0
-27.0,-178.0,87.0,0.0
-26.0,-179.0,85.0,0.0
-25.0,-177.0,82.0,0.0
-24.0,-174.0,78.0,0.0
-24.0,-179.0,77.0,0.0
-24.0,-181.0,76.0,0.0
-24.0,-186.0,76.0,0.0
-23.0,-181.0,72.0,0.0
-25.0,-197.0,76.0,0.0
-32.0,-256.0,96.0,0.0
-34.0,-288.0,104.0,0.0
-34.0,-294.0,102.0,0.0
-33.0,-290.0,97.0,0.0
-33.0,-301.0,98.0,0.0
-32.0,-294.0,92.0,0.0
-31.0,-298.0,89.0,0.0
-31.0,-302.0,87.0,0.0
-5661.0,39796.0,37616.0,0.0
-4969.0,33885.0,32719.0,0.0
-5016.0,33187.0,32736.0,0.0
-2863.0,18385.0,18527.0,0.0
-2763.0,17224.0,17733.0,0.0
-2780.0,16826.0,17699.0,0.0
-2777.0,16321.0,17540.0,0.0
-2807.0,16022.0,17594.0,0.0
-2781.0,15420.0,17302.0,0.0
-2912.0,15688.0,17988.0,0.0
-2972.0,15559.0,18234.0,0.0
-3003.0,15273.0,18295.0,0.0
-3570.0,17645.0,21606.0,0.0
-3550.0,17051.0,21345.0,0.0
-3607.0,16835.0,21548.0,0.0
-3644.0,16532.0,21638.0,0.0
-3559.0,15697.0,21013.0,0.0
-3434.0,14718.0,20153.0,0.0
-3570.0,14873.0,20837.0,0.0
-3607.0,14602.0,20933.0,0.0
-5310.0,20885.0,30646.0,0.0
-5341.0,20414.0,30664.0,0.0
-4182.0,15526.0,23881.0,0.0
-4195.0,15132.0,23839.0,0.0
-4271.0,14960.0,24144.0,0.0
-4341.0,14762.0,24417.0,0.0
-4441.0,14666.0,24866.0,0.0
-4548.0,14576.0,25343.0,0.0
-4650.0,14463.0,25793.0,0.0
-4599.0,13876.0,25395.0,0.0
-4720.0,13812.0,25948.0,0.0
-4765.0,13521.0,26085.0,0.0
-5110.0,14049.0,27846.0,0.0
-5221.0,13908.0,28336.0,0.0
-5345.0,13789.0,28890.0,0.0
-5416.0,13526.0,29159.0,0.0
-5533.0,13367.0,29665.0,0.0
-5648.0,13194.0,30163.0,0.0
-5967.0,13471.0,31743.0,0.0
-6073.0,13243.0,32188.0,0.0
-6125.0,12893.0,32342.0,0.0
-4296.0,8724.0,22604.0,0.0
-6111.0,11958.0,32032.0,0.0
-4526.0,8529.0,23640.0,0.0
-4518.0,8192.0,23514.0,0.0
-4526.0,7890.0,23477.0,0.0
-4524.0,7572.0,23385.0,0.0
-4514.0,7248.0,23255.0,0.0
-4518.0,6949.0,23197.0,0.0
-4519.0,6651.0,23130.0,0.0
-4514.0,6347.0,23028.0,0.0
-4516.0,6057.0,22966.0,0.0
-4515.0,5767.0,22892.0,0.0
-4514.0,5481.0,22817.0,0.0
-4513.0,5196.0,22739.0,0.0
-4516.0,4920.0,22688.0,0.0
-4509.0,4636.0,22583.0,0.0
-4508.0,4362.0,22508.0,0.0
-4505.0,4089.0,22428.0,0.0
-4503.0,3820.0,22357.0,0.0
-4502.0,3554.0,22283.0,0.0
-4498.0,3289.0,22206.0,0.0
-4488.0,3022.0,22091.0,0.0
-4482.0,2761.0,22005.0,0.0
-4488.0,2509.0,21972.0,0.0
-4488.0,2256.0,21911.0,0.0
-4488.0,2005.0,21853.0,0.0
-4491.0,1757.0,21809.0,0.0
-4489.0,1509.0,21743.0,0.0
-4380.0,1232.0,21157.0,0.0
-4351.0,986.0,20964.0,0.0
-4303.0,743.0,20680.0,0.0
-4302.0,511.0,20621.0,0.0
-4307.0,281.0,20592.0,0.0
-4310.0,52.0,20553.0,0.0
-4304.0,-176.0,20473.0,0.0
-4434.0,-415.0,21042.0,0.0
-4468.0,-653.0,21152.0,0.0
-4464.0,-886.0,21082.0,0.0
-4459.0,-1117.0,21007.0,0.0
-4409.0,-1334.0,20724.0,0.0
-4458.0,-1580.0,20900.0,0.0
-4457.0,-1810.0,20847.0,0.0
-4458.0,-2039.0,20801.0,0.0
-4451.0,-2265.0,20722.0,0.0
-4454.0,-2496.0,20687.0,0.0
0.0,0.0,2.0,0.0
-5.0,-3.0,21.0,0.0
-4437.0,-3166.0,20466.0,0.0
-4440.0,-3394.0,20430.0,0.0
-8.0,-7.0,38.0,0.0
-5.0,-4.0,20.0,0.0
-4424.0,-4058.0,20214.0,0.0
-6.0,-6.0,24.0,0.0
-6.0,-6.0,25.0,0.0
-4.0,-4.0,17.0,0.0
-7.0,-8.0,32.0,0.0
-6.0,-5.0,23.0,0.0
-7.0,-8.0,34.0,0.0
-6.0,-7.0,31.0,0.0
-6.0,-8.0,31.0,0.0
-5.0,-6.0,23.0,0.0
-6.0,-8.0,29.0,0.0
-6.0,-8.0,25.0,0.0
-8.0,-12.0,36.0,0.0
-11.0,-17.0,48.0,0.0
-7.0,-11.0,34.0,0.0
-7.0,-12.0,31.0,0.0
-11.0,-18.0,49.0,0.0
-6.0,-11.0,29.0,0.0
-10.0,-18.0,45.0,0.0
-9.0,-16.0,39.0,0.0
-10.0,-17.0,41.0,0.0
-12.0,-23.0,50.0,0.0
-10.0,-18.0,41.0,0.0
-13.0,-27.0,56.0,0.0
-10.0,-20.0,42.0,0.0
-17.0,-38.0,73.0,0.0
-13.0,-31.0,59.0,0.0
-15.0,-35.0,65.0,0.0
-14.0,-33.0,61.0,0.0
-16.0,-38.0,67.0,0.0
-13.0,-33.0,57.0,0.0
-15.0,-39.0,64.0,0.0
-17.0,-45.0,72.0,0.0
-15.0,-39.0,64.0,0.0
-15.0,-40.0,63.0,0.0
-20.0,-58.0,87.0,0.0
-20.0,-57.0,84.0,0.0
-19.0,-56.0,80.0,0.0
-20.0,-60.0,84.0,0.0
-25.0,-74.0,101.0,0.0
-22.0,-67.0,90.0,0.0
-21.0,-66.0,87.0,0.0
-21.0,-68.0,86.0,0.0
-22.0,-72.0,90.0,0.0
-21.0,-71.0,87.0,0.0
-25.0,-85.0,102.0,0.0
-23.0,-80.0,94.0,0.0
-23.0,-85.0,97.0,0.0
-25.0,-93.0,103.0,0.0
-25.0,-92.0,100.0,0.0
-25.0,-94.0,101.0,0.0
-24.0,-93.0,98.0,0.0
-24.0,-94.0,96.0,0.0
-24.0,-98.0,98.0,0.0
-25.0,-102.0,100.0,0.0
-27.0,-114.0,108.0,0.0
-26.0,-110.0,103.0,0.0
-27.0,-115.0,106.0,0.0
-25.0,-110.0,99.0,0.0
-26.0,-116.0,101.0,0.0
-26.0,-119.0,103.0,0.0
-27.0,-125.0,105.0,0.0
-26.0,-123.0,100.0,0.0
-26.0,-123.0,99.0,0.0
-26.0,-127.0,99.0,0.0
-27.0,-132.0,101.0,0.0
-28.0,-144.0,108.0,0.0
-26.0,-137.0,100.0,0.0
-27.0,-144.0,103.0,0.0
-28.0,-151.0,106.0,0.0
-28.0,-154.0,105.0,0.0
-27.0,-151.0,101.0,0.0
-26.0,-154.0,99.0,0.0
-25.0,-151.0,96.0,0.0
-27.0,-161.0,100.0,0.0
-25.0,-155.0,94.0,0.0
-26.0,-162.0,95.0,0.0
-27.0,-170.0,97.0,0.0
-25.0,-165.0,92.0,0.0
-27.0,-176.0,96.0,0.0
-25.0,-172.0,92.0,0.0
-24.0,-167.0,86.0,0.0
-24.0,-173.0,87.0,0.0
-24.0,-173.0,85.0,0.0
-23.0,-174.0,83.0,0.0
-22.0,-167.0,77.0,0.0
-23.0,-177.0,79.0,0.0
-21.0,-172.0,76.0,0.0
-21.0,-165.0,69.0,0.0
-20.0,-173.0,71.0,0.0
-21.0,-178.0,71.0,0.0
-21.0,-186.0,72.0,0.0
-26.0,-241.0,90.0,0.0
-31.0,-288.0,105.0,0.0
-30.0,-284.0,100.0,0.0
-29.0,-287.0,98.0,0.0
-30.0,-299.0,98.0,0.0
-28.0,-293.0,92.0,0.0
-27.0,-289.0,87.0,0.0
-28.0,-300.0,87.0,0.0
-4472.0,34373.0,32596.0,0.0
-4536.0,33764.0,32708.0,0.0
-4590.0,33096.0,32752.0,0.0
-2629.0,18374.0,18576.0,0.0
-4694.0,31802.0,32847.0,0.0
-2756.0,18110.0,19110.0,0.0
-2731.0,17402.0,18762.0,0.0
-2761.0,17071.0,18806.0,0.0
-2768.0,16610.0,18698.0,0.0
-2735.0,15925.0,18319.0,0.0
-2774.0,15676.0,18430.0,0.0
-2770.0,15200.0,18266.0,0.0
-3317.0,17666.0,21700.0,0.0
-3350.0,17328.0,21761.0,0.0
-3361.0,16881.0,21675.0,0.0
-3363.0,16402.0,21538.0,0.0
-3379.0,16005.0,21493.0,0.0
-3179.0,14623.0,20088.0,0.0
-3243.0,14486.0,20360.0,0.0
-3396.0,14729.0,21183.0,0.0
-3434.0,14464.0,21292.0,0.0
-4980.0,20368.0,30694.0,0.0
-5039.0,20005.0,30869.0,0.0
-5086.0,19601.0,30980.0,0.0
-4459.0,16682.0,27011.0,0.0
-5616.0,20390.0,33835.0,0.0
-4650.0,16378.0,27861.0,0.0
-4700.0,16065.0,28023.0,0.0
-4699.0,15576.0,27869.0,0.0
-4724.0,15182.0,27875.0,0.0
-4495.0,14005.0,26397.0,0.0
-4491.0,13557.0,26243.0,0.0
-4802.0,14042.0,27925.0,0.0
-4904.0,13888.0,28391.0,0.0
-5024.0,13775.0,28958.0,0.0
-5087.0,13491.0,29181.0,0.0
-5201.0,13340.0,29708.0,0.0
-5304.0,13151.0,30169.0,0.0
-5649.0,13531.0,31993.0,0.0
-5718.0,13223.0,32251.0,0.0
-5749.0,12827.0,32292.0,0.0
-4035.0,8682.0,22577.0,0.0
-5738.0,11894.0,31973.0,0.0
-4238.0,8456.0,23522.0,0.0
-4256.0,8168.0,23533.0,0.0
-4259.0,7856.0,23466.0,0.0
-4258.0,7539.0,23370.0,0.0
-4259.0,7231.0,23294.0,0.0
-4256.0,6920.0,23190.0,0.0
-4264.0,6630.0,23150.0,0.0
-4263.0,6332.0,23068.0,0.0
-4259.0,6033.0,22969.0,0.0
-4257.0,5740.0,22880.0,0.0
-4259.0,5456.0,22813.0,0.0
-4260.0,5175.0,22746.0,0.0
-4260.0,4895.0,22671.0,0.0
-4260.0,4618.0,22595.0,0.0
-4257.0,4342.0,22511.0,0.0
-4256.0,4070.0,22438.0,0.0
-4256.0,3803.0,22372.0,0.0
-4251.0,3533.0,22273.0,0.0
-4255.0,3274.0,22227.0,0.0
-4240.0,3004.0,22086.0,0.0
-4245.0,2750.0,22043.0,0.0
-4241.0,2493.0,21962.0,0.0
-4249.0,2244.0,21941.0,0.0
-4250.0,1993.0,21882.0,0.0
-4244.0,1741.0,21793.0,0.0
-4248.0,1496.0,21752.0,0.0
-4119.0,1212.0,21035.0,0.0
-4122.0,976.0,20996.0,0.0
-4073.0,731.0,20686.0,0.0
-4067.0,500.0,20602.0,0.0
-4077.0,270.0,20599.0,0.0
-4076.0,42.0,20544.0,0.0
-4070.0,-185.0,20461.0,0.0
-4204.0,-425.0,21082.0,0.0
-4216.0,-659.0,21087.0,0.0
-4206.0,-889.0,20985.0,0.0
-4217.0,-1124.0,20987.0,0.0
-4161.0,-1337.0,20657.0,0.0
-4220.0,-1585.0,20893.0,0.0
-4218.0,-1814.0,20836.0,0.0
-4217.0,-2042.0,20781.0,0.0
-4222.0,-2273.0,20757.0,0.0
-4217.0,-2498.0,20683.0,0.0
-4215.0,-2724.0,20628.0,0.0
-4211.0,-2949.0,20555.0,0.0
-4200.0,-3167.0,20457.0,0.0
-6.0,-5.0,28.0,0.0
-7.0,-6.0,34.0,0.0
-5.0,-5.0,25.0,0.0
-6.0,-6.0,28.0,0.0
-7.0,-7.0,32.0,0.0
-6.0,-7.0,28.0,0.0
-7.0,-8.0,34.0,0.0
-6.0,-7.0,29.0,0.0
-10.0,-12.0,50.0,0.0
-10.0,-12.0,50.0,0.0
-9.0,-11.0,39.0,0.0
-4.0,-5.0,22.0,0.0
-9.0,-12.0,42.0,0.0
-13.0,-18.0,59.0,0.0
-6.0,-9.0,30.0,0.0
-9.0,-14.0,43.0,0.0
-9.0,-14.0,39.0,0.0
-8.0,-12.0,35.0,0.0
-10.0,-15.0,42.0,0.0
-8.0,-14.0,36.0,0.0
-9.0,-16.0,39.0,0.0
-9.0,-18.0,44.0,0.0
-10.0,-20.0,47.0,0.0
-9.0,-19.0,45.0,0.0
-15.0,-32.0,69.0,0.0
-13.0,-26.0,56.0,0.0
-9.0,-19.0,40.0,0.0
-16.0,-36.0,73.0,0.0
-14.0,-30.0,60.0,0.0
-11.0,-26.0,50.0,0.0
-14.0,-36.0,66.0,0.0
-13.0,-32.0,57.0,0.0
-16.0,-40.0,70.0,0.0
-15.0,-39.0,67.0,0.0
-18.0,-46.0,78.0,0.0
-18.0,-48.0,78.0,0.0
-20.0,-56.0,88.0,0.0
-22.0,-62.0,96.0,0.0
-21.0,-61.0,92.0,0.0
-20.0,-60.0,88.0,0.0
-18.0,-56.0,81.0,0.0
-22.0,-68.0,94.0,0.0
-21.0,-69.0,95.0,0.0
-24.0,-77.0,104.0,0.0
-23.0,-77.0,101.0,0.0
-21.0,-70.0,90.0,0.0
-25.0,-85.0,107.0,0.0
-22.0,-80.0,98.0,0.0
-24.0,-86.0,103.0,0.0
-23.0,-87.0,101.0,0.0
-24.0,-91.0,103.0,0.0
-25.0,-97.0,110.0,0.0
-23.0,-89.0,98.0,0.0
-24.0,-100.0,107.0,0.0
-24.0,-100.0,105.0,0.0
-25.0,-104.0,107.0,0.0
-25.0,-109.0,109.0,0.0
-26.0,-113.0,111.0,0.0
-26.0,-116.0,111.0,0.0
-27.0,-121.0,114.0,0.0
-28.0,-125.0,115.0,0.0
-24.0,-113.0,102.0,0.0
-26.0,-125.0,110.0,0.0
-23.0,-114.0,98.0,0.0
-26.0,-129.0,108.0,0.0
-27.0,-132.0,109.0,0.0
-26.0,-138.0,111.0,0.0
-25.0,-133.0,104.0,0.0
-26.0,-135.0,104.0,0.0
-25.0,-138.0,103.0,0.0
-27.0,-153.0,112.0,0.0
-25.0,-148.0,105.0,0.0
-26.0,-153.0,107.0,0.0
-25.0,-150.0,103.0,0.0
-25.0,-155.0,104.0,0.0
-24.0,-151.0,98.0,0.0
-27.0,-173.0,110.0,0.0
-25.0,-165.0,102.0,0.0
-26.0,-170.0,103.0,0.0
-25.0,-169.0,100.0,0.0
-26.0,-174.0,101.0,0.0
-26.0,-181.0,101.0,0.0
-25.0,-180.0,98.0,0.0
-24.0,-174.0,93.0,0.0
-25.0,-182.0,95.0,0.0
-22.0,-170.0,86.0,0.0
-22.0,-175.0,85.0,0.0
-23.0,-183.0,88.0,0.0
-22.0,-179.0,83.0,0.0
-21.0,-178.0,80.0,0.0
-20.0,-176.0,77.0,0.0
-20.0,-178.0,76.0,0.0
-20.0,-184.0,76.0,0.0
-20.0,-185.0,74.0,0.0
-20.0,-191.0,75.0,0.0
-25.0,-243.0,92.0,0.0
-28.0,-282.0,102.0,0.0
-27.0,-288.0,101.0,0.0
-27.0,-292.0,99.0,0.0
-26.0,-294.0,97.0,0.0
-26.0,-297.0,94.0,0.0
-26.0,-292.0,89.0,0.0
-25.0,-296.0,87.0,0.0
-4034.0,34193.0,32526.0,0.0
-2257.0,18501.0,17979.0,0.0
-2309.0,18303.0,18170.0,0.0
-2385.0,18295.0,18553.0,0.0
-2462.0,18272.0,18931.0,0.0
-2509.0,18035.0,19090.0,0.0
-2528.0,17596.0,19030.0,0.0
-2534.0,17095.0,18891.0,0.0
-2549.0,16661.0,18813.0,0.0
-2566.0,16258.0,18759.0,0.0
-2539.0,15597.0,18393.0,0.0
-2586.0,15404.0,18566.0,0.0
-2613.0,15095.0,18599.0,0.0
-3064.0,17167.0,21625.0,0.0
-3090.0,16796.0,21633.0,0.0
-3101.0,16352.0,21537.0,0.0
-3114.0,15928.0,21456.0,0.0
-3121.0,15489.0,21344.0,0.0
-3005.0,14474.0,20405.0,0.0
-3134.0,14649.0,21133.0,0.0
-3176.0,14403.0,21268.0,0.0
-4614.0,20296.0,30681.0,0.0
-4642.0,19814.0,30669.0,0.0
-4723.0,19552.0,30999.0,0.0
-4140.0,16626.0,27006.0,0.0
-4251.0,16557.0,27561.0,0.0
-4346.0,16415.0,28011.0,0.0
-4379.0,16033.0,28055.0,0.0
-4393.0,15589.0,27982.0,0.0
-4402.0,15138.0,27884.0,0.0
-4162.0,13867.0,26221.0,0.0
-4243.0,13692.0,26588.0,0.0
-4281.0,13373.0,26681.0,0.0
-4580.0,13846.0,28397.0,0.0
-4708.0,13770.0,29044.0,0.0
-4897.0,13851.0,30061.0,0.0
-4968.0,13583.0,30350.0,0.0
-5162.0,13637.0,31389.0,0.0
-5234.0,13353.0,31678.0,0.0
-5358.0,13190.0,32278.0,0.0
-5374.0,12761.0,32235.0,0.0
-3788.0,8669.0,22622.0,0.0
-3914.0,8626.0,23271.0,0.0
-3953.0,8383.0,23401.0,0.0
-3988.0,8135.0,23519.0,0.0
-3992.0,7819.0,23437.0,0.0
-3991.0,7504.0,23346.0,0.0
-3995.0,7198.0,23272.0,0.0
-3996.0,6893.0,23187.0,0.0
-4000.0,6597.0,23123.0,0.0
-3998.0,6297.0,23027.0,0.0
-3997.0,6002.0,22938.0,0.0
-4002.0,5716.0,22876.0,0.0
-4002.0,5430.0,22796.0,0.0
-4003.0,5148.0,22723.0,0.0
-4003.0,4868.0,22643.0,0.0
-4000.0,4589.0,22552.0,0.0
-4005.0,4321.0,22504.0,0.0
-4005.0,4051.0,22433.0,0.0
-4006.0,3783.0,22358.0,0.0
-4004.0,3516.0,22277.0,0.0
-4007.0,3257.0,22224.0,0.0
-3998.0,2989.0,22101.0,0.0
-3997.0,2732.0,22030.0,0.0
-3998.0,2478.0,21969.0,0.0
-4001.0,2227.0,21922.0,0.0
-4001.0,1977.0,21855.0,0.0
-4004.0,1729.0,21810.0,0.0
-4003.0,1481.0,21741.0,0.0
-3875.0,1197.0,20987.0,0.0
-3903.0,968.0,21073.0,0.0
-3856.0,723.0,20764.0,0.0
-3853.0,491.0,20691.0,0.0
-3857.0,261.0,20652.0,0.0
-3868.0,33.0,20661.0,0.0
-3862.0,-195.0,20572.0,0.0
-3979.0,-434.0,21141.0,0.0
-3982.0,-667.0,21101.0,0.0
-3983.0,-900.0,21051.0,0.0
-3975.0,-1129.0,20956.0,0.0
-3938.0,-1345.0,20706.0,0.0
-3982.0,-1591.0,20891.0,0.0
-3992.0,-1824.0,20885.0,0.0
-3975.0,-2044.0,20749.0,0.0
-3981.0,-2275.0,20731.0,0.0
-3976.0,-2499.0,20657.0,0.0
-3972.0,-2722.0,20584.0,0.0
-3971.0,-2948.0,20530.0,0.0
-3966.0,-3169.0,20454.0,0.0
-3.0,-2.0,15.0,0.0
-1.0,-1.0,4.0,0.0
-5.0,-5.0,24.0,0.0
-6.0,-6.0,29.0,0.0
-7.0,-8.0,38.0,0.0
-6.0,-7.0,30.0,0.0
-3.0,-4.0,17.0,0.0
-5.0,-6.0,25.0,0.0
-5.0,-6.0,26.0,0.0
-5.0,-6.0,26.0,0.0
-7.0,-10.0,38.0,0.0
-5.0,-7.0,26.0,0.0
-5.0,-7.0,27.0,0.0
-6.0,-10.0,34.0,0.0
-6.0,-9.0,30.0,0.0
-5.0,-8.0,27.0,0.0
-7.0,-11.0,33.0,0.0
-8.0,-13.0,39.0,0.0
-7.0,-12.0,32.0,0.0
-7.0,-14.0,36.0,0.0
-7.0,-14.0,35.0,0.0
-9.0,-18.0,43.0,0.0
-8.0,-17.0,41.0,0.0
-9.0,-17.0,42.0,0.0
-12.0,-25.0,57.0,0.0
-9.0,-20.0,42.0,0.0
-11.0,-26.0,54.0,0.0
-13.0,-29.0,60.0,0.0
-11.0,-28.0,54.0,0.0
-12.0,-30.0,59.0,0.0
-15.0,-39.0,73.0,0.0
-13.0,-32.0,59.0,0.0
-13.0,-34.0,61.0,0.0
-15.0,-42.0,73.0,0.0
-13.0,-38.0,64.0,0.0
-13.0,-36.0,60.0,0.0
-13.0,-39.0,61.0,0.0
-15.0,-44.0,69.0,0.0
-16.0,-48.0,72.0,0.0
-16.0,-52.0,78.0,0.0
-16.0,-51.0,74.0,0.0
-19.0,-63.0,89.0,0.0
-19.0,-67.0,93.0,0.0
-19.0,-67.0,91.0,0.0
-18.0,-64.0,85.0,0.0
-21.0,-76.0,98.0,0.0
-21.0,-77.0,97.0,0.0
-19.0,-70.0,85.0,0.0
-22.0,-82.0,99.0,0.0
-20.0,-81.0,95.0,0.0
-22.0,-86.0,98.0,0.0
-21.0,-85.0,96.0,0.0
-21.0,-90.0,99.0,0.0
-21.0,-93.0,100.0,0.0
-19.0,-85.0,90.0,0.0
-22.0,-98.0,101.0,0.0
-20.0,-95.0,95.0,0.0
-21.0,-100.0,98.0,0.0
-21.0,-103.0,98.0,0.0
-22.0,-105.0,99.0,0.0
-23.0,-115.0,107.0,0.0
-24.0,-122.0,109.0,0.0
-24.0,-124.0,109.0,0.0
-22.0,-114.0,99.0,0.0
-22.0,-117.0,99.0,0.0
-24.0,-130.0,107.0,0.0
-22.0,-127.0,102.0,0.0
-21.0,-125.0,98.0,0.0
-22.0,-128.0,99.0,0.0
-23.0,-137.0,102.0,0.0
-23.0,-136.0,100.0,0.0
-23.0,-147.0,106.0,0.0
-23.0,-145.0,101.0,0.0
-23.0,-149.0,101.0,0.0
-23.0,-153.0,102.0,0.0
-23.0,-150.0,98.0,0.0
-22.0,-155.0,99.0,0.0
-23.0,-163.0,102.0,0.0
-22.0,-158.0,96.0,0.0
-23.0,-168.0,100.0,0.0
-23.0,-171.0,99.0,0.0
-22.0,-171.0,96.0,0.0
-23.0,-176.0,97.0,0.0
-21.0,-172.0,93.0,0.0
-20.0,-167.0,87.0,0.0
-21.0,-177.0,89.0,0.0
-20.0,-176.0,87.0,0.0
-19.0,-173.0,82.0,0.0
-19.0,-173.0,81.0,0.0
-19.0,-179.0,81.0,0.0
-18.0,-171.0,75.0,0.0
-18.0,-172.0,73.0,0.0
-18.0,-178.0,74.0,0.0
-17.0,-182.0,73.0,0.0
-18.0,-190.0,74.0,0.0
-22.0,-244.0,93.0,0.0
-25.0,-281.0,103.0,0.0
-25.0,-286.0,101.0,0.0
-24.0,-282.0,96.0,0.0
-24.0,-294.0,97.0,0.0
-24.0,-295.0,94.0,0.0
-22.0,-290.0,89.0,0.0
-22.0,-302.0,90.0,0.0
-3618.0,34209.0,32640.0,0.0
-2027.0,18486.0,18018.0,0.0
-3706.0,32620.0,32478.0,0.0
-3768.0,32030.0,32579.0,0.0
-2226.0,18283.0,18999.0,0.0
-2268.0,18001.0,19110.0,0.0
-2285.0,17538.0,19023.0,0.0
-2296.0,17046.0,18892.0,0.0
-2314.0,16622.0,18824.0,0.0
-2324.0,16154.0,18695.0,0.0
-2267.0,15259.0,18049.0,0.0
-2331.0,15192.0,18365.0,0.0
-2385.0,15051.0,18600.0,0.0
-2643.0,16163.0,20420.0,0.0
-2733.0,16195.0,20921.0,0.0
-2664.0,15293.0,20202.0,0.0
-2679.0,14906.0,20138.0,0.0
-2796.0,15077.0,20837.0,0.0
-2814.0,14710.0,20800.0,0.0
-2885.0,14621.0,21156.0,0.0
-2926.0,14371.0,21283.0,0.0
-4260.0,20284.0,30753.0,0.0
-4334.0,20005.0,31058.0,0.0
-4365.0,19524.0,31047.0,0.0
-3831.0,16612.0,27064.0,0.0
-3927.0,16499.0,27546.0,0.0
-3906.0,15899.0,27211.0,0.0
-4017.0,15840.0,27802.0,0.0
-4065.0,15528.0,27957.0,0.0
-3882.0,14362.0,26534.0,0.0
-4064.0,14552.0,27601.0,0.0
-3992.0,13835.0,26948.0,0.0
-3999.0,13410.0,26839.0,0.0
-4260.0,13820.0,28432.0,0.0
-4366.0,13695.0,28974.0,0.0
-3971.0,12039.0,26210.0,0.0
-4620.0,13530.0,30326.0,0.0
-4764.0,13475.0,31112.0,0.0
-4875.0,13308.0,31676.0,0.0
-4989.0,13135.0,32248.0,0.0
-5005.0,12706.0,32199.0,0.0
-3529.0,8629.0,22590.0,0.0
-3605.0,8485.0,22967.0,0.0
-3709.0,8397.0,23521.0,0.0
-3723.0,8100.0,23502.0,0.0
-3727.0,7788.0,23425.0,0.0
-3733.0,7482.0,23359.0,0.0
-3733.0,7167.0,23255.0,0.0
-3735.0,6863.0,23171.0,0.0
-3738.0,6565.0,23092.0,0.0
-3737.0,6265.0,22994.0,0.0
-3738.0,5971.0,22909.0,0.0
-3750.0,5698.0,22890.0,0.0
-3747.0,5406.0,22785.0,0.0
-3750.0,5126.0,22715.0,0.0
-3752.0,4848.0,22646.0,0.0
-3750.0,4569.0,22549.0,0.0
-3752.0,4297.0,22480.0,0.0
-3757.0,4031.0,22427.0,0.0
-3759.0,3765.0,22364.0,0.0
-3758.0,3499.0,22282.0,0.0
-3756.0,3236.0,22193.0,0.0
-3758.0,2978.0,22132.0,0.0
-3758.0,2721.0,22061.0,0.0
-3759.0,2466.0,21995.0,0.0
-3757.0,2212.0,21912.0,0.0
-3757.0,1961.0,21845.0,0.0
-3753.0,1712.0,21757.0,0.0
-3760.0,1469.0,21725.0,0.0
-3639.0,1184.0,20966.0,0.0
-3678.0,959.0,21131.0,0.0
-3756.0,739.0,21512.0,0.0
-3746.0,498.0,21395.0,0.0
-3671.0,255.0,20912.0,0.0
-3660.0,24.0,20782.0,0.0
-3743.0,-209.0,21201.0,0.0
-3756.0,-444.0,21215.0,0.0
-3748.0,-676.0,21113.0,0.0
-3746.0,-907.0,21043.0,0.0
-3748.0,-1138.0,20998.0,0.0
-3709.0,-1354.0,20732.0,0.0
-3743.0,-1595.0,20867.0,0.0
-3747.0,-1824.0,20830.0,0.0
-3748.0,-2052.0,20788.0,0.0
-3744.0,-2277.0,20713.0,0.0
-3741.0,-2502.0,20648.0,0.0
-3737.0,-2724.0,20575.0,0.0
-3733.0,-2947.0,20507.0,0.0
-3734.0,-3172.0,20461.0,0.0
-3733.0,-3396.0,20410.0,0.0
-3726.0,-3614.0,20325.0,0.0
-3720.0,-3832.0,20249.0,0.0
-3501.0,-3817.0,19015.0,0.0
-8.0,-9.0,41.0,0.0
-8.0,-9.0,40.0,0.0
-3.0,-3.0,13.0,0.0
-7.0,-9.0,38.0,0.0
-6.0,-8.0,33.0,0.0
-5.0,-7.0,29.0,0.0
-7.0,-10.0,35.0,0.0
-5.0,-8.0,31.0,0.0
-7.0,-10.0,35.0,0.0
-7.0,-11.0,36.0,0.0
-5.0,-7.0,24.0,0.0
-5.0,-8.0,27.0,0.0
-5.0,-10.0,29.0,0.0
-6.0,-11.0,32.0,0.0
-7.0,-13.0,38.0,0.0
-6.0,-12.0,34.0,0.0
-9.0,-17.0,46.0,0.0
-8.0,-18.0,45.0,0.0
-11.0,-23.0,55.0,0.0
-7.0,-15.0,36.0,0.0
-10.0,-25.0,55.0,0.0
-8.0,-20.0,42.0,0.0
-9.0,-23.0,48.0,0.0
-11.0,-29.0,59.0,0.0
-13.0,-32.0,63.0,0.0
-12.0,-33.0,62.0,0.0
-10.0,-29.0,54.0,0.0
-13.0,-37.0,68.0,0.0
-13.0,-37.0,66.0,0.0
-13.0,-39.0,68.0,0.0
-13.0,-37.0,63.0,0.0
-15.0,-45.0,75.0,0.0
-16.0,-48.0,78.0,0.0
-15.0,-52.0,80.0,0.0
-18.0,-59.0,89.0,0.0
-15.0,-52.0,79.0,0.0
-16.0,-57.0,83.0,0.0
-18.0,-65.0,93.0,0.0
-18.0,-66.0,91.0,0.0
-20.0,-76.0,103.0,0.0
-19.0,-73.0,96.0,0.0
-21.0,-81.0,104.0,0.0
-19.0,-74.0,93.0,0.0
-21.0,-85.0,105.0,0.0
-20.0,-80.0,96.0,0.0
-19.0,-79.0,93.0,0.0
-21.0,-90.0,103.0,0.0
-22.0,-97.0,109.0,0.0
-21.0,-94.0,103.0,0.0
-22.0,-101.0,108.0,0.0
-21.0,-98.0,103.0,0.0
-23.0,-108.0,111.0,0.0
-21.0,-99.0,100.0,0.0
-23.0,-117.0,115.0,0.0
-22.0,-111.0,108.0,0.0
-22.0,-114.0,108.0,0.0
-21.0,-111.0,102.0,0.0
-23.0,-125.0,114.0,0.0
-23.0,-126.0,112.0,0.0
-22.0,-125.0,108.0,0.0
-23.0,-131.0,110.0,0.0
-23.0,-135.0,110.0,0.0
-21.0,-130.0,105.0,0.0
-21.0,-128.0,101.0,0.0
-23.0,-148.0,114.0,0.0
-23.0,-151.0,113.0,0.0
-22.0,-148.0,108.0,0.0
-23.0,-153.0,110.0,0.0
-22.0,-146.0,103.0,0.0
-23.0,-162.0,111.0,0.0
-22.0,-158.0,107.0,0.0
-21.0,-157.0,103.0,0.0
-23.0,-169.0,108.0,0.0
-22.0,-167.0,104.0,0.0
-21.0,-166.0,101.0,0.0
-22.0,-180.0,107.0,0.0
-22.0,-176.0,102.0,0.0
-21.0,-175.0,99.0,0.0
-20.0,-171.0,94.0,0.0
-21.0,-180.0,96.0,0.0
-20.0,-178.0,93.0,0.0
-19.0,-177.0,90.0,0.0
-19.0,-182.0,91.0,0.0
-19.0,-182.0,88.0,0.0
-17.0,-169.0,80.0,0.0
-19.0,-189.0,86.0,0.0
-17.0,-176.0,78.0,0.0
-17.0,-187.0,80.0,0.0
-16.0,-183.0,76.0,0.0
-16.0,-187.0,76.0,0.0
-16.0,-194.0,76.0,0.0
-20.0,-241.0,92.0,0.0
-23.0,-285.0,105.0,0.0
-23.0,-291.0,104.0,0.0
-22.0,-295.0,102.0,0.0
-21.0,-290.0,96.0,0.0
-21.0,-302.0,96.0,0.0
-20.0,-297.0,91.0,0.0
-20.0,-309.0,92.0,0.0
-1459.0,15598.0,14924.0,0.0
-3259.0,33509.0,32753.0,0.0
-1838.0,18201.0,18174.0,0.0
-1896.0,18078.0,18441.0,0.0
-1874.0,17225.0,17949.0,0.0
-1893.0,16780.0,17865.0,0.0
-1904.0,16287.0,17716.0,0.0
-1907.0,15740.0,17495.0,0.0
-1935.0,15429.0,17522.0,0.0
-2086.0,16073.0,18655.0,0.0
-2069.0,15402.0,18269.0,0.0
-2116.0,15229.0,18462.0,0.0
-2159.0,15029.0,18625.0,0.0
-2387.0,16069.0,20359.0,0.0
-3718.0,24214.0,31367.0,0.0
-3760.0,23697.0,31391.0,0.0
-2566.0,15651.0,21204.0,0.0
-2604.0,15375.0,21309.0,0.0
-2634.0,15061.0,21358.0,0.0
-2646.0,14651.0,21259.0,0.0
-3816.0,20454.0,30378.0,0.0
-3841.0,19936.0,30311.0,0.0
-3979.0,19995.0,31133.0,0.0
-3999.0,19460.0,31033.0,0.0
-4396.0,20711.0,33838.0,0.0
-4414.0,20138.0,33718.0,0.0
-3556.0,15705.0,26957.0,0.0
-3644.0,15574.0,27413.0,0.0
-3743.0,15482.0,27956.0,0.0
-3753.0,15022.0,27835.0,0.0
-3672.0,14219.0,27048.0,0.0
-3655.0,13690.0,26745.0,0.0
-3742.0,13551.0,27202.0,0.0
-3779.0,13229.0,27297.0,0.0
-3819.0,12916.0,27409.0,0.0
-3712.0,12127.0,26481.0,0.0
-3785.0,11940.0,26842.0,0.0
-4469.0,13604.0,31508.0,0.0
-4525.0,13286.0,31720.0,0.0
-4634.0,13116.0,32302.0,0.0
-4647.0,12674.0,32219.0,0.0
-3245.0,8521.0,22378.0,0.0
-3281.0,8288.0,22506.0,0.0
-3374.0,8195.0,23027.0,0.0
-3459.0,8070.0,23488.0,0.0
-3463.0,7756.0,23409.0,0.0
-3472.0,7454.0,23351.0,0.0
-3475.0,7145.0,23263.0,0.0
-3477.0,6839.0,23166.0,0.0
-3476.0,6532.0,23057.0,0.0
-3480.0,6237.0,22977.0,0.0
-3486.0,5953.0,22922.0,0.0
-3490.0,5667.0,22850.0,0.0
-3493.0,5382.0,22772.0,0.0
-3493.0,5099.0,22682.0,0.0
-3495.0,4820.0,22604.0,0.0
-3503.0,4553.0,22565.0,0.0
-3501.0,4275.0,22459.0,0.0
-3507.0,4011.0,22413.0,0.0
-3511.0,3747.0,22353.0,0.0
-3511.0,3482.0,22274.0,0.0
-3508.0,3217.0,22172.0,0.0
-3513.0,2962.0,22128.0,0.0
-3515.0,2706.0,22064.0,0.0
-3514.0,2450.0,21979.0,0.0
-3513.0,2198.0,21903.0,0.0
-3517.0,1950.0,21851.0,0.0
-3516.0,1701.0,21775.0,0.0
-3518.0,1455.0,21714.0,0.0
-3402.0,1171.0,20933.0,0.0
-3435.0,946.0,21068.0,0.0
-3517.0,728.0,21509.0,0.0
-3512.0,488.0,21410.0,0.0
-3460.0,247.0,21036.0,0.0
-3430.0,15.0,20794.0,0.0
-3516.0,-218.0,21251.0,0.0
-3517.0,-451.0,21195.0,0.0
-3514.0,-683.0,21122.0,0.0
-3512.0,-913.0,21049.0,0.0
-3507.0,-1142.0,20963.0,0.0
-3480.0,-1361.0,20750.0,0.0
-3513.0,-1601.0,20891.0,0.0
-3512.0,-1829.0,20826.0,0.0
-3510.0,-2054.0,20765.0,0.0
-3511.0,-2282.0,20722.0,0.0
-3504.0,-2501.0,20624.0,0.0
-3505.0,-2727.0,20579.0,0.0
-3503.0,-2951.0,20520.0,0.0
-3500.0,-3174.0,20459.0,0.0
-3497.0,-3394.0,20393.0,0.0
-3495.0,-3615.0,20329.0,0.0
-3493.0,-3837.0,20276.0,0.0
-7.0,-8.0,36.0,0.0
-7.0,-9.0,40.0,0.0
-5.0,-7.0,30.0,0.0
-6.0,-8.0,33.0,0.0
-6.0,-9.0,38.0,0.0
-7.0,-10.0,40.0,0.0
-4.0,-6.0,26.0,0.0
-5.0,-7.0,29.0,0.0
-4.0,-5.0,19.0,0.0
-4.0,-6.0,22.0,0.0
-4.0,-7.0,24.0,0.0
-7.0,-13.0,41.0,0.0
-6.0,-12.0,38.0,0.0
-4.0,-8.0,25.0,0.0
-9.0,-17.0,47.0,0.0
-8.0,-15.0,42.0,0.0
-9.0,-18.0,48.0,0.0
-9.0,-19.0,47.0,0.0
-7.0,-16.0,40.0,0.0
-6.0,-13.0,33.0,0.0
-9.0,-21.0,49.0,0.0
-7.0,-18.0,41.0,0.0
-8.0,-20.0,44.0,0.0
-11.0,-28.0,58.0,0.0
-11.0,-29.0,58.0,0.0
-10.0,-30.0,59.0,0.0
-11.0,-29.0,57.0,0.0
-12.0,-34.0,63.0,0.0
-14.0,-41.0,75.0,0.0
-13.0,-41.0,73.0,0.0
-12.0,-38.0,65.0,0.0
-13.0,-42.0,70.0,0.0
-13.0,-44.0,72.0,0.0
-14.0,-46.0,75.0,0.0
-14.0,-48.0,75.0,0.0
-16.0,-58.0,89.0,0.0
-15.0,-56.0,83.0,0.0
-16.0,-61.0,90.0,0.0
-17.0,-65.0,92.0,0.0
-17.0,-65.0,90.0,0.0
-16.0,-62.0,85.0,0.0
-17.0,-69.0,90.0,0.0
-19.0,-80.0,103.0,0.0
-19.0,-80.0,101.0,0.0
-20.0,-85.0,105.0,0.0
-19.0,-85.0,102.0,0.0
-19.0,-85.0,100.0,0.0
-21.0,-95.0,109.0,0.0
-19.0,-93.0,105.0,0.0
-18.0,-85.0,94.0,0.0
-20.0,-97.0,105.0,0.0
-18.0,-95.0,99.0,0.0
-19.0,-98.0,101.0,0.0
-20.0,-103.0,104.0,0.0
-21.0,-114.0,113.0,0.0
-19.0,-106.0,102.0,0.0
-19.0,-108.0,102.0,0.0
-19.0,-110.0,102.0,0.0
-19.0,-114.0,104.0,0.0
-20.0,-119.0,105.0,0.0
-20.0,-123.0,106.0,0.0
-19.0,-121.0,102.0,0.0
-20.0,-126.0,104.0,0.0
-21.0,-135.0,110.0,0.0
-20.0,-132.0,104.0,0.0
-20.0,-138.0,106.0,0.0
-20.0,-140.0,106.0,0.0
-21.0,-146.0,108.0,0.0
-19.0,-142.0,102.0,0.0
-19.0,-144.0,102.0,0.0
-19.0,-139.0,96.0,0.0
-19.0,-149.0,100.0,0.0
-19.0,-151.0,100.0,0.0
-20.0,-166.0,106.0,0.0
-19.0,-156.0,97.0,0.0
-20.0,-169.0,103.0,0.0
-19.0,-169.0,101.0,0.0
-19.0,-172.0,100.0,0.0
-19.0,-173.0,98.0,0.0
-18.0,-172.0,96.0,0.0
-17.0,-170.0,92.0,0.0
-17.0,-175.0,92.0,0.0
-18.0,-181.0,93.0,0.0
-17.0,-174.0,86.0,0.0
-17.0,-175.0,85.0,0.0
-15.0,-168.0,78.0,0.0
-16.0,-178.0,81.0,0.0
-15.0,-174.0,77.0,0.0
-15.0,-179.0,77.0,0.0
-15.0,-180.0,75.0,0.0
-14.0,-184.0,75.0,0.0
-14.0,-189.0,74.0,0.0
-15.0,-209.0,80.0,0.0
-19.0,-280.0,104.0,0.0
-20.0,-290.0,104.0,0.0
-19.0,-295.0,101.0,0.0
-19.0,-297.0,99.0,0.0
-18.0,-299.0,96.0,0.0
-17.0,-296.0,92.0,0.0
-17.0,-307.0,92.0,0.0
-1258.0,15480.0,14852.0,0.0
-1298.0,15313.0,15009.0,0.0
0.0,0.0,0.0,0.0
-2950.0,32044.0,32775.0,0.0
-2989.0,31206.0,32608.0,0.0
-2989.0,30008.0,32035.0,0.0
-3035.0,29326.0,31986.0,0.0
-3050.0,28368.0,31613.0,0.0
-1836.0,16449.0,18732.0,0.0
-1864.0,16105.0,18742.0,0.0
-1879.0,15660.0,18626.0,0.0
-1901.0,15276.0,18570.0,0.0
-1933.0,14993.0,18630.0,0.0
-2143.0,16046.0,20384.0,0.0
-3345.0,24205.0,31439.0,0.0
-3375.0,23587.0,31330.0,0.0
-2315.0,15633.0,21237.0,0.0
-2348.0,15326.0,21299.0,0.0
-2346.0,14804.0,21049.0,0.0
-2387.0,14570.0,21199.0,0.0
-3457.0,20398.0,30377.0,0.0
-3486.0,19888.0,30322.0,0.0
-3599.0,19859.0,31005.0,0.0
-3639.0,19419.0,31053.0,0.0
-4002.0,20654.0,33838.0,0.0
-3278.0,16362.0,27471.0,0.0
-3225.0,15567.0,26794.0,0.0
-3414.0,15935.0,28128.0,0.0
-3412.0,15399.0,27884.0,0.0
-3428.0,14959.0,27795.0,0.0
-3442.0,14516.0,27691.0,0.0
-3461.0,14101.0,27626.0,0.0
-3508.0,13810.0,27798.0,0.0
-3492.0,13276.0,27472.0,0.0
-3514.0,12899.0,27451.0,0.0
-3409.0,12082.0,26458.0,0.0
-3508.0,11991.0,27036.0,0.0
-4016.0,13240.0,30755.0,0.0
-4172.0,13257.0,31744.0,0.0
-4273.0,13083.0,32317.0,0.0
-4287.0,12637.0,32223.0,0.0
-3054.0,8662.0,22820.0,0.0
-3091.0,8429.0,22959.0,0.0
-3166.0,8297.0,23386.0,0.0
-3198.0,8046.0,23492.0,0.0
-3204.0,7734.0,23414.0,0.0
-3213.0,7429.0,23350.0,0.0
-3217.0,7121.0,23259.0,0.0
-3217.0,6809.0,23141.0,0.0
-3229.0,6527.0,23116.0,0.0
-3227.0,6219.0,22987.0,0.0
-3235.0,5934.0,22930.0,0.0
-3241.0,5652.0,22871.0,0.0
-3243.0,5365.0,22780.0,0.0
-3253.0,5094.0,22744.0,0.0
-3249.0,4805.0,22618.0,0.0
-3257.0,4537.0,22573.0,0.0
-3260.0,4266.0,22499.0,0.0
-3260.0,3995.0,22412.0,0.0
-3263.0,3729.0,22338.0,0.0
-3269.0,3470.0,22295.0,0.0
-3269.0,3206.0,22205.0,0.0
-3268.0,2945.0,22111.0,0.0
-3271.0,2692.0,22057.0,0.0
-3276.0,2439.0,22003.0,0.0
-3275.0,2186.0,21918.0,0.0
-3277.0,1937.0,21855.0,0.0
-3280.0,1691.0,21803.0,0.0
-3280.0,1445.0,21720.0,0.0
-3174.0,1162.0,20952.0,0.0
-3216.0,940.0,21164.0,0.0
-3281.0,719.0,21523.0,0.0
-3276.0,479.0,21419.0,0.0
-3234.0,239.0,21074.0,0.0
-3202.0,7.0,20808.0,0.0
-3280.0,-226.0,21246.0,0.0
-3284.0,-459.0,21208.0,0.0
-3280.0,-691.0,21125.0,0.0
-3286.0,-922.0,21101.0,0.0
-3282.0,-1151.0,21020.0,0.0
-3249.0,-1365.0,20749.0,0.0
-3277.0,-1605.0,20873.0,0.0
-3283.0,-1835.0,20853.0,0.0
-3283.0,-2061.0,20799.0,0.0
-3283.0,-2288.0,20749.0,0.0
-3277.0,-2510.0,20661.0,0.0
-3272.0,-2730.0,20577.0,0.0
-3273.0,-2954.0,20531.0,0.0
-3272.0,-3176.0,20472.0,0.0
-3265.0,-3394.0,20388.0,0.0
-3263.0,-3615.0,20326.0,0.0
-3263.0,-3838.0,20283.0,0.0
-7.0,-9.0,45.0,0.0
-6.0,-8.0,38.0,0.0
-7.0,-10.0,44.0,0.0
-7.0,-11.0,46.0,0.0
-7.0,-11.0,46.0,0.0
-4.0,-5.0,19.0,0.0
-9.0,-15.0,56.0,0.0
-5.0,-6.0,27.0,0.0
-8.0,-14.0,47.0,0.0
-6.0,-11.0,37.0,0.0
-11.0,-21.0,69.0,0.0
-4.0,-8.0,25.0,0.0
-11.0,-23.0,67.0,0.0
-7.0,-14.0,39.0,0.0
-7.0,-14.0,40.0,0.0
-9.0,-19.0,51.0,0.0
-7.0,-15.0,39.0,0.0
-5.0,-13.0,33.0,0.0
-8.0,-18.0,46.0,0.0
-8.0,-20.0,48.0,0.0
-9.0,-24.0,56.0,0.0
-8.0,-21.0,46.0,0.0
-11.0,-31.0,66.0,0.0
-11.0,-28.0,61.0,0.0
-10.0,-29.0,58.0,0.0
-10.0,-30.0,59.0,0.0
-13.0,-40.0,77.0,0.0
-10.0,-33.0,63.0,0.0
-11.0,-39.0,70.0,0.0
-12.0,-38.0,67.0,0.0
-14.0,-45.0,78.0,0.0
-12.0,-44.0,73.0,0.0
-13.0,-48.0,79.0,0.0
-13.0,-48.0,76.0,0.0
-15.0,-55.0,87.0,0.0
-15.0,-58.0,89.0,0.0
-16.0,-63.0,94.0,0.0
-17.0,-70.0,102.0,0.0
-17.0,-69.0,98.0,0.0
-18.0,-74.0,102.0,0.0
-17.0,-74.0,100.0,0.0
-18.0,-79.0,104.0,0.0
-19.0,-83.0,107.0,0.0
-20.0,-92.0,116.0,0.0
-17.0,-83.0,102.0,0.0
-18.0,-87.0,105.0,0.0
-19.0,-94.0,111.0,0.0
-19.0,-97.0,111.0,0.0
-19.0,-97.0,109.0,0.0
-20.0,-104.0,115.0,0.0
-20.0,-109.0,118.0,0.0
-19.0,-108.0,114.0,0.0
-21.0,-120.0,124.0,0.0
-19.0,-109.0,109.0,0.0
-19.0,-111.0,109.0,0.0
-20.0,-122.0,118.0,0.0
-20.0,-121.0,114.0,0.0
-19.0,-124.0,115.0,0.0
-21.0,-132.0,120.0,0.0
-19.0,-128.0,113.0,0.0
-19.0,-131.0,114.0,0.0
-21.0,-142.0,121.0,0.0
-21.0,-145.0,121.0,0.0
-20.0,-142.0,115.0,0.0
-20.0,-146.0,117.0,0.0
-20.0,-149.0,116.0,0.0
-20.0,-153.0,116.0,0.0
-20.0,-157.0,116.0,0.0
-19.0,-154.0,112.0,0.0
-20.0,-168.0,119.0,0.0
-20.0,-163.0,112.0,0.0
-20.0,-166.0,112.0,0.0
-20.0,-174.0,115.0,0.0
-20.0,-179.0,116.0,0.0
-19.0,-175.0,110.0,0.0
-18.0,-171.0,104.0,0.0
-19.0,-184.0,110.0,0.0
-18.0,-188.0,110.0,0.0
-18.0,-178.0,101.0,0.0
-17.0,-184.0,102.0,0.0
-17.0,-186.0,100.0,0.0
-17.0,-190.0,100.0,0.0
-16.0,-190.0,98.0,0.0
-15.0,-179.0,89.0,0.0
-15.0,-181.0,88.0,0.0
-15.0,-187.0,88.0,0.0
-15.0,-197.0,90.0,0.0
-14.0,-188.0,83.0,0.0
-14.0,-190.0,83.0,0.0
-14.0,-196.0,82.0,0.0
-13.0,-200.0,81.0,0.0
-12.0,-200.0,79.0,0.0
-14.0,-212.0,81.0,0.0
-17.0,-284.0,106.0,0.0
-17.0,-295.0,106.0,0.0
-16.0,-298.0,104.0,0.0
-16.0,-305.0,102.0,0.0
-15.0,-307.0,99.0,0.0
-15.0,-308.0,96.0,0.0
-15.0,-314.0,95.0,0.0
-1058.0,15343.0,14760.0,0.0
-1095.0,15141.0,14878.0,0.0
-2501.0,33031.0,33157.0,0.0
-2507.0,31653.0,32460.0,0.0
-2516.0,30402.0,31849.0,0.0
-2586.0,29949.0,32054.0,0.0
-2634.0,29256.0,31992.0,0.0
0.0,0.0,0.0,0.0
-2713.0,27771.0,31706.0,0.0
-1668.0,16409.0,19144.0,0.0
-1699.0,16073.0,19165.0,0.0
-1721.0,15666.0,19093.0,0.0
-1762.0,15454.0,19251.0,0.0
-1895.0,16000.0,20377.0,0.0
-1906.0,15514.0,20203.0,0.0
-1948.0,15283.0,20352.0,0.0
-2066.0,15631.0,21290.0,0.0
-2094.0,15282.0,21291.0,0.0
-2136.0,15046.0,21448.0,0.0
-3087.0,20989.0,30618.0,0.0
-3113.0,20429.0,30501.0,0.0
-3122.0,19786.0,30245.0,0.0
-3231.0,19774.0,30951.0,0.0
-3274.0,19349.0,31022.0,0.0
-3605.0,20579.0,33804.0,0.0
-3627.0,19998.0,33666.0,0.0
-2914.0,15518.0,26781.0,0.0
-3147.0,16181.0,28637.0,0.0
-3087.0,15327.0,27827.0,0.0
-3113.0,14929.0,27815.0,0.0
-3128.0,14484.0,27703.0,0.0
-3151.0,14084.0,27666.0,0.0
-3207.0,13833.0,27921.0,0.0
-3268.0,13603.0,28225.0,0.0
-3200.0,12848.0,27418.0,0.0
-3210.0,12428.0,27291.0,0.0
-3213.0,11992.0,27115.0,0.0
-3765.0,13539.0,31537.0,0.0
-3870.0,13403.0,32184.0,0.0
-3911.0,13045.0,32312.0,0.0
-2744.0,8805.0,22515.0,0.0
-2812.0,8675.0,22919.0,0.0
-2894.0,8581.0,23441.0,0.0
-2926.0,8329.0,23545.0,0.0
-2936.0,8017.0,23480.0,0.0
-2944.0,7708.0,23407.0,0.0
-2949.0,7392.0,23302.0,0.0
-2955.0,7087.0,23218.0,0.0
-2962.0,6788.0,23147.0,0.0
-2973.0,6500.0,23098.0,0.0
-2974.0,6198.0,22984.0,0.0
-2981.0,5912.0,22916.0,0.0
-2989.0,5631.0,22860.0,0.0
-2988.0,5337.0,22741.0,0.0
-2994.0,5060.0,22676.0,0.0
-3002.0,4791.0,22634.0,0.0
-3008.0,4520.0,22573.0,0.0
-3007.0,4241.0,22459.0,0.0
-3011.0,3973.0,22381.0,0.0
-3016.0,3712.0,22325.0,0.0
-3020.0,3449.0,22255.0,0.0
-3021.0,3188.0,22174.0,0.0
-3026.0,2932.0,22114.0,0.0
-3026.0,2675.0,22028.0,0.0
-3031.0,2424.0,21975.0,0.0
-3035.0,2175.0,21925.0,0.0
-3037.0,1925.0,21854.0,0.0
-3037.0,1677.0,21774.0,0.0
-3041.0,1433.0,21719.0,0.0
-2939.0,1150.0,20918.0,0.0
-3000.0,936.0,21284.0,0.0
-3040.0,709.0,21491.0,0.0
-3036.0,470.0,21390.0,0.0
-3008.0,231.0,21119.0,0.0
-2968.0,0.0,20771.0,0.0
-3046.0,-233.0,21253.0,0.0
-3047.0,-466.0,21196.0,0.0
-3046.0,-697.0,21123.0,0.0
-3047.0,-927.0,21071.0,0.0
-3049.0,-1157.0,21025.0,0.0
-3018.0,-1370.0,20746.0,0.0
-3046.0,-1611.0,20882.0,0.0
-3047.0,-1838.0,20833.0,0.0
-3045.0,-2062.0,20761.0,0.0
-3048.0,-2289.0,20730.0,0.0
-3043.0,-2510.0,20644.0,0.0
-3044.0,-2734.0,20597.0,0.0
-3036.0,-2951.0,20495.0,0.0
-3036.0,-3174.0,20443.0,0.0
-3035.0,-3396.0,20391.0,0.0
-3033.0,-3615.0,20321.0,0.0
-3029.0,-3833.0,20251.0,0.0
-2844.0,-3807.0,18973.0,0.0
-3443.0,-4864.0,22922.0,0.0
-6.0,-9.0,43.0,0.0
-2984.0,-4653.0,19778.0,0.0
-5.0,-8.0,32.0,0.0
-4.0,-7.0,30.0,0.0
-6.0,-9.0,38.0,0.0
-4.0,-7.0,30.0,0.0
-5.0,-9.0,32.0,0.0
-5.0,-9.0,34.0,0.0
-5.0,-10.0,35.0,0.0
-6.0,-11.0,35.0,0.0
-7.0,-14.0,44.0,0.0
-7.0,-15.0,45.0,0.0
-7.0,-16.0,45.0,0.0
-7.0,-16.0,43.0,0.0
-4.0,-11.0,29.0,0.0
-6.0,-14.0,37.0,0.0
-9.0,-21.0,53.0,0.0
-9.0,-25.0,60.0,0.0
-8.0,-24.0,56.0,0.0
-9.0,-25.0,58.0,0.0
-8.0,-26.0,56.0,0.0
-8.0,-23.0,50.0,0.0
-8.0,-25.0,50.0,0.0
-11.0,-35.0,69.0,0.0
-12.0,-39.0,76.0,0.0
-10.0,-34.0,65.0,0.0
-11.0,-38.0,69.0,0.0
-11.0,-37.0,67.0,0.0
-11.0,-42.0,73.0,0.0
-12.0,-46.0,76.0,0.0
-11.0,-44.0,72.0,0.0
-13.0,-51.0,83.0,0.0
-12.0,-50.0,79.0,0.0
-14.0,-58.0,89.0,0.0
-14.0,-60.0,90.0,0.0
-15.0,-66.0,97.0,0.0
-14.0,-64.0,90.0,0.0
-15.0,-69.0,96.0,0.0
-16.0,-74.0,100.0,0.0
-16.0,-74.0,98.0,0.0
-16.0,-79.0,103.0,0.0
-17.0,-83.0,105.0,0.0
-17.0,-88.0,109.0,0.0
-17.0,-89.0,108.0,0.0
-15.0,-82.0,98.0,0.0
-17.0,-93.0,108.0,0.0
-17.0,-96.0,109.0,0.0
-17.0,-98.0,108.0,0.0
-17.0,-99.0,107.0,0.0
-18.0,-106.0,112.0,0.0
-18.0,-111.0,115.0,0.0
-17.0,-107.0,108.0,0.0
-18.0,-111.0,110.0,0.0
-18.0,-114.0,111.0,0.0
-17.0,-113.0,107.0,0.0
-17.0,-115.0,107.0,0.0
-17.0,-117.0,107.0,0.0
-17.0,-120.0,107.0,0.0
-18.0,-130.0,113.0,0.0
-18.0,-131.0,111.0,0.0
-18.0,-144.0,120.0,0.0
-17.0,-138.0,113.0,0.0
-17.0,-141.0,112.0,0.0
-16.0,-139.0,109.0,0.0
-17.0,-150.0,114.0,0.0
-17.0,-148.0,110.0,0.0
-16.0,-143.0,103.0,0.0
-18.0,-163.0,115.0,0.0
-18.0,-168.0,117.0,0.0
-17.0,-165.0,111.0,0.0
-16.0,-162.0,107.0,0.0
-16.0,-166.0,107.0,0.0
-18.0,-181.0,114.0,0.0
-15.0,-162.0,99.0,0.0
-17.0,-181.0,109.0,0.0
-15.0,-178.0,104.0,0.0
-15.0,-174.0,100.0,0.0
-14.0,-175.0,97.0,0.0
-14.0,-174.0,94.0,0.0
-15.0,-187.0,99.0,0.0
-13.0,-178.0,92.0,0.0
-14.0,-184.0,92.0,0.0
-12.0,-178.0,87.0,0.0
-13.0,-190.0,90.0,0.0
-13.0,-188.0,87.0,0.0
-12.0,-185.0,83.0,0.0
-11.0,-181.0,78.0,0.0
-11.0,-192.0,81.0,0.0
-11.0,-192.0,79.0,0.0
-11.0,-195.0,78.0,0.0
-11.0,-210.0,81.0,0.0
-14.0,-269.0,100.0,0.0
-14.0,-293.0,106.0,0.0
-14.0,-298.0,103.0,0.0
-13.0,-301.0,102.0,0.0
-12.0,-304.0,99.0,0.0
-12.0,-308.0,97.0,0.0
-11.0,-310.0,94.0,0.0
-864.0,15257.0,14712.0,0.0
-899.0,15031.0,14807.0,0.0
-2073.0,32896.0,33103.0,0.0
-2096.0,31616.0,32501.0,0.0
-2115.0,30372.0,31896.0,0.0
-2184.0,29886.0,32064.0,0.0
-2231.0,29153.0,31957.0,0.0
-2275.0,28400.0,31809.0,0.0
-2335.0,27882.0,31911.0,0.0
-2330.0,26626.0,31141.0,0.0
-1490.0,16322.0,19509.0,0.0
-1530.0,16068.0,19630.0,0.0
-1546.0,15584.0,19463.0,0.0
-1654.0,16017.0,20449.0,0.0
-1676.0,15592.0,20353.0,0.0
-1717.0,15360.0,20505.0,0.0
-1819.0,15655.0,21373.0,0.0
-1844.0,15269.0,21326.0,0.0
-1880.0,14984.0,21412.0,0.0
0.0,0.0,0.0,0.0
-2765.0,20457.0,30620.0,0.0
-2809.0,20026.0,30686.0,0.0
-2861.0,19662.0,30853.0,0.0
-2911.0,19284.0,30993.0,0.0
-3211.0,20505.0,33765.0,0.0
-3242.0,19967.0,33698.0,0.0
-2606.0,15480.0,26783.0,0.0
-2705.0,15495.0,27491.0,0.0
-2768.0,15289.0,27826.0,0.0
-2795.0,14887.0,27807.0,0.0
-2815.0,14459.0,27727.0,0.0
-2839.0,14055.0,27682.0,0.0
-2894.0,13815.0,27959.0,0.0
-2953.0,13581.0,28252.0,0.0
-2892.0,12817.0,27422.0,0.0
-2913.0,12436.0,27381.0,0.0
-2919.0,12002.0,27208.0,0.0
-3167.0,12532.0,29270.0,0.0
-3195.0,12167.0,29296.0,0.0
-3554.0,13014.0,32326.0,0.0
-2495.0,8782.0,22520.0,0.0
-2496.0,8441.0,22364.0,0.0
-2522.0,8191.0,22437.0,0.0
-2664.0,8301.0,23536.0,0.0
-2679.0,8002.0,23501.0,0.0
-2684.0,7680.0,23389.0,0.0
-2693.0,7374.0,23316.0,0.0
-2699.0,7067.0,23219.0,0.0
-2707.0,6766.0,23139.0,0.0
-2714.0,6470.0,23058.0,0.0
-2721.0,6178.0,22983.0,0.0
-2728.0,5889.0,22904.0,0.0
-2734.0,5604.0,22825.0,0.0
-2736.0,5316.0,22724.0,0.0
-2748.0,5047.0,22694.0,0.0
-2753.0,4771.0,22615.0,0.0
-2760.0,4501.0,22557.0,0.0
-2761.0,4226.0,22457.0,0.0
-2768.0,3962.0,22403.0,0.0
-2772.0,3697.0,22325.0,0.0
-2766.0,3422.0,22171.0,0.0
-2782.0,3178.0,22199.0,0.0
-2785.0,2921.0,22127.0,0.0
-2786.0,2663.0,22029.0,0.0
-2790.0,2411.0,21971.0,0.0
-2792.0,2161.0,21896.0,0.0
-2796.0,1913.0,21842.0,0.0
-2800.0,1668.0,21781.0,0.0
-2797.0,1421.0,21675.0,0.0
-2714.0,1143.0,20953.0,0.0
-2769.0,928.0,21296.0,0.0
-2806.0,700.0,21504.0,0.0
-2796.0,460.0,21345.0,0.0
-2776.0,224.0,21121.0,0.0
-2739.0,-7.0,20768.0,0.0
-2807.0,-239.0,21217.0,0.0
-2812.0,-472.0,21182.0,0.0
-2812.0,-703.0,21121.0,0.0
-2814.0,-933.0,21070.0,0.0
-2816.0,-1162.0,21017.0,0.0
-2794.0,-1378.0,20791.0,0.0
-2820.0,-1618.0,20926.0,0.0
-2819.0,-1844.0,20860.0,0.0
-2814.0,-2066.0,20761.0,0.0
-2812.0,-2289.0,20697.0,0.0
-2815.0,-2515.0,20661.0,0.0
-2811.0,-2734.0,20579.0,0.0
-2811.0,-2958.0,20528.0,0.0
-2808.0,-3178.0,20459.0,0.0
-2806.0,-3397.0,20391.0,0.0
-2804.0,-3616.0,20330.0,0.0
-2801.0,-3835.0,20264.0,0.0
-2800.0,-4055.0,20209.0,0.0
-2796.0,-4272.0,20141.0,0.0
-9.0,-14.0,60.0,0.0
-2758.0,-4653.0,19783.0,0.0
-5.0,-8.0,33.0,0.0
-5.0,-9.0,39.0,0.0
-7.0,-12.0,50.0,0.0
-7.0,-13.0,48.0,0.0
-6.0,-12.0,44.0,0.0
-8.0,-17.0,57.0,0.0
-6.0,-12.0,42.0,0.0
-4.0,-10.0,35.0,0.0
-7.0,-16.0,48.0,0.0
-9.0,-19.0,58.0,0.0
-9.0,-23.0,63.0,0.0
-6.0,-15.0,41.0,0.0
-6.0,-17.0,43.0,0.0
-8.0,-22.0,57.0,0.0
-8.0,-21.0,54.0,0.0
-11.0,-33.0,79.0,0.0
-8.0,-24.0,54.0,0.0
-6.0,-20.0,45.0,0.0
-8.0,-26.0,55.0,0.0
-9.0,-30.0,64.0,0.0
-9.0,-29.0,61.0,0.0
-10.0,-35.0,70.0,0.0
-10.0,-35.0,69.0,0.0
-12.0,-44.0,83.0,0.0
-11.0,-39.0,71.0,0.0
-11.0,-46.0,81.0,0.0
-13.0,-52.0,91.0,0.0
-10.0,-42.0,72.0,0.0
-12.0,-50.0,83.0,0.0
-11.0,-49.0,79.0,0.0
-13.0,-60.0,94.0,0.0
-15.0,-65.0,100.0,0.0
-14.0,-67.0,101.0,0.0
-15.0,-68.0,99.0,0.0
-15.0,-74.0,105.0,0.0
-14.0,-72.0,100.0,0.0
-15.0,-76.0,105.0,0.0
-15.0,-81.0,108.0,0.0
-17.0,-90.0,116.0,0.0
-16.0,-86.0,109.0,0.0
-15.0,-86.0,106.0,0.0
-16.0,-91.0,110.0,0.0
-16.0,-91.0,107.0,0.0
-17.0,-101.0,118.0,0.0
-16.0,-102.0,116.0,0.0
-16.0,-100.0,111.0,0.0
-16.0,-106.0,114.0,0.0
-17.0,-110.0,117.0,0.0
-17.0,-114.0,119.0,0.0
-17.0,-119.0,121.0,0.0
-15.0,-109.0,108.0,0.0
-17.0,-122.0,118.0,0.0
-16.0,-116.0,110.0,0.0
-17.0,-127.0,118.0,0.0
-17.0,-132.0,120.0,0.0
-17.0,-135.0,120.0,0.0
-17.0,-137.0,119.0,0.0
-16.0,-133.0,113.0,0.0
-18.0,-153.0,127.0,0.0
-17.0,-150.0,122.0,0.0
-16.0,-149.0,118.0,0.0
-15.0,-148.0,115.0,0.0
-17.0,-155.0,118.0,0.0
-17.0,-159.0,117.0,0.0
-16.0,-164.0,120.0,0.0
-16.0,-160.0,114.0,0.0
-15.0,-166.0,115.0,0.0
-14.0,-160.0,108.0,0.0
-16.0,-174.0,115.0,0.0
-16.0,-178.0,115.0,0.0
-15.0,-176.0,111.0,0.0
-15.0,-178.0,110.0,0.0
-14.0,-184.0,111.0,0.0
-14.0,-181.0,106.0,0.0
-14.0,-190.0,109.0,0.0
-13.0,-178.0,100.0,0.0
-12.0,-179.0,97.0,0.0
-13.0,-190.0,101.0,0.0
-13.0,-200.0,103.0,0.0
-11.0,-188.0,94.0,0.0
-12.0,-187.0,91.0,0.0
-11.0,-194.0,93.0,0.0
-11.0,-194.0,90.0,0.0
-10.0,-195.0,88.0,0.0
-10.0,-202.0,88.0,0.0
-10.0,-193.0,82.0,0.0
-10.0,-203.0,84.0,0.0
-9.0,-208.0,82.0,0.0
-9.0,-224.0,87.0,0.0
-11.0,-264.0,99.0,0.0
-11.0,-299.0,108.0,0.0
-11.0,-302.0,106.0,0.0
-11.0,-308.0,105.0,0.0
-10.0,-312.0,102.0,0.0
-10.0,-314.0,99.0,0.0
-9.0,-318.0,96.0,0.0
-670.0,15140.0,14634.0,0.0
-706.0,14949.0,14760.0,0.0
-743.0,14774.0,14902.0,0.0
-1691.0,31702.0,32664.0,0.0
-1711.0,30283.0,31876.0,0.0
-1780.0,29794.0,32040.0,0.0
-1828.0,29008.0,31871.0,0.0
-1913.0,28826.0,32361.0,0.0
-1948.0,27919.0,32027.0,0.0
-1945.0,26547.0,31120.0,0.0
-2008.0,26131.0,31306.0,0.0
-1307.0,16245.0,19892.0,0.0
-1341.0,15914.0,19919.0,0.0
-1363.0,15479.0,19807.0,0.0
-1424.0,15464.0,20234.0,0.0
-1523.0,15857.0,21217.0,0.0
-1568.0,15643.0,21408.0,0.0
-1591.0,15239.0,21333.0,0.0
-1632.0,14998.0,21483.0,0.0
-2358.0,20808.0,30499.0,0.0
-2403.0,20382.0,30578.0,0.0
-2463.0,20082.0,30844.0,0.0
-2516.0,19717.0,31011.0,0.0
-2553.0,19241.0,30997.0,0.0
-2813.0,20400.0,33671.0,0.0
-2852.0,19903.0,33670.0,0.0
-2306.0,15487.0,26858.0,0.0
-2380.0,15385.0,27362.0,0.0
-2452.0,15258.0,27839.0,0.0
-2478.0,14850.0,27802.0,0.0
-2499.0,14407.0,27694.0,0.0
-2526.0,14026.0,27690.0,0.0
-2575.0,13757.0,27906.0,0.0
-2606.0,13402.0,27948.0,0.0
-2587.0,12803.0,27461.0,0.0
-2604.0,12399.0,27367.0,0.0
-2612.0,11957.0,27177.0,0.0
-2841.0,12506.0,29282.0,0.0
-2873.0,12156.0,29342.0,0.0
-3190.0,12963.0,32281.0,0.0
-2246.0,8763.0,22529.0,0.0
-2243.0,8403.0,22323.0,0.0
-2271.0,8157.0,22402.0,0.0
-2358.0,8120.0,23081.0,0.0
-2413.0,7958.0,23434.0,0.0
-2428.0,7661.0,23396.0,0.0
-2436.0,7351.0,23305.0,0.0
-2444.0,7046.0,23220.0,0.0
-2452.0,6743.0,23124.0,0.0
-2461.0,6453.0,23065.0,0.0
-2470.0,6161.0,22984.0,0.0
-2479.0,5875.0,22916.0,0.0
-2485.0,5588.0,22830.0,0.0
-2490.0,5301.0,22732.0,0.0
-2499.0,5029.0,22686.0,0.0
-2504.0,4753.0,22603.0,0.0
-2508.0,4477.0,22512.0,0.0
-2516.0,4211.0,22456.0,0.0
-2525.0,3949.0,22407.0,0.0
-2527.0,3681.0,22316.0,0.0
-2533.0,3420.0,22245.0,0.0
-2540.0,3164.0,22194.0,0.0
-2539.0,2902.0,22082.0,0.0
-2546.0,2651.0,22032.0,0.0
-2548.0,2398.0,21954.0,0.0
-2554.0,2150.0,21904.0,0.0
-2557.0,1902.0,21830.0,0.0
-2562.0,1657.0,21772.0,0.0
-2566.0,1414.0,21717.0,0.0
-2481.0,1132.0,20911.0,0.0
-2538.0,920.0,21317.0,0.0
-2569.0,691.0,21487.0,0.0
-2564.0,453.0,21363.0,0.0
-2551.0,217.0,21178.0,0.0
-2514.0,-14.0,20789.0,0.0
-2575.0,-247.0,21227.0,0.0
-2580.0,-478.0,21192.0,0.0
-2579.0,-709.0,21116.0,0.0
-2586.0,-939.0,21098.0,0.0
-2581.0,-1165.0,20995.0,0.0
-2570.0,-1386.0,20837.0,0.0
-2581.0,-1617.0,20862.0,0.0
-2586.0,-1846.0,20844.0,0.0
-2588.0,-2072.0,20799.0,0.0
-2583.0,-2293.0,20701.0,0.0
-2586.0,-2518.0,20668.0,0.0
-2578.0,-2734.0,20558.0,0.0
-2579.0,-2957.0,20509.0,0.0
-2581.0,-3182.0,20478.0,0.0
-2579.0,-3400.0,20406.0,0.0
-2575.0,-3618.0,20333.0,0.0
-2573.0,-3837.0,20273.0,0.0
-4.0,-6.0,30.0,0.0
-5.0,-8.0,36.0,0.0
-5.0,-8.0,38.0,0.0
-5.0,-10.0,42.0,0.0
-5.0,-10.0,42.0,0.0
-6.0,-11.0,46.0,0.0
-5.0,-10.0,43.0,0.0
-5.0,-10.0,36.0,0.0
-4.0,-9.0,34.0,0.0
-5.0,-11.0,39.0,0.0
-5.0,-12.0,40.0,0.0
-6.0,-15.0,47.0,0.0
-7.0,-18.0,56.0,0.0
-6.0,-16.0,47.0,0.0
-5.0,-13.0,35.0,0.0
-8.0,-22.0,61.0,0.0
-7.0,-21.0,55.0,0.0
-8.0,-24.0,59.0,0.0
-9.0,-26.0,66.0,0.0
-7.0,-20.0,50.0,0.0
-5.0,-17.0,40.0,0.0
-6.0,-19.0,44.0,0.0
-7.0,-24.0,53.0,0.0
-7.0,-26.0,54.0,0.0
-10.0,-37.0,77.0,0.0
-7.0,-28.0,56.0,0.0
-10.0,-38.0,73.0,0.0
-8.0,-33.0,62.0,0.0
-9.0,-35.0,65.0,0.0
-10.0,-42.0,75.0,0.0
-8.0,-38.0,65.0,0.0
-10.0,-41.0,70.0,0.0
-10.0,-45.0,75.0,0.0
-11.0,-55.0,88.0,0.0
-13.0,-61.0,96.0,0.0
-11.0,-56.0,85.0,0.0
-13.0,-64.0,96.0,0.0
-14.0,-71.0,103.0,0.0
-12.0,-69.0,98.0,0.0
-12.0,-66.0,92.0,0.0
-14.0,-79.0,107.0,0.0
-13.0,-71.0,95.0,0.0
-14.0,-84.0,109.0,0.0
-14.0,-86.0,108.0,0.0
-14.0,-86.0,108.0,0.0
-15.0,-91.0,111.0,0.0
-15.0,-94.0,111.0,0.0
-13.0,-91.0,106.0,0.0
-14.0,-95.0,108.0,0.0
-15.0,-102.0,113.0,0.0
-14.0,-102.0,111.0,0.0
-15.0,-105.0,112.0,0.0
-15.0,-108.0,113.0,0.0
-15.0,-113.0,115.0,0.0
-15.0,-111.0,111.0,0.0
-14.0,-111.0,109.0,0.0
-13.0,-112.0,106.0,0.0
-14.0,-114.0,106.0,0.0
-14.0,-121.0,111.0,0.0
-14.0,-126.0,113.0,0.0
-15.0,-138.0,120.0,0.0
-14.0,-132.0,112.0,0.0
-14.0,-136.0,113.0,0.0
-15.0,-150.0,122.0,0.0
-15.0,-154.0,123.0,0.0
-15.0,-153.0,119.0,0.0
-14.0,-154.0,118.0,0.0
-14.0,-158.0,117.0,0.0
-13.0,-156.0,114.0,0.0
-13.0,-153.0,108.0,0.0
-12.0,-152.0,105.0,0.0
-13.0,-167.0,114.0,0.0
-14.0,-174.0,115.0,0.0
-12.0,-161.0,104.0,0.0
-13.0,-177.0,113.0,0.0
-12.0,-169.0,104.0,0.0
-12.0,-183.0,110.0,0.0
-12.0,-182.0,107.0,0.0
-11.0,-180.0,103.0,0.0
-11.0,-179.0,100.0,0.0
-10.0,-179.0,97.0,0.0
-11.0,-183.0,97.0,0.0
-10.0,-183.0,95.0,0.0
-9.0,-180.0,92.0,0.0
-9.0,-186.0,91.0,0.0
-9.0,-192.0,92.0,0.0
-9.0,-189.0,88.0,0.0
-8.0,-194.0,87.0,0.0
-8.0,-195.0,86.0,0.0
-7.0,-197.0,84.0,0.0
-7.0,-193.0,79.0,0.0
-7.0,-198.0,78.0,0.0
-6.0,-204.0,79.0,0.0
-8.0,-258.0,97.0,0.0
-8.0,-289.0,105.0,0.0
-8.0,-294.0,104.0,0.0
-7.0,-306.0,104.0,0.0
-7.0,-308.0,101.0,0.0
-6.0,-312.0,98.0,0.0
-6.0,-315.0,96.0,0.0
-546.0,17144.0,16608.0,0.0
-514.0,14849.0,14693.0,0.0
-549.0,14637.0,14796.0,0.0
-1276.0,31593.0,32623.0,0.0
-1312.0,30258.0,31919.0,0.0
-1376.0,29687.0,31995.0,0.0
-1427.0,28855.0,31773.0,0.0
-1490.0,28325.0,31867.0,0.0
-1558.0,27936.0,32116.0,0.0
-1568.0,26544.0,31185.0,0.0
-1628.0,26100.0,31337.0,0.0
-1668.0,25356.0,31117.0,0.0
-1119.0,16145.0,20252.0,0.0
-1768.0,24267.0,31122.0,0.0
-1180.0,15418.0,20217.0,0.0
-1274.0,15866.0,21276.0,0.0
-1314.0,15609.0,21408.0,0.0
-1342.0,15232.0,21370.0,0.0
-1384.0,15018.0,21557.0,0.0
0.0,0.0,0.0,0.0
-2051.0,20385.0,30650.0,0.0
-2117.0,20147.0,31013.0,0.0
-2156.0,19669.0,31004.0,0.0
-2193.0,19185.0,30977.0,0.0
-2430.0,20392.0,33733.0,0.0
-2465.0,19853.0,33660.0,0.0
-2500.0,19327.0,33593.0,0.0
-2529.0,18776.0,33468.0,0.0
-2136.0,15231.0,27852.0,0.0
-2161.0,14798.0,27770.0,0.0
-2183.0,14364.0,27674.0,0.0
-2215.0,13998.0,27700.0,0.0
-2240.0,13598.0,27649.0,0.0
-2283.0,13314.0,27830.0,0.0
-2275.0,12746.0,27402.0,0.0
-2278.0,12258.0,27121.0,0.0
-2308.0,11927.0,27170.0,0.0
-2517.0,12483.0,29298.0,0.0
-2548.0,12132.0,29357.0,0.0
-2830.0,12922.0,32259.0,0.0
-1998.0,8747.0,22544.0,0.0
-2048.0,8596.0,22889.0,0.0
-2121.0,8528.0,23483.0,0.0
-2143.0,8251.0,23514.0,0.0
-2157.0,7945.0,23457.0,0.0
-2169.0,7636.0,23383.0,0.0
-2178.0,7324.0,23283.0,0.0
-2189.0,7024.0,23207.0,0.0
-2197.0,6720.0,23109.0,0.0
-2209.0,6433.0,23057.0,0.0
-2219.0,6144.0,22989.0,0.0
-2228.0,5856.0,22910.0,0.0
-2236.0,5571.0,22832.0,0.0
-2244.0,5290.0,22754.0,0.0
-2253.0,5015.0,22691.0,0.0
-2258.0,4736.0,22595.0,0.0
-2266.0,4466.0,22530.0,0.0
-2271.0,4195.0,22443.0,0.0
-2279.0,3933.0,22395.0,0.0
-2288.0,3674.0,22344.0,0.0
-2290.0,3407.0,22236.0,0.0
-2297.0,3150.0,22178.0,0.0
-2303.0,2896.0,22119.0,0.0
-2304.0,2637.0,22012.0,0.0
-2310.0,2387.0,21955.0,0.0
-2316.0,2140.0,21908.0,0.0
-2322.0,1895.0,21855.0,0.0
-2325.0,1649.0,21786.0,0.0
-2330.0,1406.0,21730.0,0.0
-2257.0,1126.0,20950.0,0.0
-2312.0,914.0,21368.0,0.0
-2336.0,684.0,21499.0,0.0
-2327.0,445.0,21331.0,0.0
-2333.0,212.0,21307.0,0.0
-2285.0,-20.0,20784.0,0.0
-2345.0,-253.0,21246.0,0.0
-2348.0,-485.0,21199.0,0.0
-2347.0,-714.0,21112.0,0.0
-2350.0,-942.0,21062.0,0.0
-2354.0,-1171.0,21025.0,0.0
-2342.0,-1391.0,20850.0,0.0
-2355.0,-1624.0,20904.0,0.0
-2354.0,-1848.0,20829.0,0.0
-2355.0,-2073.0,20782.0,0.0
-2353.0,-2294.0,20701.0,0.0
-2357.0,-2521.0,20677.0,0.0
-2354.0,-2742.0,20602.0,0.0
-2352.0,-2960.0,20528.0,0.0
-2352.0,-3183.0,20478.0,0.0
-2351.0,-3401.0,20408.0,0.0
-2349.0,-3621.0,20350.0,0.0
-2345.0,-3836.0,20271.0,0.0
-2342.0,-4052.0,20198.0,0.0
-2342.0,-4274.0,20158.0,0.0
-2340.0,-4494.0,20106.0,0.0
-4.0,-9.0,36.0,0.0
-4.0,-9.0,37.0,0.0
-3.0,-7.0,30.0,0.0
-6.0,-12.0,50.0,0.0
-7.0,-15.0,57.0,0.0
-6.0,-15.0,53.0,0.0
-5.0,-12.0,43.0,0.0
-7.0,-17.0,57.0,0.0
-4.0,-11.0,36.0,0.0
-6.0,-16.0,48.0,0.0
-7.0,-21.0,60.0,0.0
-4.0,-11.0,34.0,0.0
-5.0,-15.0,42.0,0.0
-7.0,-24.0,64.0,0.0
-8.0,-24.0,61.0,0.0
-7.0,-26.0,63.0,0.0
-7.0,-27.0,64.0,0.0
-10.0,-33.0,77.0,0.0
-7.0,-27.0,61.0,0.0
-7.0,-27.0,58.0,0.0
-7.0,-28.0,59.0,0.0
-8.0,-33.0,66.0,0.0
-6.0,-26.0,52.0,0.0
-6.0,-28.0,54.0,0.0
-9.0,-43.0,82.0,0.0
-10.0,-49.0,88.0,0.0
-8.0,-37.0,68.0,0.0
-11.0,-53.0,92.0,0.0
-9.0,-44.0,75.0,0.0
-11.0,-54.0,90.0,0.0
-10.0,-57.0,92.0,0.0
-10.0,-52.0,82.0,0.0
-11.0,-59.0,91.0,0.0
-11.0,-62.0,93.0,0.0
-10.0,-62.0,91.0,0.0
-10.0,-62.0,89.0,0.0
-13.0,-76.0,106.0,0.0
-13.0,-77.0,105.0,0.0
-12.0,-77.0,101.0,0.0
-11.0,-73.0,95.0,0.0
-12.0,-84.0,107.0,0.0
-12.0,-85.0,105.0,0.0
-13.0,-89.0,108.0,0.0
-13.0,-94.0,112.0,0.0
-13.0,-100.0,116.0,0.0
-13.0,-96.0,110.0,0.0
-13.0,-98.0,109.0,0.0
-13.0,-109.0,118.0,0.0
-14.0,-109.0,116.0,0.0
-12.0,-107.0,111.0,0.0
-14.0,-117.0,119.0,0.0
-12.0,-114.0,114.0,0.0
-12.0,-116.0,113.0,0.0
-12.0,-114.0,109.0,0.0
-13.0,-126.0,118.0,0.0
-13.0,-127.0,116.0,0.0
-13.0,-134.0,120.0,0.0
-12.0,-126.0,111.0,0.0
-13.0,-140.0,120.0,0.0
-13.0,-141.0,118.0,0.0
-13.0,-145.0,119.0,0.0
-12.0,-140.0,112.0,0.0
-14.0,-161.0,126.0,0.0
-12.0,-159.0,122.0,0.0
-13.0,-163.0,122.0,0.0
-12.0,-160.0,117.0,0.0
-11.0,-163.0,117.0,0.0
-11.0,-158.0,111.0,0.0
-12.0,-172.0,117.0,0.0
-12.0,-186.0,124.0,0.0
-11.0,-184.0,120.0,0.0
-11.0,-182.0,116.0,0.0
-11.0,-180.0,111.0,0.0
-10.0,-186.0,112.0,0.0
-10.0,-193.0,114.0,0.0
-10.0,-195.0,112.0,0.0
-9.0,-195.0,109.0,0.0
-9.0,-191.0,104.0,0.0
-9.0,-196.0,105.0,0.0
-8.0,-195.0,102.0,0.0
-8.0,-177.0,90.0,0.0
-7.0,-196.0,97.0,0.0
-7.0,-193.0,92.0,0.0
-6.0,-200.0,93.0,0.0
-6.0,-194.0,88.0,0.0
-6.0,-200.0,87.0,0.0
-5.0,-197.0,84.0,0.0
-5.0,-209.0,86.0,0.0
-5.0,-204.0,82.0,0.0
-4.0,-220.0,85.0,0.0
-6.0,-253.0,95.0,0.0
-5.0,-294.0,108.0,0.0
-5.0,-307.0,108.0,0.0
-5.0,-302.0,103.0,0.0
