//X,Y,Z,Classification
-1965,1082,20286,0.0
-1967,857,20216,0.0
-1973,635,20186,0.0
-1980,414,20162,0.0
-1981,193,20086,0.0
-1988,-26,20074,0.0
-1989,-243,20004,0.0
-1991,-461,19939,0.0
-1979,-672,19749,0.0
-2052,-917,20397,0.0
-2211,-1225,21898,0.0
-3286,-2170,32438,1.0
-3313,-2538,32589,1.0
0,0,0,0.0
-3390,-3311,33143,1.0
0,0,0,0.0
-206,-244,2002,0.0
0,0,0,0.0
-269,-376,2604,0.0
0,0,0,0.0
0,0,0,0.0
-197,-336,1885,0.0
-273,-494,2610,0.0
0,0,0,0.0
0,0,0,0.0
0,0,0,0.0
-386,-861,3665,0.0
0,0,0,0.0
0,0,0,0.0
0,0,0,0.0
0,0,0,0.0
-160,-443,1512,0.0
0,0,0,0.0
0,0,0,0.0
0,0,0,0.0
-3370,-10801,31629,1.0
0,0,0,0.0
0,0,0,0.0
0,0,0,0.0
0,0,0,0.0
0,0,0,0.0
0,0,0,0.0
-220,-883,2059,0.0
0,0,0,0.0
0,0,0,0.0
0,0,0,0.0
0,0,0,0.0
-265,-1229,2482,0.0
0,0,0,0.0
-3229,-15842,30289,1.0
0,0,0,0.0
0,0,0,0.0
-3153,-16769,29658,1.0
-3123,-17054,29409,1.0
-183,-1027,1729,0.0
-172,-993,1631,0.0
0,0,0,0.0
-2997,-18169,28404,1.0
-215,-1341,2047,0.0
-2932,-18717,27903,1.0
-2894,-18957,27604,1.0
-192,-1295,1842,0.0
-2827,-19496,27106,1.0
-294,-2080,2827,0.0
-233,-1693,2250,0.0
-2717,-20248,26296,1.0
-2689,-20565,26115,1.0
-2074,-16272,20206,0.0
-2010,-16198,19672,0.0
-24,-204,242,0.0
-20,-177,206,0.0
-1833,-15988,18175,0.0
-1790,-16032,17832,0.0
-1749,-16091,17510,0.0
-1699,-16065,17106,0.0
-10,-96,100,0.0
-5,-50,51,0.0
-6,-60,59,0.0
-7,-71,70,0.0
-7,-78,74,0.0
-6,-68,64,0.0
-6,-72,66,0.0
-8,-91,83,0.0
-9,-105,93,0.0
-8,-105,90,0.0
-7,-99,83,0.0
-7,-97,79,0.0
-6,-95,76,0.0
-8,-113,89,0.0
-7,-102,78,0.0
-7,-116,87,0.0
-8,-122,90,0.0
-6,-113,81,0.0
-7,-122,86,0.0
-7,-124,85,0.0
-6,-116,78,0.0
-6,-116,76,0.0
-7,-131,83,0.0
-6,-133,82,0.0
-7,-145,88,0.0
-6,-152,90,0.0
-6,-147,85,0.0
-7,-170,96,0.0
-6,-178,97,0.0
-6,-173,92,0.0
-6,-190,99,0.0
-6,-190,96,0.0
-6,-187,92,0.0
-5,-201,97,0.0
-5,-211,99,0.0
-5,-205,93,0.0
-4,-212,93,0.0
-4,-226,96,0.0
-3,-224,93,0.0
-3,-226,91,0.0
-3,-235,92,0.0
-3,-260,99,0.0
-3,-314,115,0.0
-2,-320,113,0.0
-1,-323,111,0.0
-1,-318,105,0.0
0,-322,103,0.0
0,-326,100,0.0
91,16499,16077,0.0
53,16232,16156,0.0
15,15361,15617,0.0
-19,15233,15822,0.0
-50,13592,14421,0.0
-81,13403,14529,0.0
-128,15037,16653,0.0
-167,15237,17241,0.0
-201,14915,17247,0.0
-236,14682,17349,0.0
-35,1855,2241,0.0
-21,993,1226,0.0
-593,24576,31009,0.0
-638,23689,30558,0.0
-698,23437,30912,0.0
-748,22853,30823,0.0
-519,14552,20077,0.0
-581,14965,21119,0.0
-611,14584,21059,0.0
-645,14299,21128,0.0
-686,14156,21411,0.0
-1007,19436,30097,0.0
-1065,19259,30538,0.0
-1100,18682,30344,0.0
-1157,18496,30781,0.0
-1205,18150,30956,0.0
-1353,19238,33640,0.0
-1380,18565,33292,0.0
-1141,14523,26719,0.0
-1198,14452,27288,0.0
-1244,14233,27591,0.0
-1275,13854,27585,0.0
-1302,13435,27487,0.0
-1330,13047,27442,0.0
-1359,12683,27438,0.0
-1419,12601,28057,0.0
-42,358,821,0.0
-1425,11469,27093,0.0
-1446,11078,26980,0.0
-1672,12193,30637,0.0
-1732,12025,31196,0.0
-1800,11897,31889,0.0
-80,506,1404,0.0
-93,554,1589,0.0
-1880,10701,31811,0.0
-123,668,2061,0.0
-1295,6657,21309,0.0
-1308,6384,21243,0.0
-1324,6130,21237,0.0
-1338,5871,21195,0.0
-1348,5598,21103,0.0
-1362,5345,21070,0.0
-1376,5101,21065,0.0
-1385,4840,20982,0.0
-1395,4585,20915,0.0
-1407,4341,20885,0.0
-1418,4094,20830,0.0
-1429,3855,20808,0.0
-1438,3609,20740,0.0
-1448,3373,20709,0.0
-1456,3133,20652,0.0
-1460,2888,20543,0.0
-1472,2661,20547,0.0
-1482,2432,20527,0.0
-1489,2201,20483,0.0
-1497,1971,20440,0.0
-1504,1742,20390,0.0
-1510,1516,20344,0.0
-1517,1292,20305,0.0
-1525,1068,20277,0.0
-1523,840,20134,0.0
-1533,622,20152,0.0
-1539,402,20119,0.0
-1547,182,20124,0.0
-1551,-35,20069,0.0
-1553,-253,19999,0.0
-1555,-470,19938,0.0
-1545,-679,19703,0.0
-1619,-933,20569,0.0
-1741,-1239,22012,0.0
0,0,0,0.0
-174,-171,2182,0.0
-2663,-2967,33282,1.0
-2671,-3332,33275,1.0
-139,-192,1726,0.0
0,0,0,0.0
0,0,0,0.0
0,0,0,0.0
0,0,0,0.0
-206,-421,2525,0.0
0,0,0,0.0
-226,-523,2761,0.0
-38,-92,457,0.0
0,0,0,0.0
-10,-25,113,0.0
-9,-25,105,0.0
-7,-20,81,0.0
0,0,0,0.0
0,0,0,0.0
0,0,0,0.0
0,0,0,0.0
-171,-627,2059,0.0
0,0,0,0.0
0,0,0,0.0
0,0,0,0.0
-121,-512,1450,0.0
0,0,0,0.0
0,0,0,0.0
0,0,0,0.0
0,0,0,0.0
-23,-112,271,0.0
-22,-114,267,0.0
-189,-1008,2285,0.0
0,0,0,0.0
0,0,0,0.0
0,0,0,0.0
-2540,-15236,30812,1.0
-2505,-15475,30459,1.0
0,0,0,0.0
-255,-1666,3111,0.0
0,0,0,0.0
0,0,0,0.0
0,0,0,0.0
0,0,0,0.0
0,0,0,0.0
0,0,0,0.0
-2279,-18204,28531,1.0
-2250,-18492,28300,1.0
-158,-1339,2002,0.0
-2198,-19119,27916,1.0
-2162,-19353,27609,1.0
-225,-2074,2891,0.0
0,0,0,0.0
-152,-1482,1975,0.0
-2020,-20297,26434,1.0
-133,-1371,1746,0.0
-13,-142,178,0.0
-14,-155,189,0.0
-16,-192,229,0.0
-17,-197,230,0.0
-1326,-15982,18224,0.0
-1300,-16173,18045,0.0
-1251,-16069,17541,0.0
-1208,-16027,17119,0.0
-3,-46,48,0.0
-3,-40,40,0.0
-5,-74,74,0.0
-5,-75,74,0.0
-4,-70,67,0.0
-4,-72,68,0.0
-5,-88,81,0.0
-4,-78,70,0.0
-5,-89,79,0.0
-5,-95,82,0.0
-5,-96,81,0.0
-5,-109,89,0.0
-4,-94,75,0.0
-4,-96,76,0.0
-5,-122,94,0.0
-5,-116,88,0.0
-5,-135,99,0.0
-4,-132,95,0.0
-4,-138,97,0.0
-4,-119,82,0.0
-3,-118,79,0.0
-3,-109,72,0.0
-4,-136,86,0.0
-4,-153,96,0.0
-3,-164,99,0.0
-4,-170,101,0.0
-3,-160,92,0.0
-2,-158,89,0.0
-2,-166,92,0.0
-2,-184,99,0.0
-2,-191,100,0.0
-2,-200,102,0.0
-1,-208,104,0.0
-1,-221,107,0.0
0,-224,105,0.0
0,-234,107,0.0
0,-227,100,0.0
0,-226,97,0.0
0,-229,96,0.0
0,-238,97,0.0
1,-237,94,0.0
1,-253,97,0.0
3,-315,116,0.0
3,-324,116,0.0
4,-327,113,0.0
4,-331,110,0.0
5,-327,105,0.0
6,-329,102,0.0
1430,13409,13195,0.0
1409,13306,13376,0.0
1405,13364,13722,0.0
1386,13281,13930,0.0
1380,13312,14264,0.0
1354,13161,14408,0.0
1338,13092,14643,0.0
1309,12914,14758,0.0
1503,14924,17427,0.0
1505,15058,17970,0.0
1598,16095,19631,0.0
1362,13821,17231,0.0
81,834,1063,0.0
1225,12605,16423,0.0
1618,16764,22335,0.0
1473,15371,20942,0.0
1359,14280,19900,0.0
1341,14178,20213,0.0
1386,14754,21521,0.0
62,679,1014,0.0
1295,13960,21332,0.0
1452,15767,24666,0.0
1616,17640,28263,0.0
1472,16172,26542,0.0
1394,15404,25904,0.0
1363,15158,26127,0.0
1275,14264,25206,0.0
1302,14639,26532,0.0
1257,14211,26426,0.0
1208,13733,26209,0.0
1166,13319,26099,0.0
1124,12910,25985,0.0
1084,12508,25870,0.0
33,385,821,0.0
1099,12778,27952,0.0
1096,12788,28791,0.0
1167,13678,31711,0.0
1121,13174,31473,0.0
1077,12691,31261,0.0
1046,12349,31388,0.0
1028,12152,31895,0.0
1000,11844,32123,0.0
959,11364,31875,0.0
925,10954,31808,0.0
62,741,2231,0.0
577,6830,21316,0.0
555,6552,21235,0.0
536,6300,21228,0.0
516,6036,21177,0.0
496,5764,21084,0.0
477,5508,21038,0.0
458,5259,21011,0.0
442,5013,20987,0.0
424,4759,20922,0.0
408,4513,20882,0.0
392,4267,20828,0.0
24,265,1372,0.0
362,3785,20748,0.0
347,3543,20682,0.0
334,3308,20651,0.0
321,3073,20605,0.0
308,2842,20575,0.0
295,2605,20492,0.0
284,2375,20440,0.0
272,2147,20394,0.0
261,1920,20345,0.0
251,1697,20323,0.0
241,1470,20240,0.0
232,1250,20237,0.0
223,1030,20214,0.0
214,808,20149,0.0
20,59,2071,0.0
199,372,20083,0.0
192,154,20077,0.0
185,-61,19987,0.0
178,-276,19926,0.0
2,-8,301,0.0
1,-8,225,0.0
169,-956,20673,0.0
175,-1258,22033,0.0
258,-2253,33146,1.0
15,-162,2054,0.0
13,-164,1830,0.0
16,-224,2225,0.0
16,-259,2323,0.0
16,-298,2437,0.0
0,0,0,0.0
19,-404,2800,0.0
13,-299,1921,0.0
0,0,0,0.0
0,0,0,0.0
16,-462,2451,0.0
0,0,0,0.0
21,-652,3087,0.0
0,0,0,0.0
2,-117,499,0.0
246,-8352,34040,1.0
19,-698,2723,0.0
0,0,0,0.0
0,0,0,0.0
0,0,0,0.0
0,0,0,0.0
0,0,0,0.0
3,-115,354,0.0
3,-138,411,0.0
24,-960,2734,0.0
0,0,0,0.0
0,0,0,0.0
18,-709,1831,0.0
0,0,0,0.0
21,-811,1964,0.0
0,0,0,0.0
10,-383,876,0.0
10,-385,855,0.0
36,-1306,2812,0.0
0,0,0,0.0
22,-788,1607,0.0
0,0,0,0.0
0,0,0,0.0
31,-1061,1996,0.0
0,0,0,0.0
0,0,0,0.0
42,-1331,2319,0.0
35,-1090,1854,0.0
0,0,0,0.0
612,-18068,29238,1.0
0,0,0,0.0
35,-1017,1570,0.0
28,-809,1221,0.0
42,-1180,1738,0.0
42,-1140,1640,0.0
740,-19539,27471,1.0
55,-1457,2003,0.0
60,-1552,2086,0.0
813,-20291,26658,1.0
835,-20472,26303,1.0
862,-20733,26052,1.0
688,-16251,19975,0.0
698,-16197,19473,0.0
706,-16102,18942,0.0
717,-16050,18473,0.0
730,-16054,18080,0.0
745,-16115,17758,0.0
5,-121,131,0.0
773,-16135,17028,0.0
801,-16425,16963,0.0
827,-16662,16841,0.0
2,-54,54,0.0
4,-82,80,0.0
5,-106,100,0.0
7,-155,144,0.0
12,-231,210,0.0
12,-232,206,0.0
7,-147,128,0.0
6,-126,107,0.0
6,-115,96,0.0
6,-107,88,0.0
6,-114,90,0.0
6,-106,83,0.0
6,-107,81,0.0
6,-118,88,0.0
7,-129,94,0.0
7,-122,87,0.0
8,-126,88,0.0
8,-128,87,0.0
8,-126,83,0.0
8,-127,82,0.0
8,-138,87,0.0
11,-159,98,0.0
10,-159,96,0.0
11,-166,97,0.0
12,-172,98,0.0
13,-187,104,0.0
15,-213,116,0.0
16,-227,121,0.0
15,-214,111,0.0
16,-204,103,0.0
17,-219,108,0.0
17,-223,106,0.0
17,-221,102,0.0
19,-234,106,0.0
20,-239,105,0.0
20,-245,104,0.0
20,-243,101,0.0
21,-247,99,0.0
22,-254,98,0.0
25,-279,105,0.0
27,-311,113,0.0
29,-326,115,0.0
29,-313,106,0.0
29,-316,104,0.0
30,-319,101,0.0
2103,13327,13139,0.0
2092,13260,13352,0.0
2106,13341,13724,0.0
2086,13215,13887,0.0
2188,13856,14875,0.0
2074,13119,14388,0.0
2071,13098,14677,0.0
2377,15011,17188,0.0
2314,14599,17081,0.0
1916,12066,14427,0.0
1907,11995,14659,0.0
2141,13439,16788,0.0
2157,13510,17252,0.0
2163,13513,17642,0.0
2171,13524,18056,0.0
2178,13530,18473,0.0
2188,13551,18924,0.0
2191,13516,19308,0.0
2188,13442,19650,0.0
2185,13365,19995,0.0
2196,13371,20476,0.0
2211,13397,21005,0.0
2187,13181,21165,0.0
2143,12841,21121,0.0
2408,14337,24165,0.0
2002,11838,20452,0.0
1993,11702,20727,0.0
1990,11598,21070,0.0
71,415,774,0.0
2394,13719,26245,0.0
2330,13230,25986,0.0
2283,12833,25893,0.0
2023,11260,23347,0.0
2187,12031,25648,0.0
2035,11075,24286,0.0
2378,12774,28832,0.0
2026,10743,24969,0.0
2022,10568,25313,0.0
2034,10482,25887,0.0
2024,10266,26159,0.0
2441,12180,32049,0.0
2401,11765,31990,0.0
2356,11336,31881,0.0
2317,10929,31820,0.0
2281,10535,31785,0.0
1501,6787,21239,0.0
1479,6528,21219,0.0
1451,6248,21114,0.0
1431,6000,21112,0.0
1404,5721,20988,0.0
1384,5476,20977,0.0
1365,5231,20958,0.0
10,42,177,0.0
11,43,191,0.0
6,23,106,0.0
1288,4244,20782,0.0
1273,4010,20777,0.0
1253,3762,20688,0.0
1235,3522,20627,0.0
1223,3296,20640,0.0
1208,3061,20599,0.0
1192,2826,20527,0.0
1176,2592,20466,0.0
1165,2368,20464,0.0
1147,2131,20324,0.0
1136,1908,20306,0.0
1126,1687,20311,0.0
1112,1461,20222,0.0
1106,1245,20270,0.0
1092,1021,20163,0.0
1082,801,20116,0.0
1072,582,20061,0.0
1064,366,20024,0.0
52,7,988,0.0
1049,-64,19971,0.0
1040,-279,19895,0.0
1030,-490,19797,0.0
982,-674,18944,0.0
1060,-951,20518,0.0
53,-61,1059,0.0
0,0,0,0.0
1683,-2589,32864,1.0
1685,-2954,32952,1.0
138,-273,2713,0.0
1687,-3686,33090,1.0
0,0,0,0.0
0,0,0,0.0
0,0,0,0.0
52,-161,1040,0.0
0,0,0,0.0
119,-416,2345,0.0
0,0,0,0.0
0,0,0,0.0
0,0,0,0.0
76,-331,1489,0.0
0,0,0,0.0
146,-684,2796,0.0
0,0,0,0.0
165,-840,3139,0.0
0,0,0,0.0
103,-566,1948,0.0
0,0,0,0.0
0,0,0,0.0
114,-685,2099,0.0
0,0,0,0.0
0,0,0,0.0
0,0,0,0.0
113,-755,2016,0.0
1850,-12555,32437,1.0
120,-832,2084,0.0
114,-809,1967,0.0
1882,-13585,31988,1.0
1904,-13991,31982,1.0
0,0,0,0.0
0,0,0,0.0
1948,-15028,31539,1.0
0,0,0,0.0
1972,-15648,31097,1.0
0,0,0,0.0
0,0,0,0.0
0,0,0,0.0
156,-1302,2333,0.0
181,-1527,2667,0.0
2052,-17399,29641,1.0
0,0,0,0.0
2080,-17938,29104,1.0
2102,-18268,28937,1.0
0,0,0,0.0
2132,-18767,28356,1.0
2150,-19037,28102,1.0
0,0,0,0.0
144,-1296,1827,0.0
2201,-19780,27258,1.0
20,-183,246,0.0
23,-216,286,0.0
22,-207,267,0.0
162,-1475,1859,0.0
1783,-16260,20043,0.0
1770,-16174,19503,0.0
1760,-16114,19010,0.0
1751,-16042,18517,0.0
1745,-16006,18077,0.0
37,-346,383,0.0
1753,-16089,17403,0.0
15,-142,150,0.0
1784,-16362,16948,0.0
18,-173,176,0.0
1853,-16971,16837,0.0
1890,-17281,16780,0.0
1926,-17586,16712,0.0
1966,-17918,16663,0.0
9,-84,76,0.0
8,-74,66,0.0
7,-76,66,0.0
10,-98,84,0.0
19,-174,144,0.0
15,-144,118,0.0
10,-100,80,0.0
10,-93,73,0.0
13,-114,88,0.0
12,-111,83,0.0
13,-114,83,0.0
12,-113,80,0.0
13,-113,79,0.0
13,-118,80,0.0
14,-128,86,0.0
14,-129,84,0.0
16,-143,91,0.0
17,-153,95,0.0
18,-154,93,0.0
17,-149,88,0.0
19,-164,95,0.0
19,-170,95,0.0
21,-177,96,0.0
22,-186,98,0.0
22,-189,98,0.0
25,-213,107,0.0
24,-200,99,0.0
27,-229,109,0.0
27,-217,101,0.0
28,-228,103,0.0
28,-232,101,0.0
30,-243,103,0.0
29,-238,99,0.0
34,-273,109,0.0
37,-288,113,0.0
36,-282,106,0.0
37,-291,106,0.0
39,-300,106,0.0
39,-298,101,0.0
39,-298,98,0.0
40,-304,97,0.0
-3803,16014,14673,0.0
-3879,15948,14929,0.0
-3960,15892,15198,0.0
-4040,15834,15472,0.0
-4123,15772,15747,0.0
-4205,15706,16020,0.0
-4285,15625,16287,0.0
-4216,15009,15986,0.0
-4421,15370,16728,0.0
-4402,14939,16618,0.0
-4423,14650,16654,0.0
-4723,15276,17750,0.0
-4831,15248,18112,0.0
-4926,15177,18430,0.0
-5023,15099,18749,0.0
-5126,15035,19091,0.0
-5054,14464,18784,0.0
-5244,14640,19449,0.0
-5251,14300,19435,0.0
-5251,13945,19394,0.0
-5655,14641,20841,0.0
-5769,14564,21221,0.0
-5876,14455,21565,0.0
-6356,15236,23280,0.0
-6689,15621,24451,0.0
-6686,15206,24390,0.0
-6672,14777,24293,0.0
-6529,14073,23724,0.0
-6665,13981,24173,0.0
-6554,13371,23720,0.0
-6641,13174,23988,0.0
-6665,12851,24028,0.0
-9009,16876,32412,0.0
-9200,16740,33038,0.0
-549,969,1969,0.0
-9216,15792,32968,0.0
-505,840,1806,0.0
-8516,13713,30345,0.0
-8480,13227,30162,0.0
-8600,12985,30531,0.0
-8620,12589,30544,0.0
-8653,12214,30603,0.0
-8980,12240,31694,0.0
-9142,12027,32208,0.0
-9146,11600,32160,0.0
-9148,11175,32106,0.0
-9107,10704,31903,0.0
-9124,10306,31897,0.0
-226,245,792,0.0
-6691,6954,23304,0.0
-6821,6787,23712,0.0
-6975,6633,24203,0.0
-7036,6385,24368,0.0
-500,432,1730,0.0
-7005,5753,24165,0.0
-440,342,1517,0.0
-6980,5141,23989,0.0
-6992,4859,23985,0.0
-6968,4552,23855,0.0
-6552,4009,22384,0.0
-6572,3753,22409,0.0
-6466,3430,22006,0.0
-6527,3200,22171,0.0
-6560,2953,22241,0.0
-6569,2695,22228,0.0
-6563,2432,22163,0.0
-6571,2177,22146,0.0
-6575,1920,22112,0.0
-6569,1664,22050,0.0
-6573,1410,22019,0.0
-6576,1157,21982,0.0
-6575,904,21933,0.0
-6585,655,21924,0.0
-6577,404,21853,0.0
-6645,157,22030,0.0
-6643,-92,21979,0.0
-6652,-343,21965,0.0
-6650,-591,21910,0.0
-6648,-838,21858,0.0
-6656,-1087,21837,0.0
-187,-38,615,0.0
-6555,-1556,21412,0.0
-6622,-1816,21584,0.0
-6630,-2061,21563,0.0
-6613,-2299,21459,0.0
-6673,-2564,21606,0.0
-6672,-2807,21555,0.0
-6665,-3047,21481,0.0
-6672,-3294,21456,0.0
-6667,-3534,21390,0.0
-6671,-3779,21356,0.0
-6673,-4022,21309,0.0
-6683,-4271,21292,0.0
-6687,-4516,21254,0.0
-6691,-4761,21215,0.0
-6690,-5003,21162,0.0
-6690,-5247,21112,0.0
-6691,-5489,21059,0.0
-250,-214,787,0.0
-6709,-5992,21013,0.0
-6706,-6233,20949,0.0
-6702,-6473,20881,0.0
-6709,-6725,20852,0.0
-6710,-6971,20800,0.0
-6712,-7218,20750,0.0
-6669,-7416,20560,0.0
-6670,-7662,20508,0.0
-6678,-7917,20477,0.0
-6724,-8220,20562,0.0
-6735,-8482,20536,0.0
-6735,-8733,20479,0.0
-6739,-8989,20431,0.0
-6743,-9247,20387,0.0
-6736,-9489,20303,0.0
-6640,-9604,19954,0.0
-6717,-9969,20125,0.0
-6708,-10210,20035,0.0
-6720,-10484,20010,0.0
-6714,-10732,19930,0.0
-6727,-11013,19905,0.0
-6757,-11322,19927,0.0
-6769,-11603,19895,0.0
-6780,-11888,19862,0.0
-6787,-12168,19817,0.0
-6803,-12464,19795,0.0
-6872,-12864,19926,0.0
-6901,-13194,19938,0.0
-6902,-13474,19871,0.0
-6814,-13580,19547,0.0
-6980,-14193,19946,0.0
-6994,-14511,19914,0.0
-6988,-14788,19820,0.0
-6833,-14746,19305,0.0
-6791,-14938,19107,0.0
-6808,-15266,19081,0.0
-6971,-15930,19457,0.0
-6542,-15233,18185,0.0
-7111,-16866,19681,0.0
-7138,-17243,19668,0.0
-7157,-17607,19636,0.0
-7163,-17944,19564,0.0
-7186,-18325,19537,0.0
-7188,-18660,19452,0.0
-7206,-19037,19405,0.0
-7221,-19412,19351,0.0
-27,-76,75,0.0
-60,-169,161,0.0
-17,-51,48,0.0
-20,-61,56,0.0
-15,-46,42,0.0
-17,-54,47,0.0
-18,-56,47,0.0
-21,-69,58,0.0
-26,-85,69,0.0
-23,-76,60,0.0
-28,-92,72,0.0
-25,-85,65,0.0
-33,-111,83,0.0
-46,-160,117,0.0
-38,-134,95,0.0
-33,-121,84,0.0
-32,-116,79,0.0
-30,-111,73,0.0
-36,-137,88,0.0
-40,-155,97,0.0
-33,-129,79,0.0
-32,-128,77,0.0
-33,-133,77,0.0
-32,-132,76,0.0
-31,-130,72,0.0
-38,-159,86,0.0
-36,-155,81,0.0
-38,-164,84,0.0
-38,-172,85,0.0
-38,-175,85,0.0
-42,-195,92,0.0
-42,-198,91,0.0
-44,-211,94,0.0
-42,-203,88,0.0
-44,-221,92,0.0
-44,-225,92,0.0
-48,-245,96,0.0
-49,-250,95,0.0
-57,-301,111,0.0
-61,-325,116,0.0
-59,-323,112,0.0
-59,-326,109,0.0
-57,-323,104,0.0
-57,-330,102,0.0
-56,-329,98,0.0
-54,-324,93,0.0
-55,-337,92,0.0
-2655,15962,14983,0.0
-3962,23157,22205,0.0
-74,419,409,0.0
-2922,16152,16165,0.0
-2945,15837,16192,0.0
-2998,15684,16384,0.0
-3068,15615,16667,0.0
-3139,15544,16953,0.0
-3212,15476,17248,0.0
-3214,15068,17162,0.0
-3352,15296,17804,0.0
-3353,14890,17715,0.0
-3355,14506,17642,0.0
-3593,15116,18793,0.0
-3682,15075,19164,0.0
-3764,14999,19499,0.0
-3841,14897,19806,0.0
-3929,14826,20164,0.0
0,0,0,0.0
-4030,14401,20505,0.0
-4041,14047,20470,0.0
-4073,13772,20546,0.0
-4386,14423,22033,0.0
-101,323,506,0.0
-82,257,411,0.0
-4688,14164,23267,0.0
-4791,14069,23690,0.0
-4902,13984,24145,0.0
-5007,13874,24570,0.0
-5121,13777,25038,0.0
-5193,13563,25302,0.0
-5206,13193,25274,0.0
-5227,12847,25284,0.0
-5604,13355,27014,0.0
-5730,13232,27525,0.0
-5861,13112,28062,0.0
-5963,12916,28458,0.0
-6093,12771,28982,0.0
-200,404,945,0.0
-191,375,906,0.0
-6565,12423,30931,0.0
-6698,12234,31461,0.0
-6830,12033,31986,0.0
-6853,11634,31993,0.0
-6866,11222,31958,0.0
-6860,10785,31840,0.0
-30,45,140,0.0
-4634,6718,21381,0.0
-4637,6444,21336,0.0
-4643,6176,21298,0.0
-4643,5904,21238,0.0
-4644,5636,21187,0.0
-4645,5372,21135,0.0
-4649,5112,21093,0.0
-4651,4854,21047,0.0
-4651,4597,20992,0.0
-4656,4345,20961,0.0
-4653,4089,20891,0.0
-4656,3840,20847,0.0
-4658,3594,20806,0.0
-4660,3347,20756,0.0
-4661,3103,20710,0.0
-4670,2866,20699,0.0
-4662,2620,20613,0.0
-4664,2382,20570,0.0
-4664,2143,20517,0.0
-4664,1908,20468,0.0
-4669,1675,20441,0.0
-4671,1442,20398,0.0
-4668,1211,20339,0.0
-4667,980,20281,0.0
-4679,753,20285,0.0
-4673,524,20212,0.0
-4667,296,20137,0.0
-227,2,977,0.0
-4674,-153,20072,0.0
-4670,-376,20009,0.0
-4672,-599,19966,0.0
-4856,-853,20706,0.0
-4929,-1100,20969,0.0
-4921,-1330,20889,0.0
-4941,-1568,20923,0.0
-4928,-1795,20819,0.0
-4940,-2031,20825,0.0
-4936,-2259,20760,0.0
-4959,-2501,20807,0.0
-4944,-2724,20697,0.0
-4943,-2952,20646,0.0
-4950,-3186,20625,0.0
-4948,-3414,20572,0.0
-70,-51,288,0.0
-4949,-3873,20481,0.0
-4943,-4098,20412,0.0
-4948,-4330,20383,0.0
-4955,-4565,20363,0.0
-4959,-4798,20333,0.0
-4961,-5030,20292,0.0
-4964,-5262,20260,0.0
-4963,-5491,20208,0.0
-4964,-5723,20166,0.0
-4966,-5956,20126,0.0
-4969,-6192,20094,0.0
-4966,-6421,20036,0.0
-4967,-6656,19992,0.0
-4972,-6895,19963,0.0
-4970,-7126,19906,0.0
-4981,-7378,19905,0.0
-4973,-7602,19825,0.0
-4964,-7824,19739,0.0
-4964,-8061,19691,0.0
-4961,-8296,19636,0.0
-4964,-8541,19600,0.0
-4966,-8786,19562,0.0
-4966,-9025,19510,0.0
-97,-180,381,0.0
-4976,-9533,19451,0.0
-4983,-9794,19432,0.0
-4978,-10031,19361,0.0
-4987,-10298,19346,0.0
-4983,-10542,19283,0.0
-4988,-10806,19252,0.0
-4989,-11064,19207,0.0
-4991,-11327,19165,0.0
-4995,-11594,19127,0.0
-4987,-11838,19047,0.0
-4984,-12094,18984,0.0
-4991,-12376,18958,0.0
-4980,-12615,18863,0.0
-4987,-12903,18834,0.0
-4994,-13196,18811,0.0
-4992,-13466,18750,0.0
-4996,-13756,18711,0.0
-4993,-14031,18646,0.0
-5008,-14355,18643,0.0
-4990,-14594,18525,0.0
-4993,-14896,18481,0.0
-4991,-15181,18414,0.0
-4988,-15471,18347,0.0
-4988,-15771,18287,0.0
-4979,-16048,18197,0.0
-4873,-16009,17754,0.0
-4773,-15983,17334,0.0
-4731,-16143,17124,0.0
-12,-43,44,0.0
-17,-59,60,0.0
-19,-67,66,0.0
-17,-61,60,0.0
-21,-80,76,0.0
-23,-87,81,0.0
-22,-88,80,0.0
-21,-82,74,0.0
-24,-99,86,0.0
-25,-102,87,0.0
-23,-97,80,0.0
-30,-129,104,0.0
-25,-108,86,0.0
-23,-102,79,0.0
-24,-107,81,0.0
-21,-96,72,0.0
-23,-108,79,0.0
-24,-115,81,0.0
-24,-114,79,0.0
-23,-115,78,0.0
-25,-127,84,0.0
-26,-134,86,0.0
-26,-134,84,0.0
-27,-141,86,0.0
-26,-138,83,0.0
-28,-152,89,0.0
-30,-167,95,0.0
-30,-172,96,0.0
-30,-172,93,0.0
-29,-168,89,0.0
-31,-187,95,0.0
-32,-194,97,0.0
-29,-184,89,0.0
-30,-190,90,0.0
-32,-205,94,0.0
-32,-215,96,0.0
-31,-214,93,0.0
-32,-227,95,0.0
-31,-226,92,0.0
-32,-237,94,0.0
-33,-248,95,0.0
-41,-309,114,0.0
-42,-322,116,0.0
-41,-321,111,0.0
-40,-323,108,0.0
-38,-318,102,0.0
-38,-321,100,0.0
-37,-323,97,0.0
-37,-329,94,0.0
0,0,0,0.0
0,0,0,0.0
-910,14442,14533,0.0
-946,14268,14667,0.0
-69,998,1048,0.0
-112,1539,1651,0.0
-115,1508,1654,0.0
0,0,0,0.0
0,0,0,0.0
-139,1589,1858,0.0
-2413,26431,31592,0.0
-126,1324,1618,0.0
-1529,15417,19254,0.0
-1554,15040,19202,0.0
-1577,14679,19162,0.0
-1691,15136,20205,0.0
-2637,22688,30978,0.0
-1754,14530,20293,0.0
-1834,14624,20897,0.0
-1885,14479,21174,0.0
-1919,14194,21245,0.0
-2774,19778,30306,0.0
-2826,19416,30467,0.0
-2842,18823,30254,0.0
-2929,18709,30807,0.0
-220,1357,2291,0.0
-291,1727,2989,0.0
-3298,18890,33515,0.0
-76,421,765,0.0
-84,450,841,0.0
-2806,14406,27625,0.0
-2834,14032,27635,0.0
-2852,13611,27545,0.0
-2871,13209,27479,0.0
-2913,12914,27630,0.0
-2913,12437,27384,0.0
-2924,12024,27258,0.0
-2812,11130,25994,0.0
-2925,11138,26818,0.0
-3397,12442,30905,0.0
-3496,12308,31561,0.0
-3596,12166,32230,0.0
-260,845,2317,0.0
-3618,11271,31954,0.0
-3628,10837,31828,0.0
-3650,10445,31808,0.0
-2474,6773,21413,0.0
-2475,6478,21289,0.0
-2488,6218,21268,0.0
-2491,5939,21165,0.0
-2500,5676,21116,0.0
-2515,5431,21119,0.0
-2523,5172,21069,0.0
-2530,4914,21007,0.0
-2536,4659,20950,0.0
-2548,4416,20933,0.0
-2555,4168,20889,0.0
-2563,3922,20843,0.0
-2571,3679,20800,0.0
-2576,3435,20748,0.0
-2584,3197,20712,0.0
-2588,2956,20650,0.0
-2590,2716,20577,0.0
-2588,2473,20464,0.0
-2604,2250,20501,0.0
-2611,2020,20474,0.0
-2612,1787,20403,0.0
-2618,1560,20362,0.0
-2624,1333,20337,0.0
-2629,1107,20292,0.0
-2631,881,20235,0.0
-2635,657,20193,0.0
-2643,436,20180,0.0
-2646,213,20134,0.0
-2649,-7,20086,0.0
-2652,-227,20046,0.0
-2641,-444,19891,0.0
-2590,-647,19449,0.0
-2732,-906,20453,0.0
-2934,-1210,21898,0.0
-346,-171,2573,0.0
-4285,-2459,31795,1.0
-168,-110,1244,0.0
-144,-106,1063,0.0
0,0,0,0.0
0,0,0,0.0
0,0,0,0.0
-4399,-4628,32121,1.0
-272,-308,1983,0.0
0,0,0,0.0
0,0,0,0.0
0,0,0,0.0
-206,-298,1483,0.0
-4447,-6794,32031,1.0
0,0,0,0.0
-194,-329,1396,0.0
-183,-324,1309,0.0
0,0,0,0.0
0,0,0,0.0
-4387,-8810,31235,1.0
-256,-534,1819,0.0
-285,-618,2021,0.0
-295,-664,2090,0.0
0,0,0,0.0
0,0,0,0.0
0,0,0,0.0
0,0,0,0.0
0,0,0,0.0
0,0,0,0.0
0,0,0,0.0
-200,-585,1402,0.0
-369,-1112,2584,0.0
-4194,-13013,29325,1.0
0,0,0,0.0
0,0,0,0.0
0,0,0,0.0
0,0,0,0.0
0,0,0,0.0
0,0,0,0.0
-4224,-15831,29371,1.0
0,0,0,0.0
-243,-956,1684,0.0
0,0,0,0.0
0,0,0,0.0
-4099,-17396,28428,1.0
-197,-857,1368,0.0
0,0,0,0.0
-4028,-18372,27922,1.0
-280,-1305,1938,0.0
0,0,0,0.0
-3907,-19127,27089,1.0
-3863,-19354,26786,1.0
-3826,-19623,26542,1.0
-3795,-19915,26329,1.0
-3749,-20138,26028,1.0
-3707,-20374,25747,1.0
-2887,-16235,20062,0.0
-2811,-16175,19549,0.0
-29,-169,200,0.0
-2659,-16016,18518,0.0
-2604,-16059,18162,0.0
-2546,-16062,17771,0.0
-2493,-16097,17424,0.0
-2444,-16144,17097,0.0
-6,-40,42,0.0
-8,-51,52,0.0
-10,-67,67,0.0
-10,-72,71,0.0
-13,-96,91,0.0
-17,-135,125,0.0
-11,-88,80,0.0
-12,-97,87,0.0
-13,-110,97,0.0
-12,-98,84,0.0
-12,-105,86,0.0
-13,-116,95,0.0
-13,-117,93,0.0
-12,-107,83,0.0
-13,-118,89,0.0
-14,-134,100,0.0
-13,-126,92,0.0
-12,-127,90,0.0
-12,-134,93,0.0
-12,-129,87,0.0
-12,-131,87,0.0
-11,-130,84,0.0
-12,-148,93,0.0
-13,-161,99,0.0
-13,-169,102,0.0
-12,-160,94,0.0
-13,-179,103,0.0
-12,-175,98,0.0
-13,-188,102,0.0
-13,-202,107,0.0
-13,-202,104,0.0
-12,-206,103,0.0
-13,-217,106,0.0
-12,-213,101,0.0
-12,-226,104,0.0
-12,-227,102,0.0
-12,-239,105,0.0
-11,-246,104,0.0
-11,-240,98,0.0
-11,-249,99,0.0
-10,-253,98,0.0
-12,-292,109,0.0
-12,-323,117,0.0
-12,-327,114,0.0
-11,-334,113,0.0
-10,-337,110,0.0
-10,-324,102,0.0
-9,-337,102,0.0
842,15068,14770,0.0
799,14692,14710,0.0
757,14322,14648,0.0
685,13368,13966,0.0
671,13503,14412,0.0
634,13171,14362,0.0
611,13118,14615,0.0
585,13015,14816,0.0
560,12934,15044,0.0
533,12784,15196,0.0
663,16567,20127,0.0
626,16356,20311,0.0
589,16113,20453,0.0
547,15709,20386,0.0
508,15374,20400,0.0
487,15587,21150,0.0
453,15403,21378,0.0
393,14232,20206,0.0
381,14826,21539,0.0
336,14150,21036,0.0
305,13987,21285,0.0
318,16075,25044,0.0
280,15801,25211,0.0
244,15511,25349,0.0
206,15231,25505,0.0
171,14961,25677,0.0
135,14713,25888,0.0
99,14413,26009,0.0
63,14077,26061,0.0
28,13701,26034,0.0
-4,13358,26059,0.0
-36,12714,25476,0.0
-72,12997,26764,0.0
-105,12681,26848,0.0
-135,12208,26585,0.0
-168,12042,26990,0.0
-200,11743,27104,0.0
-226,11256,26766,0.0
-258,10999,26969,0.0
-328,12239,30964,0.0
-22,710,1855,0.0
-405,11898,32116,0.0
-26,690,1927,0.0
-19,453,1311,0.0
-493,10642,31863,0.0
-348,6849,21272,0.0
-367,6597,21275,0.0
-384,6332,21230,0.0
-400,6063,21162,0.0
-418,5804,21120,0.0
-433,5545,21070,0.0
-449,5295,21043,0.0
-464,5041,20988,0.0
-478,4790,20939,0.0
-492,4543,20898,0.0
-505,4300,20866,0.0
-516,4043,20752,0.0
-530,3811,20762,0.0
-543,3572,20717,0.0
-555,3337,20688,0.0
-565,3098,20626,0.0
-575,2856,20535,0.0
-587,2633,20553,0.0
-596,2399,20486,0.0
-36,128,1214,0.0
-614,1939,20375,0.0
-623,1715,20349,0.0
-631,1488,20281,0.0
-638,1263,20218,0.0
-645,1041,20176,0.0
-653,821,20150,0.0
-660,602,20126,0.0
-666,382,20062,0.0
-671,164,19985,0.0
-680,-52,20024,0.0
-35,-14,1034,0.0
-688,-483,19908,0.0
-690,-694,19773,0.0
-730,-953,20740,0.0
-784,-1255,22086,0.0
-1184,-2243,33137,1.0
-100,-219,2793,0.0
-53,-129,1449,0.0
0,0,0,0.0
-1241,-3777,33902,1.0
-69,-230,1881,0.0
0,0,0,0.0
0,0,0,0.0
0,0,0,0.0
0,0,0,0.0
0,0,0,0.0
0,0,0,0.0
0,0,0,0.0
-44,-245,1159,0.0
0,0,0,0.0
0,0,0,0.0
0,0,0,0.0
-92,-627,2440,0.0
-86,-612,2278,0.0
0,0,0,0.0
0,0,0,0.0
0,0,0,0.0
0,0,0,0.0
0,0,0,0.0
-78,-717,2111,0.0
0,0,0,0.0
0,0,0,0.0
-85,-885,2353,0.0
-81,-864,2222,0.0
-83,-919,2290,0.0
-93,-1075,2597,0.0
0,0,0,0.0
-73,-909,2068,0.0
0,0,0,0.0
0,0,0,0.0
0,0,0,0.0
0,0,0,0.0
0,0,0,0.0
0,0,0,0.0
0,0,0,0.0
0,0,0,0.0
-955,-16895,30077,1.0
-46,-856,1487,0.0
0,0,0,0.0
-48,-964,1594,0.0
-50,-1052,1698,0.0
-836,-18395,28958,1.0
-59,-1368,2104,0.0
-785,-18966,28477,1.0
-756,-19186,28142,1.0
-11,-289,415,0.0
-56,-1562,2188,0.0
-51,-1517,2077,0.0
-633,-19957,26713,1.0
0,0,0,0.0
-4,-176,226,0.0
-5,-180,226,0.0
-397,-16215,19852,0.0
-368,-16168,19363,0.0
-338,-16083,18844,0.0
-309,-15989,18327,0.0
-284,-16159,18124,0.0
-255,-16038,17601,0.0
-229,-16073,17261,0.0
0,-60,63,0.0
-1,-105,108,0.0
-1,-89,90,0.0
-1,-170,167,0.0
0,-70,68,0.0
-1,-85,80,0.0
0,-95,87,0.0
0,-85,77,0.0
0,-82,72,0.0
0,-80,69,0.0
0,-95,81,0.0
0,-97,80,0.0
0,-98,79,0.0
0,-121,95,0.0
0,-134,104,0.0
0,-115,87,0.0
0,-114,85,0.0
1,-132,95,0.0
1,-122,86,0.0
1,-122,84,0.0
1,-116,78,0.0
1,-114,76,0.0
2,-117,76,0.0
3,-145,91,0.0
3,-152,93,0.0
3,-148,88,0.0
4,-156,91,0.0
3,-154,88,0.0
4,-175,98,0.0
4,-162,87,0.0
4,-169,90,0.0
6,-188,97,0.0
6,-199,100,0.0
6,-204,99,0.0
6,-201,95,0.0
8,-211,97,0.0
8,-223,99,0.0
9,-212,93,0.0
9,-223,94,0.0
10,-221,91,0.0
10,-225,90,0.0
10,-239,92,0.0
13,-288,108,0.0
15,-301,109,0.0
16,-313,109,0.0
16,-318,107,0.0
17,-311,102,0.0
17,-315,99,0.0
1764,13348,13151,0.0
1745,13242,13326,0.0
1755,13355,13728,0.0
1738,13255,13919,0.0
1714,13112,14067,0.0
1703,13061,14315,0.0
1682,12927,14476,0.0
1665,12825,14674,0.0
1655,12780,14943,0.0
1586,12266,14656,0.0
1550,12010,14666,0.0
1628,12628,15762,0.0
1619,12578,16049,0.0
1610,12525,16340,0.0
1599,12451,16609,0.0
1589,12380,16889,0.0
1580,12316,17186,0.0
1571,12248,17484,0.0
1560,12160,17761,0.0
1553,12102,18090,0.0
1545,12032,18411,0.0
1537,11965,18745,0.0
1528,11871,19045,0.0
1521,11799,19390,0.0
1512,11706,19714,0.0
1506,11636,20085,0.0
1501,11563,20464,0.0
1492,11461,20800,0.0
1489,11403,21234,0.0
1485,11322,21639,0.0
1486,11274,22123,0.0
1699,12830,25861,0.0
1661,12477,25846,0.0
1475,11017,23463,0.0
1490,11053,24214,0.0
1739,12806,28874,0.0
1559,11383,26433,0.0
1531,11092,26541,0.0
1688,12110,29879,0.0
1668,11848,30160,0.0
1655,11619,30542,0.0
136,944,2566,0.0
1659,11364,31928,0.0
1620,10934,31802,0.0
68,459,1386,0.0
1041,6810,21291,0.0
1017,6542,21239,0.0
994,6272,21173,0.0
971,6002,21093,0.0
951,5746,21055,0.0
932,5499,21039,0.0
912,5242,20980,0.0
894,4999,20966,0.0
875,4743,20891,0.0
857,4498,20847,0.0
841,4256,20812,0.0
824,4012,20759,0.0
809,3775,20731,0.0
793,3535,20682,0.0
777,3297,20626,0.0
765,3070,20624,0.0
750,2835,20570,0.0
736,2599,20490,0.0
723,2367,20424,0.0
712,2144,20428,0.0
699,1914,20345,0.0
687,1688,20274,0.0
30,66,924,0.0
669,1246,20243,0.0
657,1022,20163,0.0
650,805,20166,0.0
639,585,20071,0.0
633,368,20075,0.0
624,151,19990,0.0
617,-64,19991,0.0
612,-279,19990,0.0
603,-493,19891,0.0
595,-703,19790,0.0
614,-954,20565,0.0
652,-1256,21985,0.0
972,-2238,32910,1.0
75,-202,2562,0.0
0,0,0,0.0
971,-3349,33302,1.0
973,-3732,33478,1.0
0,0,0,0.0
53,-247,1851,0.0
977,-4879,33805,1.0
0,0,0,0.0
0,0,0,0.0
0,0,0,0.0
0,0,0,0.0
78,-538,2690,0.0
972,-7020,33258,1.0
0,0,0,0.0
0,0,0,0.0
29,-247,1009,0.0
0,0,0,0.0
0,0,0,0.0
0,0,0,0.0
0,0,0,0.0
0,0,0,0.0
66,-671,2133,0.0
0,0,0,0.0
54,-584,1725,0.0
0,0,0,0.0
1082,-11999,33064,1.0
0,0,0,0.0
0,0,0,0.0
0,0,0,0.0
0,0,0,0.0
0,0,0,0.0
1150,-14074,32136,1.0
0,0,0,0.0
0,0,0,0.0
70,-890,1869,0.0
0,0,0,0.0
67,-873,1734,0.0
98,-1274,2464,0.0
0,0,0,0.0
76,-1011,1857,0.0
1279,-16870,30175,1.0
0,0,0,0.0
1314,-17469,29725,1.0
103,-1381,2294,0.0
0,0,0,0.0
104,-1414,2238,0.0
0,0,0,0.0
1410,-18896,28516,1.0
79,-1074,1585,0.0
1448,-19387,27931,1.0
0,0,0,0.0
123,-1654,2277,0.0
1501,-20009,26925,1.0
14,-193,254,0.0
12,-173,223,0.0
92,-1228,1546,0.0
1235,-16279,20039,0.0
1233,-16182,19487,0.0
17,-237,280,0.0
1232,-16036,18486,0.0
1238,-16042,18096,0.0
1246,-16067,17735,0.0
1256,-16115,17406,0.0
14,-194,205,0.0
10,-135,140,0.0
1319,-16632,16838,0.0
1359,-17022,16865,0.0
1391,-17317,16792,0.0
5,-72,69,0.0
6,-86,80,0.0
6,-86,78,0.0
7,-91,81,0.0
7,-96,83,0.0
8,-103,88,0.0
11,-141,118,0.0
12,-142,115,0.0
9,-113,90,0.0
9,-116,89,0.0
10,-122,92,0.0
11,-128,95,0.0
10,-129,94,0.0
11,-126,89,0.0
10,-125,86,0.0
10,-126,86,0.0
10,-124,82,0.0
11,-127,83,0.0
13,-138,87,0.0
13,-156,96,0.0
14,-158,96,0.0
14,-157,92,0.0
16,-169,97,0.0
16,-176,98,0.0
16,-170,92,0.0
18,-194,104,0.0
19,-201,103,0.0
20,-208,105,0.0
20,-206,101,0.0
22,-219,105,0.0
23,-228,106,0.0
23,-231,104,0.0
24,-237,104,0.0
25,-237,101,0.0
24,-238,99,0.0
26,-247,99,0.0
27,-254,98,0.0
29,-266,100,0.0
32,-293,107,0.0
33,-307,108,0.0
35,-316,107,0.0
33,-302,99,0.0
35,-307,97,0.0
-3994,16029,14619,0.0
-4077,15982,14893,0.0
-4158,15918,15155,0.0
-4243,15865,15432,0.0
-4326,15799,15702,0.0
-4370,15591,15832,0.0
-4488,15641,16229,0.0
-4474,15226,16145,0.0
-4557,15147,16413,0.0
-4605,14947,16553,0.0
-4632,14682,16618,0.0
-4947,15314,17717,0.0
-5054,15272,18062,0.0
-5154,15208,18387,0.0
-5214,15017,18566,0.0
-5322,14963,18916,0.0
-5409,14841,19189,0.0
-5308,14214,18800,0.0
-5408,14128,19117,0.0
-5462,13919,19272,0.0
0,0,0,0.0
-465,1127,1635,0.0
-6866,16222,24096,0.0
-6997,16112,24509,0.0
-6998,15703,24472,0.0
-7006,15313,24453,0.0
-6990,14880,24356,0.0
-6980,14467,24280,0.0
-6966,14051,24185,0.0
-6955,13649,24104,0.0
-6936,13239,23998,0.0
-6952,12901,24012,0.0
-262,474,907,0.0
-9583,16786,32981,0.0
-9648,16408,33146,0.0
-9630,15893,33027,0.0
0,0,0,0.0
-9053,14047,30938,0.0
-8857,13313,30217,0.0
0,0,0,0.0
-8836,12441,30039,0.0
-9010,12263,30574,0.0
-9292,12217,31479,0.0
-9396,11924,31775,0.0
0,0,0,0.0
-9499,11197,32009,0.0
-244,277,822,0.0
-9515,10376,31948,0.0
-360,378,1210,0.0
-6958,6985,23280,0.0
-7073,6798,23621,0.0
0,0,0,0.0
-7018,6154,23355,0.0
-7087,5919,23541,0.0
-7256,5761,24059,0.0
-7304,5500,24173,0.0
-7293,5197,24093,0.0
-7299,4906,24068,0.0
-7256,4587,23883,0.0
-7260,4302,23853,0.0
-7269,4019,23834,0.0
-6784,3487,22204,0.0
-6767,3214,22106,0.0
-7227,3153,23564,0.0
-7216,2872,23483,0.0
-7218,2596,23444,0.0
-7210,2320,23375,0.0
-7042,2000,22787,0.0
-6925,1707,22362,0.0
-6976,1458,22483,0.0
-6961,1197,22391,0.0
-7018,947,22529,0.0
-7176,704,22989,0.0
-7188,441,22980,0.0
-7186,179,22928,0.0
-7177,-81,22852,0.0
-7178,-342,22806,0.0
-7172,-601,22741,0.0
-7170,-858,22688,0.0
-7169,-1115,22635,0.0
-7166,-1372,22581,0.0
-7156,-1625,22501,0.0
-6895,-1811,21632,0.0
-6896,-2056,21588,0.0
-6876,-2293,21479,0.0
-7147,-2636,22275,0.0
-7145,-2888,22219,0.0
-7155,-3144,22199,0.0
-7141,-3389,22104,0.0
-7143,-3641,22059,0.0
-7139,-3890,21997,0.0
-7130,-4136,21919,0.0
-349,-216,1073,0.0
-7131,-4636,21817,0.0
-7128,-4883,21756,0.0
-7121,-5128,21680,0.0
-7129,-5384,21653,0.0
-7127,-5631,21590,0.0
-7121,-5875,21517,0.0
-7115,-6120,21446,0.0
-7115,-6370,21389,0.0
-7117,-6622,21341,0.0
-7111,-6866,21267,0.0
-7109,-7115,21204,0.0
-7067,-7321,21020,0.0
-6928,-7422,20551,0.0
-6931,-7673,20506,0.0
-497,-568,1470,0.0
-7131,-8400,20979,0.0
-7146,-8674,20964,0.0
-7138,-8918,20878,0.0
-7130,-9164,20793,0.0
-7105,-9388,20661,0.0
-7162,-9721,20761,0.0
-7168,-9989,20715,0.0
-7172,-10257,20663,0.0
-7175,-10523,20609,0.0
-7179,-10791,20552,0.0
-7203,-11093,20556,0.0
-7202,-11357,20483,0.0
-7217,-11649,20459,0.0
-7220,-11923,20397,0.0
-7249,-12244,20410,0.0
-7244,-12508,20325,0.0
-177,-313,497,0.0
-7273,-13112,20261,0.0
-7291,-13425,20237,0.0
-7293,-13710,20168,0.0
-7305,-14017,20125,0.0
-7329,-14352,20115,0.0
-7327,-14636,20031,0.0
-7347,-14968,20006,0.0
-7112,-14774,19289,0.0
-6999,-14820,18903,0.0
-7092,-15307,19076,0.0
-7397,-16270,19813,0.0
-7412,-16605,19764,0.0
-7423,-16940,19709,0.0
-7436,-17283,19655,0.0
-7456,-17644,19616,0.0
-7476,-18012,19578,0.0
-7487,-18363,19515,0.0
-7501,-18724,19456,0.0
-7440,-18898,19200,0.0
-7405,-19139,19015,0.0
-7308,-19218,18670,0.0
-7353,-19669,18684,0.0
-20,-55,51,0.0
-19,-56,50,0.0
-24,-70,62,0.0
-27,-80,70,0.0
-27,-81,69,0.0
-24,-71,59,0.0
-25,-77,63,0.0
-28,-89,71,0.0
-30,-95,74,0.0
-30,-97,74,0.0
-32,-106,78,0.0
-33,-112,81,0.0
-31,-106,75,0.0
-29,-101,70,0.0
-37,-130,88,0.0
-35,-124,81,0.0
-37,-134,86,0.0
-49,-176,110,0.0
-39,-147,89,0.0
-36,-137,82,0.0
-34,-131,76,0.0
-38,-149,85,0.0
-41,-165,91,0.0
-43,-174,93,0.0
-44,-180,94,0.0
-43,-180,92,0.0
-46,-196,97,0.0
-43,-185,89,0.0
-47,-205,96,0.0
-46,-204,92,0.0
-49,-219,97,0.0
-48,-221,95,0.0
-49,-230,96,0.0
-49,-234,95,0.0
-51,-246,96,0.0
-54,-266,101,0.0
-64,-319,118,0.0
-65,-330,117,0.0
-63,-326,112,0.0
-61,-320,106,0.0
-61,-324,104,0.0
-60,-328,101,0.0
-59,-324,96,0.0
-58,-327,93,0.0
-58,-331,90,0.0
120,-318,63,0.0
113,-295,62,0.0
111,-287,64,0.0
109,-276,64,0.0
109,-275,67,0.0
111,-274,70,0.0
107,-263,71,0.0
111,-266,74,0.0
111,-263,77,0.0
107,-253,77,0.0
108,-249,79,0.0
110,-252,83,0.0
106,-240,81,0.0
111,-247,87,0.0
113,-247,91,0.0
115,-249,94,0.0
112,-242,94,0.0
117,-247,99,0.0
115,-240,100,0.0
118,-244,105,0.0
117,-237,105,0.0
118,-237,108,0.0
123,-241,114,0.0
118,-230,112,0.0
124,-237,118,0.0
124,-235,121,0.0
123,-229,121,0.0
136,-250,136,0.0
142,-257,143,0.0
145,-260,149,0.0
138,-242,143,0.0
145,-251,152,0.0
145,-249,154,0.0
138,-233,149,0.0
134,-223,146,0.0
123,-203,136,0.0
129,-208,144,0.0
123,-196,138,0.0
109,-171,124,0.0
109,-169,125,0.0
94,-145,110,0.0
15635,-23393,18222,0.0
15745,-23201,18518,0.0
15665,-22726,18587,0.0
15581,-22255,18649,0.0
15519,-21818,18732,0.0
15451,-21380,18804,0.0
15375,-20935,18863,0.0
15289,-20482,18906,0.0
15222,-20059,18968,0.0
15143,-19624,19011,0.0
15092,-19232,19088,0.0
14306,-17922,18223,0.0
14676,-18071,18826,0.0
14715,-17806,19008,0.0
14656,-17423,19059,0.0
14637,-17091,19159,0.0
14761,-16924,19446,0.0
14721,-16569,19515,0.0
14650,-16181,19540,0.0
14619,-15843,19616,0.0
14569,-15486,19664,0.0
14530,-15145,19727,0.0
14496,-14810,19790,0.0
14430,-14446,19811,0.0
14379,-14101,19849,0.0
14300,-13730,19844,0.0
14237,-13381,19861,0.0
14219,-13075,19937,0.0
14219,-12787,20036,0.0
14160,-12448,20050,0.0
14141,-12146,20120,0.0
849,-712,1214,0.0
14037,-11492,20159,0.0
14036,-11209,20248,0.0
13997,-10898,20282,0.0
13975,-10602,20337,0.0
13989,-10334,20444,0.0
13945,-10023,20465,0.0
13935,-9738,20533,0.0
13901,-9439,20566,0.0
13874,-9145,20607,0.0
13867,-8866,20676,0.0
13833,-8570,20703,0.0
13820,-8288,20760,0.0
13803,-8005,20809,0.0
13816,-7739,20904,0.0
13794,-7454,20942,0.0
13772,-7171,20981,0.0
13770,-6896,21048,0.0
13751,-6616,21089,0.0
13772,-6354,21189,0.0
13760,-6076,21236,0.0
13757,-5803,21298,0.0
13778,-5539,21394,0.0
13752,-5257,21417,0.0
13790,-4998,21539,0.0
13767,-4718,21565,0.0
13785,-4450,21654,0.0
13775,-4173,21696,0.0
3808,-1078,6015,0.0
3271,-861,5180,0.0
3049,-741,4840,0.0
3035,-678,4832,0.0
3033,-617,4839,0.0
3037,-556,4856,0.0
3032,-494,4859,0.0
3029,-433,4867,0.0
3033,-373,4884,0.0
3033,-310,4894,0.0
3032,-250,4903,0.0
3019,-187,4892,0.0
3016,-126,4896,0.0
3009,-64,4896,0.0
3001,-2,4892,0.0
2977,58,4863,0.0
3022,121,4946,0.0
3022,184,4953,0.0
3013,246,4948,0.0
3015,308,4959,0.0
3008,370,4955,0.0
2997,432,4946,0.0
3033,501,5012,0.0
77,13,127,0.0
60,12,100,0.0
23,5,39,0.0
11,3,18,0.0
19,5,32,0.0
16,5,28,0.0
13,3,23,0.0
19,6,33,0.0
26,9,45,0.0
28,10,49,0.0
30,12,51,0.0
27,11,46,0.0
33,15,56,0.0
37,17,63,0.0
37,18,63,0.0
39,20,66,0.0
38,20,64,0.0
44,24,74,0.0
40,24,70,0.0
51,30,87,0.0
50,31,85,0.0
47,31,80,0.0
54,36,91,0.0
68,48,115,0.0
64,46,109,0.0
65,49,111,0.0
64,49,108,0.0
59,47,101,0.0
57,48,97,0.0
58,49,99,0.0
51,46,88,0.0
52,47,89,0.0
58,54,99,0.0
54,52,94,0.0
56,54,95,0.0
64,65,109,0.0
60,63,103,0.0
60,65,103,0.0
63,68,106,0.0
65,72,110,0.0
64,75,110,0.0
65,76,111,0.0
62,75,106,0.0
62,77,106,0.0
65,82,110,0.0
67,86,113,0.0
65,87,111,0.0
69,93,117,0.0
68,95,116,0.0
69,98,118,0.0
64,92,107,0.0
67,99,113,0.0
68,103,115,0.0
70,107,116,0.0
69,108,115,0.0
70,112,116,0.0
72,118,120,0.0
73,124,123,0.0
73,124,121,0.0
72,126,120,0.0
72,129,121,0.0
73,133,121,0.0
76,140,125,0.0
74,141,123,0.0
76,145,124,0.0
75,148,124,0.0
79,158,128,0.0
76,155,124,0.0
78,164,128,0.0
116,-315,64,0.0
112,-299,65,0.0
111,-292,66,0.0
110,-286,68,0.0
103,-264,66,0.0
108,-276,72,0.0
109,-272,74,0.0
108,-265,75,0.0
108,-265,78,0.0
107,-257,79,0.0
110,-260,83,0.0
108,-253,84,0.0
111,-255,88,0.0
108,-245,88,0.0
113,-253,94,0.0
110,-243,93,0.0
112,-245,96,0.0
116,-252,102,0.0
113,-241,102,0.0
122,-257,111,0.0
116,-239,107,0.0
118,-241,112,0.0
119,-240,115,0.0
119,-237,116,0.0
118,-232,117,0.0
123,-237,123,0.0
128,-243,130,0.0
139,-261,143,0.0
141,-263,148,0.0
145,-265,154,0.0
142,-255,151,0.0
141,-252,153,0.0
139,-244,153,0.0
137,-236,152,0.0
128,-217,143,0.0
130,-220,148,0.0
117,-192,134,0.0
109,-178,127,0.0
104,-167,121,0.0
101,-160,119,0.0
15329,-23790,18209,0.0
15302,-23389,18345,0.0
15375,-23144,18599,0.0
15283,-22650,18648,0.0
15198,-22175,18703,0.0
15118,-21713,18761,0.0
15043,-21264,18820,0.0
14994,-20855,18908,0.0
14921,-20417,18962,0.0
14854,-19994,19021,0.0
14783,-19570,19071,0.0
14718,-19158,19124,0.0
14650,-18746,19170,0.0
14606,-18371,19246,0.0
14560,-17995,19315,0.0
14485,-17587,19343,0.0
14429,-17207,19393,0.0
14371,-16829,19438,0.0
14344,-16489,19521,0.0
14271,-16101,19541,0.0
14232,-15753,19602,0.0
14166,-15380,19626,0.0
14132,-15045,19691,0.0
14122,-14737,19786,0.0
14036,-14353,19774,0.0
14036,-14059,19880,0.0
13993,-13725,19923,0.0
13963,-13405,19983,0.0
13918,-13073,20019,0.0
13877,-12748,20058,0.0
13828,-12418,20084,0.0
13764,-12077,20086,0.0
13735,-11770,20138,0.0
13702,-11460,20180,0.0
13660,-11147,20208,0.0
13632,-10844,20254,0.0
13586,-10531,20274,0.0
13538,-10219,20288,0.0
13524,-9934,20350,0.0
13491,-9637,20383,0.0
126,-87,193,0.0
13482,-9083,20529,0.0
13486,-8814,20613,0.0
13455,-8522,20643,0.0
13447,-8245,20706,0.0
1003,-594,1550,0.0
13473,-7718,20894,0.0
13460,-7440,20946,0.0
863,-459,1349,0.0
13462,-6898,21090,0.0
13453,-6622,21144,0.0
13460,-6355,21223,0.0
13452,-6080,21277,0.0
13451,-5808,21340,0.0
13442,-5534,21391,0.0
13454,-5267,21473,0.0
13445,-4992,21520,0.0
13432,-4717,21561,0.0
136,-45,219,0.0
13447,-4178,21703,0.0
3727,-1082,6032,0.0
3153,-852,5117,0.0
3012,-752,4899,0.0
3003,-689,4897,0.0
3010,-630,4920,0.0
3008,-567,4929,0.0
3005,-505,4935,0.0
3000,-443,4940,0.0
3003,-381,4955,0.0
3001,-319,4961,0.0
2998,-257,4969,0.0
2987,-195,4960,0.0
3000,-133,4991,0.0
2989,-70,4984,0.0
2983,-9,4983,0.0
98,1,166,0.0
2993,116,5018,0.0
39,2,67,0.0
50,3,86,0.0
29,2,49,0.0
2986,369,5041,0.0
2997,434,5068,0.0
3006,500,5090,0.0
2995,563,5080,0.0
2990,627,5080,0.0
3005,694,5111,0.0
9,2,17,0.0
11,3,18,0.0
17,4,30,0.0
29,9,51,0.0
74,24,128,0.0
68,25,118,0.0
31,12,54,0.0
27,10,48,0.0
34,14,59,0.0
31,13,53,0.0
41,20,71,0.0
36,18,64,0.0
55,28,96,0.0
70,38,122,0.0
45,25,79,0.0
43,26,76,0.0
50,30,88,0.0
50,32,88,0.0
53,35,93,0.0
51,35,90,0.0
53,38,93,0.0
51,39,91,0.0
60,45,104,0.0
52,42,92,0.0
58,47,102,0.0
57,48,100,0.0
61,52,106,0.0
54,49,96,0.0
57,53,100,0.0
50,48,90,0.0
57,55,99,0.0
58,59,102,0.0
62,64,108,0.0
59,63,103,0.0
59,64,102,0.0
59,66,103,0.0
64,72,111,0.0
61,71,107,0.0
62,75,108,0.0
62,75,107,0.0
61,76,107,0.0
62,80,108,0.0
66,87,115,0.0
65,88,113,0.0
64,88,112,0.0
64,90,111,0.0
67,97,116,0.0
67,99,116,0.0
70,105,120,0.0
66,103,115,0.0
68,107,117,0.0
69,110,118,0.0
67,110,116,0.0
70,118,122,0.0
73,125,126,0.0
73,127,125,0.0
70,124,120,0.0
72,132,123,0.0
73,135,124,0.0
74,140,125,0.0
75,144,126,0.0
75,147,126,0.0
74,148,124,0.0
78,158,131,0.0
76,158,127,0.0
73,154,121,0.0
118,-328,69,0.0
109,-300,66,0.0
110,-299,69,0.0
109,-288,70,0.0
105,-276,70,0.0
104,-271,72,0.0
106,-272,75,0.0
106,-268,77,0.0
105,-262,79,0.0
107,-263,82,0.0
108,-261,85,0.0
106,-254,86,0.0
106,-251,87,0.0
108,-253,92,0.0
110,-254,95,0.0
112,-254,99,0.0
114,-256,102,0.0
114,-252,104,0.0
117,-256,110,0.0
116,-248,109,0.0
116,-244,111,0.0
117,-245,114,0.0
119,-245,118,0.0
119,-242,120,0.0
118,-237,121,0.0
117,-232,121,0.0
126,-246,133,0.0
136,-262,144,0.0
140,-267,152,0.0
143,-268,156,0.0
141,-260,156,0.0
138,-252,155,0.0
133,-239,150,0.0
132,-234,152,0.0
126,-219,146,0.0
129,-220,150,0.0
123,-207,145,0.0
116,-194,139,0.0
110,-180,133,0.0
102,-165,124,0.0
98,-156,120,0.0
14950,-23357,18442,0.0
14445,-22223,17976,0.0
14855,-22500,18645,0.0
14769,-22022,18693,0.0
14727,-21615,18793,0.0
14650,-21162,18846,0.0
14582,-20724,18903,0.0
14534,-20323,18986,0.0
14461,-19891,19033,0.0
14407,-19488,19100,0.0
14340,-19073,19147,0.0
14257,-18642,19169,0.0
14219,-18273,19250,0.0
14157,-17877,19293,0.0
14120,-17517,19368,0.0
14040,-17107,19381,0.0
14026,-16782,19482,0.0
13148,-15443,18376,0.0
13631,-15714,19166,0.0
13438,-15199,19005,0.0
13448,-14920,19129,0.0
13780,-14990,19711,0.0
13766,-14678,19798,0.0
13726,-14341,19846,0.0
13674,-13995,19878,0.0
13658,-13688,19956,0.0
13582,-13324,19947,0.0
13506,-12963,19934,0.0
13487,-12661,20003,0.0
13431,-12326,20016,0.0
13367,-11985,20013,0.0
13363,-11702,20099,0.0
13332,-11397,20143,0.0
13247,-11048,20103,0.0
13251,-10775,20195,0.0
13241,-10492,20266,0.0
13224,-10204,20324,0.0
13264,-9959,20468,0.0
12448,-9090,19288,0.0
13177,-9349,20495,0.0
12388,-8534,19343,0.0
13165,-8797,20634,0.0
12402,-8032,19510,0.0
13060,-8190,20620,0.0
867,-525,1375,0.0
12338,-7229,19618,0.0
12340,-6977,19687,0.0
12339,-6724,19754,0.0
12363,-6482,19857,0.0
12320,-6208,19852,0.0
13140,-6350,21239,0.0
12311,-5696,19962,0.0
12270,-5425,19954,0.0
12277,-5176,20026,0.0
12292,-4930,20109,0.0
12270,-4669,20131,0.0
12262,-4414,20174,0.0
12270,-4164,20243,0.0
12232,-3899,20235,0.0
3656,-1090,6065,0.0
3210,-890,5339,0.0
2987,-767,4981,0.0
2983,-704,4986,0.0
2987,-642,5005,0.0
2972,-578,4992,0.0
2988,-518,5031,0.0
2982,-455,5032,0.0
2973,-391,5027,0.0
2977,-330,5047,0.0
2974,-266,5051,0.0
2968,-203,5051,0.0
2964,-140,5055,0.0
2983,-78,5097,0.0
2973,-15,5089,0.0
2983,48,5117,0.0
2976,112,5114,0.0
2964,175,5103,0.0
2975,240,5130,0.0
2971,304,5132,0.0
2966,368,5134,0.0
2978,434,5160,0.0
2969,498,5153,0.0
2975,564,5173,0.0
2976,630,5182,0.0
7,1,14,0.0
15,3,26,0.0
11,3,21,0.0
31,9,54,0.0
44,14,78,0.0
29,10,51,0.0
24,9,45,0.0
21,7,38,0.0
30,12,53,0.0
26,11,46,0.0
29,13,53,0.0
33,16,60,0.0
37,19,66,0.0
37,19,66,0.0
39,21,70,0.0
49,28,88,0.0
39,23,70,0.0
48,31,86,0.0
45,29,80,0.0
52,35,94,0.0
52,36,94,0.0
52,38,93,0.0
58,44,105,0.0
57,44,102,0.0
57,46,104,0.0
57,47,102,0.0
55,48,101,0.0
55,48,99,0.0
53,48,94,0.0
62,58,112,0.0
55,53,99,0.0
51,51,92,0.0
56,56,99,0.0
61,64,108,0.0
54,58,96,0.0
56,61,101,0.0
60,69,108,0.0
60,69,106,0.0
59,70,106,0.0
57,70,102,0.0
58,73,104,0.0
59,76,106,0.0
59,77,106,0.0
61,81,108,0.0
64,87,114,0.0
63,89,113,0.0
62,89,111,0.0
61,90,109,0.0
65,98,117,0.0
66,102,117,0.0
66,103,116,0.0
64,102,114,0.0
67,110,120,0.0
66,110,117,0.0
68,115,119,0.0
66,116,117,0.0
70,125,123,0.0
70,128,124,0.0
70,128,121,0.0
71,136,125,0.0
71,136,123,0.0
72,141,124,0.0
73,147,127,0.0
73,150,127,0.0
74,154,129,0.0
72,153,125,0.0
75,163,129,0.0
109,-311,67,0.0
104,-291,65,0.0
104,-289,68,0.0
102,-279,69,0.0
102,-274,71,0.0
101,-270,73,0.0
100,-262,74,0.0
102,-264,77,0.0
102,-261,80,0.0
105,-264,84,0.0
103,-257,85,0.0
106,-259,89,0.0
106,-255,90,0.0
105,-253,93,0.0
106,-250,95,0.0
108,-251,98,0.0
110,-252,102,0.0
110,-248,104,0.0
111,-247,107,0.0
113,-248,110,0.0
113,-244,111,0.0
112,-241,113,0.0
116,-245,119,0.0
118,-245,123,0.0
117,-240,123,0.0
119,-243,128,0.0
126,-251,137,0.0
135,-267,149,0.0
137,-266,152,0.0
140,-269,159,0.0
139,-263,159,0.0
134,-250,155,0.0
136,-247,157,0.0
131,-237,155,0.0
127,-227,152,0.0
125,-219,150,0.0
113,-196,138,0.0
114,-194,140,0.0
100,-168,124,0.0
112,-185,140,0.0
14665,-23790,18455,0.0
14618,-23351,18557,0.0
14159,-22274,18133,0.0
14239,-22053,18389,0.0
14394,-21946,18743,0.0
14333,-21509,18815,0.0
14251,-21046,18855,0.0
14202,-20637,18934,0.0
14148,-20225,19004,0.0
14067,-19779,19034,0.0
14023,-19392,19113,0.0
13971,-18995,19175,0.0
13917,-18600,19231,0.0
13849,-18192,19266,0.0
13794,-17806,19317,0.0
13749,-17436,19377,0.0
13659,-17012,19372,0.0
13666,-16713,19501,0.0
12895,-15482,18513,0.0
13155,-15501,18998,0.0
12892,-14904,18725,0.0
13140,-14900,19194,0.0
13450,-14956,19756,0.0
13411,-14618,19805,0.0
13380,-14291,19865,0.0
13331,-13947,19895,0.0
13299,-13624,19948,0.0
13261,-13298,19990,0.0
13149,-12902,19921,0.0
13077,-12549,19905,0.0
13071,-12262,19991,0.0
13069,-11980,20080,0.0
12254,-10972,18914,0.0
12247,-10703,18986,0.0
12213,-10414,19018,0.0
12189,-10133,19059,0.0
1126,-911,1768,0.0
12191,-9620,19223,0.0
12179,-9352,19280,0.0
12100,-9036,19231,0.0
1077,-781,1719,0.0
12126,-8544,19422,0.0
12095,-8268,19445,0.0
12064,-7994,19466,0.0
12079,-7749,19560,0.0
12061,-7485,19601,0.0
12054,-7228,19656,0.0
12059,-6978,19731,0.0
12025,-6707,19742,0.0
12035,-6461,19823,0.0
12036,-6208,19886,0.0
11995,-5936,19881,0.0
12005,-5690,19960,0.0
11999,-5435,20009,0.0
11981,-5176,20038,0.0
11974,-4922,20086,0.0
11971,-4670,20139,0.0
11969,-4418,20192,0.0
11959,-4163,20230,0.0
107,-35,184,0.0
3593,-1100,6110,0.0
3069,-875,5233,0.0
2959,-780,5059,0.0
2968,-720,5087,0.0
2954,-655,5075,0.0
2947,-590,5075,0.0
2931,-525,5061,0.0
2946,-465,5097,0.0
2944,-401,5104,0.0
2952,-339,5131,0.0
2945,-275,5129,0.0
2954,-213,5155,0.0
2946,-148,5151,0.0
2943,-84,5157,0.0
2951,-21,5181,0.0
2942,42,5174,0.0
2948,107,5194,0.0
2944,171,5198,0.0
2958,237,5230,0.0
2953,301,5230,0.0
2960,368,5250,0.0
2953,433,5248,0.0
2938,496,5231,0.0
103,19,184,0.0
67,14,121,0.0
13,2,24,0.0
10,2,20,0.0
8,1,15,0.0
24,7,44,0.0
23,7,43,0.0
31,10,57,0.0
19,7,35,0.0
26,10,48,0.0
29,11,53,0.0
32,13,58,0.0
34,15,63,0.0
34,16,62,0.0
42,21,78,0.0
54,29,100,0.0
61,34,111,0.0
57,34,105,0.0
50,30,91,0.0
51,32,93,0.0
44,29,82,0.0
45,31,83,0.0
52,38,96,0.0
53,39,96,0.0
52,40,96,0.0
52,41,96,0.0
56,45,102,0.0
54,46,100,0.0
54,47,100,0.0
54,50,101,0.0
52,49,97,0.0
60,57,111,0.0
59,58,107,0.0
57,58,106,0.0
55,58,102,0.0
60,64,111,0.0
55,60,101,0.0
55,63,103,0.0
56,65,103,0.0
56,67,104,0.0
58,70,107,0.0
55,68,101,0.0
59,75,108,0.0
59,76,107,0.0
57,76,106,0.0
57,78,104,0.0
60,84,111,0.0
60,85,109,0.0
61,89,110,0.0
59,89,109,0.0
61,94,112,0.0
62,97,114,0.0
65,104,119,0.0
63,105,116,0.0
67,113,123,0.0
65,110,118,0.0
66,114,119,0.0
69,122,124,0.0
65,120,119,0.0
67,124,121,0.0
68,128,123,0.0
66,128,119,0.0
69,137,125,0.0
72,144,128,0.0
70,144,125,0.0
70,146,125,0.0
74,158,132,0.0
70,154,126,0.0
71,159,127,0.0
99,-289,63,0.0
100,-290,66,0.0
98,-279,67,0.0
98,-276,69,0.0
96,-266,70,0.0
95,-259,71,0.0
97,-262,75,0.0
98,-260,77,0.0
101,-263,82,0.0
100,-256,83,0.0
96,-244,81,0.0
103,-257,89,0.0
95,-237,85,0.0
100,-245,90,0.0
102,-246,94,0.0
106,-252,100,0.0
104,-244,100,0.0
107,-247,104,0.0
106,-241,105,0.0
108,-245,110,0.0
107,-237,109,0.0
110,-241,115,0.0
111,-241,118,0.0
112,-238,119,0.0
112,-237,123,0.0
116,-241,128,0.0
127,-258,142,0.0
133,-269,151,0.0
132,-263,152,0.0
131,-257,152,0.0
132,-256,155,0.0
126,-240,150,0.0
126,-236,151,0.0
120,-222,146,0.0
114,-208,140,0.0
115,-206,143,0.0
106,-188,133,0.0
99,-174,126,0.0
95,-165,122,0.0
99,-167,128,0.0
14263,-23668,18479,0.0
14170,-23156,18520,0.0
14108,-22702,18597,0.0
14025,-22218,18641,0.0
13989,-21815,18744,0.0
