//X,Y,Z,Classification
-23534.0,-28259.0,33428.0,2.0
-23330.0,-28529.0,32932.0,2.0
-23199.0,-28883.0,32539.0,2.0
-23021.0,-29175.0,32081.0,2.0
-22801.0,-29406.0,31565.0,2.0
-22646.0,-29716.0,31139.0,2.0
-22456.0,-29974.0,30665.0,2.0
-22339.0,-30324.0,30289.0,2.0
-22174.0,-30607.0,29849.0,2.0
-13178.0,-18491.0,17607.0,0.0
-12928.0,-18437.0,17142.0,0.0
-49.0,-71.0,65.0,0.0
-55.0,-82.0,73.0,0.0
-55.0,-83.0,72.0,0.0
-60.0,-91.0,77.0,0.0
-60.0,-93.0,76.0,0.0
-67.0,-105.0,84.0,0.0
-70.0,-112.0,88.0,0.0
-72.0,-117.0,90.0,0.0
-70.0,-116.0,86.0,0.0
-70.0,-118.0,86.0,0.0
-71.0,-121.0,86.0,0.0
-77.0,-133.0,93.0,0.0
-79.0,-137.0,93.0,0.0
-72.0,-127.0,84.0,0.0
-83.0,-149.0,97.0,0.0
-80.0,-146.0,92.0,0.0
-84.0,-154.0,94.0,0.0
-85.0,-160.0,95.0,0.0
-84.0,-160.0,93.0,0.0
-85.0,-165.0,93.0,0.0
-88.0,-173.0,96.0,0.0
-87.0,-173.0,93.0,0.0
-92.0,-184.0,96.0,0.0
-91.0,-186.0,94.0,0.0
-93.0,-191.0,94.0,0.0
-94.0,-196.0,95.0,0.0
-94.0,-200.0,94.0,0.0
-98.0,-210.0,94.0,0.0
-96.0,-210.0,92.0,0.0
-100.0,-220.0,93.0,0.0
-102.0,-228.0,93.0,0.0
-100.0,-226.0,90.0,0.0
-102.0,-233.0,90.0,0.0
-108.0,-250.0,93.0,0.0
-120.0,-283.0,102.0,0.0
-119.0,-285.0,99.0,0.0
-116.0,-280.0,93.0,0.0
-117.0,-287.0,92.0,0.0
-110.0,-274.0,85.0,0.0
-111.0,-279.0,83.0,0.0
-111.0,-282.0,81.0,0.0
-107.0,-277.0,76.0,0.0
-105.0,-273.0,71.0,0.0
-105.0,-277.0,69.0,0.0
-107.0,-287.0,69.0,0.0
-102.0,-280.0,64.0,0.0
-103.0,-284.0,62.0,0.0
-102.0,-285.0,58.0,0.0
-21890.0,47427.0,38526.0,0.0
-22205.0,47201.0,39193.0,0.0
-22153.0,46197.0,39211.0,0.0
0.0,0.0,0.0,0.0
0.0,0.0,0.0,0.0
0.0,0.0,0.0,0.0
0.0,0.0,0.0,0.0
-18690.0,35359.0,33493.0,0.0
-18350.0,34032.0,32954.0,0.0
-18370.0,33397.0,33060.0,0.0
-18506.0,32974.0,33371.0,0.0
-18179.0,31742.0,32843.0,0.0
-17950.0,30709.0,32489.0,0.0
-17843.0,29905.0,32351.0,0.0
-17767.0,29166.0,32266.0,0.0
-17583.0,28266.0,31982.0,0.0
-17725.0,27898.0,32288.0,0.0
-17243.0,26566.0,31453.0,0.0
0.0,0.0,0.0,0.0
-17221.0,25409.0,31495.0,0.0
-16958.0,24476.0,31050.0,0.0
-17141.0,24195.0,31419.0,0.0
-17111.0,23614.0,31396.0,0.0
-16735.0,22576.0,30737.0,0.0
0.0,0.0,0.0,0.0
-16630.0,21414.0,30594.0,0.0
-993.0,1250.0,1831.0,0.0
-16660.0,20454.0,30697.0,0.0
-16552.0,19832.0,30517.0,0.0
-16824.0,19664.0,31035.0,0.0
-16949.0,19318.0,31283.0,0.0
-18443.0,20490.0,34053.0,0.0
-18348.0,19861.0,33892.0,0.0
-18288.0,19280.0,33793.0,0.0
-18232.0,18710.0,33699.0,0.0
-18179.0,18151.0,33611.0,0.0
-18060.0,17533.0,33395.0,0.0
-18025.0,17008.0,33335.0,0.0
-17955.0,16455.0,33209.0,0.0
-17899.0,15922.0,33104.0,0.0
-17857.0,15409.0,33026.0,0.0
-17832.0,14914.0,32975.0,0.0
-17751.0,14381.0,32822.0,0.0
-17672.0,13855.0,32670.0,0.0
-17554.0,13309.0,32444.0,0.0
-10970.0,8035.0,20270.0,0.0
-10968.0,7753.0,20259.0,0.0
-10944.0,7458.0,20207.0,0.0
-10902.0,7156.0,20121.0,0.0
-10873.0,6864.0,20057.0,0.0
-10858.0,6584.0,20018.0,0.0
-10826.0,6297.0,19948.0,0.0
-10788.0,6010.0,19865.0,0.0
-10778.0,5741.0,19832.0,0.0
-10744.0,5462.0,19758.0,0.0
-10723.0,5192.0,19701.0,0.0
-10701.0,4924.0,19647.0,0.0
-10677.0,4658.0,19585.0,0.0
-10649.0,4394.0,19515.0,0.0
-10637.0,4136.0,19473.0,0.0
-10605.0,3875.0,19397.0,0.0
-10588.0,3621.0,19343.0,0.0
-10565.0,3367.0,19281.0,0.0
-10544.0,3117.0,19222.0,0.0
-10526.0,2868.0,19165.0,0.0
-10518.0,2624.0,19126.0,0.0
-10494.0,2378.0,19057.0,0.0
-10470.0,2134.0,18989.0,0.0
-10453.0,1893.0,18932.0,0.0
-10444.0,1656.0,18889.0,0.0
-10431.0,1418.0,18837.0,0.0
-10413.0,1183.0,18776.0,0.0
-10396.0,949.0,18716.0,0.0
-10391.0,717.0,18677.0,0.0
-10379.0,486.0,18624.0,0.0
-10357.0,255.0,18551.0,0.0
-10354.0,26.0,18516.0,0.0
-10354.0,-200.0,18481.0,0.0
-10334.0,-426.0,18409.0,0.0
-11917.0,-752.0,21189.0,0.0
-10978.0,-933.0,19481.0,0.0
-10984.0,-1172.0,19454.0,0.0
-11227.0,-1442.0,19842.0,0.0
-12227.0,-1836.0,21566.0,0.0
0.0,0.0,0.0,0.0
-22621.0,-4373.0,39722.0,2.0
0.0,0.0,0.0,0.0
0.0,0.0,0.0,0.0
0.0,0.0,0.0,0.0
-22646.0,-6323.0,39393.0,2.0
0.0,0.0,0.0,0.0
-22786.0,-7337.0,39438.0,2.0
0.0,0.0,0.0,0.0
-22964.0,-8375.0,39539.0,2.0
0.0,0.0,0.0,0.0
0.0,0.0,0.0,0.0
0.0,0.0,0.0,0.0
0.0,0.0,0.0,0.0
0.0,0.0,0.0,0.0
0.0,0.0,0.0,0.0
-23002.0,-11812.0,38813.0,2.0
-22922.0,-12257.0,38557.0,2.0
0.0,0.0,0.0,0.0
0.0,0.0,0.0,0.0
0.0,0.0,0.0,0.0
0.0,0.0,0.0,0.0
-23060.0,-14780.0,38150.0,2.0
0.0,0.0,0.0,0.0
-23119.0,-15802.0,37976.0,2.0
0.0,0.0,0.0,0.0
0.0,0.0,0.0,0.0
0.0,0.0,0.0,0.0
-23092.0,-17754.0,37362.0,2.0
-23048.0,-18213.0,37142.0,2.0
-23039.0,-18700.0,36977.0,2.0
-22987.0,-19149.0,36740.0,2.0
0.0,0.0,0.0,0.0
0.0,0.0,0.0,0.0
0.0,0.0,0.0,0.0
-22846.0,-21002.0,35886.0,2.0
0.0,0.0,0.0,0.0
0.0,0.0,0.0,0.0
0.0,0.0,0.0,0.0
-23496.0,-23642.0,36217.0,2.0
0.0,0.0,0.0,0.0
0.0,0.0,0.0,0.0
-23599.0,-25298.0,35827.0,2.0
0.0,0.0,0.0,0.0
0.0,0.0,0.0,0.0
0.0,0.0,0.0,0.0
-23506.0,-27284.0,34917.0,2.0
-23335.0,-27607.0,34465.0,2.0
-23183.0,-27946.0,34040.0,2.0
-22994.0,-28236.0,33560.0,2.0
-22798.0,-28510.0,33070.0,2.0
-22618.0,-28800.0,32606.0,2.0
-22409.0,-29045.0,32098.0,2.0
-22247.0,-29343.0,31659.0,2.0
-22098.0,-29656.0,31238.0,2.0
-21961.0,-29979.0,30832.0,2.0
-21790.0,-30252.0,30379.0,2.0
-21605.0,-30499.0,29907.0,2.0
-12935.0,-18563.0,17775.0,0.0
-52.0,-76.0,71.0,0.0
-48.0,-72.0,66.0,0.0
-55.0,-83.0,74.0,0.0
-61.0,-94.0,82.0,0.0
-58.0,-91.0,78.0,0.0
-58.0,-93.0,78.0,0.0
-62.0,-100.0,81.0,0.0
-63.0,-103.0,82.0,0.0
-69.0,-115.0,89.0,0.0
-69.0,-117.0,89.0,0.0
-70.0,-119.0,88.0,0.0
-75.0,-130.0,93.0,0.0
-72.0,-127.0,88.0,0.0
-80.0,-142.0,97.0,0.0
-75.0,-137.0,91.0,0.0
-86.0,-158.0,103.0,0.0
-81.0,-150.0,95.0,0.0
-86.0,-163.0,100.0,0.0
-83.0,-160.0,96.0,0.0
-85.0,-165.0,96.0,0.0
-91.0,-181.0,103.0,0.0
-89.0,-178.0,99.0,0.0
-89.0,-182.0,98.0,0.0
-87.0,-179.0,93.0,0.0
-87.0,-181.0,93.0,0.0
-88.0,-187.0,93.0,0.0
-94.0,-202.0,98.0,0.0
-91.0,-198.0,93.0,0.0
-93.0,-204.0,93.0,0.0
-96.0,-216.0,95.0,0.0
-95.0,-215.0,92.0,0.0
-94.0,-216.0,90.0,0.0
-98.0,-227.0,91.0,0.0
-101.0,-238.0,93.0,0.0
-101.0,-241.0,91.0,0.0
-117.0,-281.0,101.0,0.0
-118.0,-290.0,102.0,0.0
-116.0,-288.0,98.0,0.0
-117.0,-294.0,96.0,0.0
-114.0,-290.0,92.0,0.0
-107.0,-276.0,84.0,0.0
-108.0,-281.0,81.0,0.0
-107.0,-285.0,80.0,0.0
-104.0,-279.0,74.0,0.0
-104.0,-283.0,72.0,0.0
-103.0,-284.0,69.0,0.0
-103.0,-289.0,67.0,0.0
-103.0,-290.0,64.0,0.0
-102.0,-293.0,62.0,0.0
-21363.0,47378.0,38781.0,0.0
-21523.0,46827.0,39179.0,0.0
-21456.0,45789.0,39159.0,0.0
-21275.0,44529.0,38925.0,0.0
0.0,0.0,0.0,0.0
0.0,0.0,0.0,0.0
-20727.0,40906.0,38188.0,0.0
-20584.0,39828.0,38006.0,0.0
-17852.0,33858.0,33026.0,0.0
-17826.0,33135.0,33043.0,0.0
0.0,0.0,0.0,0.0
-17836.0,31837.0,33183.0,0.0
-17297.0,30248.0,32234.0,0.0
-17335.0,29693.0,32356.0,0.0
-17191.0,28840.0,32138.0,0.0
0.0,0.0,0.0,0.0
-17379.0,27947.0,32579.0,0.0
-16775.0,26405.0,31488.0,0.0
-16801.0,25878.0,31574.0,0.0
-16601.0,25016.0,31233.0,0.0
-16805.0,24770.0,31650.0,0.0
-16801.0,24216.0,31675.0,0.0
-16899.0,23812.0,31889.0,0.0
-16308.0,22460.0,30799.0,0.0
-16218.0,21824.0,30654.0,0.0
-958.0,1261.0,1814.0,0.0
-16090.0,20652.0,30456.0,0.0
-16286.0,20405.0,30845.0,0.0
-16373.0,20017.0,31026.0,0.0
-16427.0,19590.0,31144.0,0.0
-17175.0,19971.0,32576.0,0.0
-17245.0,19546.0,32723.0,0.0
0.0,0.0,0.0,0.0
-17742.0,19077.0,33685.0,0.0
-17705.0,18530.0,33622.0,0.0
-17673.0,17993.0,33567.0,0.0
-17618.0,17440.0,33466.0,0.0
-17548.0,16881.0,33334.0,0.0
-17490.0,16339.0,33223.0,0.0
-17449.0,15822.0,33146.0,0.0
-17378.0,15283.0,33006.0,0.0
-17320.0,14762.0,32892.0,0.0
-17254.0,14242.0,32760.0,0.0
-17195.0,13735.0,32639.0,0.0
-17125.0,13225.0,32497.0,0.0
-10699.0,7981.0,20296.0,0.0
-10674.0,7684.0,20241.0,0.0
-10639.0,7383.0,20167.0,0.0
-10613.0,7091.0,20106.0,0.0
-10596.0,6808.0,20062.0,0.0
-10565.0,6520.0,19993.0,0.0
-10535.0,6236.0,19925.0,0.0
-10520.0,5962.0,19881.0,0.0
-10493.0,5685.0,19818.0,0.0
-10481.0,5418.0,19779.0,0.0
-10437.0,5138.0,19679.0,0.0
-10422.0,4875.0,19635.0,0.0
-10389.0,4606.0,19554.0,0.0
-10372.0,4347.0,19503.0,0.0
-10346.0,4087.0,19437.0,0.0
-10332.0,3833.0,19391.0,0.0
-10313.0,3580.0,19334.0,0.0
-10290.0,3326.0,19269.0,0.0
-10275.0,3078.0,19217.0,0.0
-10259.0,2832.0,19164.0,0.0
-10242.0,2587.0,19108.0,0.0
-10224.0,2343.0,19051.0,0.0
-10201.0,2101.0,18981.0,0.0
-10197.0,1864.0,18945.0,0.0
-10180.0,1627.0,18888.0,0.0
-10156.0,1389.0,18814.0,0.0
-10155.0,1157.0,18785.0,0.0
-10163.0,926.0,18770.0,0.0
-10131.0,692.0,18679.0,0.0
-10130.0,463.0,18647.0,0.0
-10110.0,233.0,18577.0,0.0
-10097.0,6.0,18522.0,0.0
-10070.0,-219.0,18438.0,0.0
-10075.0,-445.0,18412.0,0.0
-11618.0,-773.0,21191.0,0.0
-10679.0,-948.0,19441.0,0.0
-10676.0,-1185.0,19397.0,0.0
-11035.0,-1469.0,20007.0,0.0
-11916.0,-1850.0,21560.0,0.0
0.0,0.0,0.0,0.0
-22045.0,-4394.0,39709.0,2.0
0.0,0.0,0.0,0.0
0.0,0.0,0.0,0.0
0.0,0.0,0.0,0.0
-22163.0,-6362.0,39550.0,2.0
0.0,0.0,0.0,0.0
0.0,0.0,0.0,0.0
-22344.0,-7876.0,39571.0,2.0
0.0,0.0,0.0,0.0
0.0,0.0,0.0,0.0
0.0,0.0,0.0,0.0
0.0,0.0,0.0,0.0
0.0,0.0,0.0,0.0
0.0,0.0,0.0,0.0
0.0,0.0,0.0,0.0
-22433.0,-11804.0,38840.0,2.0
0.0,0.0,0.0,0.0
-22299.0,-12699.0,38364.0,2.0
0.0,0.0,0.0,0.0
0.0,0.0,0.0,0.0
0.0,0.0,0.0,0.0
0.0,0.0,0.0,0.0
0.0,0.0,0.0,0.0
-22530.0,-15765.0,37982.0,2.0
0.0,0.0,0.0,0.0
0.0,0.0,0.0,0.0
0.0,0.0,0.0,0.0
-22571.0,-17761.0,37485.0,2.0
0.0,0.0,0.0,0.0
0.0,0.0,0.0,0.0
0.0,0.0,0.0,0.0
0.0,0.0,0.0,0.0
0.0,0.0,0.0,0.0
-22186.0,-20379.0,35943.0,2.0
0.0,0.0,0.0,0.0
-22362.0,-21529.0,35904.0,2.0
0.0,0.0,0.0,0.0
0.0,0.0,0.0,0.0
0.0,0.0,0.0,0.0
0.0,0.0,0.0,0.0
0.0,0.0,0.0,0.0
0.0,0.0,0.0,0.0
0.0,0.0,0.0,0.0
-22077.0,-25212.0,34071.0,2.0
0.0,0.0,0.0,0.0
-22954.0,-27256.0,35037.0,2.0
-22810.0,-27607.0,34620.0,2.0
-22558.0,-27821.0,34041.0,2.0
-22414.0,-28160.0,33624.0,2.0
-22254.0,-28474.0,33184.0,2.0
-22082.0,-28767.0,32726.0,2.0
-21896.0,-29036.0,32246.0,2.0
-21694.0,-29276.0,31743.0,2.0
-21559.0,-29603.0,31339.0,2.0
-21410.0,-29905.0,30914.0,2.0
-21212.0,-30132.0,30418.0,2.0
-21068.0,-30431.0,29999.0,2.0
-12641.0,-18563.0,17871.0,0.0
-60.0,-89.0,85.0,0.0
-54.0,-82.0,76.0,0.0
-54.0,-84.0,76.0,0.0
-59.0,-93.0,82.0,0.0
-68.0,-109.0,93.0,0.0
-61.0,-98.0,82.0,0.0
-71.0,-117.0,95.0,0.0
-62.0,-105.0,84.0,0.0
-69.0,-117.0,90.0,0.0
-69.0,-119.0,90.0,0.0
-72.0,-126.0,93.0,0.0
-74.0,-131.0,95.0,0.0
-77.0,-139.0,98.0,0.0
-80.0,-146.0,101.0,0.0
-80.0,-149.0,100.0,0.0
-81.0,-155.0,101.0,0.0
-79.0,-151.0,97.0,0.0
-81.0,-157.0,97.0,0.0
-84.0,-166.0,101.0,0.0
-82.0,-163.0,97.0,0.0
-85.0,-172.0,99.0,0.0
-85.0,-175.0,98.0,0.0
-87.0,-181.0,98.0,0.0
-89.0,-188.0,100.0,0.0
-88.0,-187.0,96.0,0.0
-89.0,-193.0,97.0,0.0
-91.0,-199.0,97.0,0.0
-89.0,-199.0,94.0,0.0
-90.0,-206.0,94.0,0.0
-92.0,-211.0,94.0,0.0
-94.0,-218.0,94.0,0.0
-94.0,-220.0,92.0,0.0
-95.0,-228.0,93.0,0.0
-98.0,-235.0,92.0,0.0
-94.0,-231.0,88.0,0.0
-110.0,-271.0,100.0,0.0
-115.0,-288.0,103.0,0.0
-116.0,-295.0,101.0,0.0
-110.0,-282.0,93.0,0.0
-110.0,-286.0,91.0,0.0
-107.0,-283.0,87.0,0.0
-104.0,-279.0,82.0,0.0
-103.0,-280.0,80.0,0.0
-104.0,-286.0,78.0,0.0
-100.0,-281.0,73.0,0.0
-103.0,-292.0,72.0,0.0
-99.0,-286.0,68.0,0.0
-99.0,-287.0,65.0,0.0
-98.0,-288.0,62.0,0.0
-20782.0,47213.0,38934.0,0.0
-20927.0,46633.0,39307.0,0.0
-20744.0,45336.0,39058.0,0.0
-20481.0,43893.0,38651.0,0.0
-20374.0,42818.0,38539.0,0.0
0.0,0.0,0.0,0.0
-20031.0,40463.0,38049.0,0.0
-17323.0,34302.0,32970.0,0.0
-17339.0,33651.0,33063.0,0.0
-17273.0,32853.0,32997.0,0.0
-17431.0,32485.0,33355.0,0.0
-17345.0,31670.0,33245.0,0.0
-16827.0,30096.0,32302.0,0.0
-16801.0,29431.0,32300.0,0.0
-16822.0,28855.0,32384.0,0.0
-16745.0,28124.0,32279.0,0.0
-16964.0,27889.0,32741.0,0.0
-16332.0,26278.0,31558.0,0.0
-16311.0,25679.0,31552.0,0.0
-16039.0,24701.0,31058.0,0.0
-16164.0,24347.0,31330.0,0.0
-16195.0,23852.0,31418.0,0.0
-16554.0,23832.0,32140.0,0.0
-15825.0,22264.0,30748.0,0.0
-15758.0,21661.0,30640.0,0.0
-973.0,1306.0,1894.0,0.0
-967.0,1269.0,1885.0,0.0
-15892.0,20332.0,30954.0,0.0
-15969.0,19935.0,31118.0,0.0
-16012.0,19495.0,31214.0,0.0
-17418.0,20676.0,33968.0,0.0
-17371.0,20096.0,33886.0,0.0
-17154.0,19332.0,33472.0,0.0
-17228.0,18904.0,33622.0,0.0
-17232.0,18402.0,33633.0,0.0
-17173.0,17839.0,33522.0,0.0
-17106.0,17275.0,33393.0,0.0
-17039.0,16720.0,33261.0,0.0
-17001.0,16199.0,33185.0,0.0
-16982.0,15703.0,33144.0,0.0
-16884.0,15140.0,32946.0,0.0
-16868.0,14659.0,32910.0,0.0
-16735.0,14082.0,32640.0,0.0
-16740.0,13630.0,32642.0,0.0
-16697.0,13142.0,32545.0,0.0
-10406.0,7911.0,20276.0,0.0
-10384.0,7616.0,20223.0,0.0
-10354.0,7320.0,20156.0,0.0
-10321.0,7025.0,20080.0,0.0
-10302.0,6741.0,20030.0,0.0
-10268.0,6453.0,19953.0,0.0
-10250.0,6176.0,19905.0,0.0
-10226.0,5899.0,19844.0,0.0
-10193.0,5620.0,19765.0,0.0
-10186.0,5358.0,19734.0,0.0
-10163.0,5090.0,19673.0,0.0
-10137.0,4823.0,19606.0,0.0
-10116.0,4560.0,19547.0,0.0
-10097.0,4302.0,19493.0,0.0
-10077.0,4045.0,19434.0,0.0
-10044.0,3784.0,19348.0,0.0
-10032.0,3535.0,19303.0,0.0
-10013.0,3285.0,19246.0,0.0
-9993.0,3037.0,19184.0,0.0
-9985.0,2794.0,19145.0,0.0
-9972.0,2551.0,19095.0,0.0
-9950.0,2309.0,19027.0,0.0
-9932.0,2069.0,18968.0,0.0
-9924.0,1832.0,18924.0,0.0
-9901.0,1595.0,18853.0,0.0
-9891.0,1362.0,18806.0,0.0
-9868.0,1127.0,18733.0,0.0
-9877.0,898.0,18719.0,0.0
-9863.0,667.0,18661.0,0.0
-9857.0,440.0,18619.0,0.0
-9846.0,212.0,18566.0,0.0
-9822.0,-14.0,18488.0,0.0
-9830.0,-239.0,18469.0,0.0
-9818.0,-463.0,18414.0,0.0
-11316.0,-792.0,21179.0,0.0
-10400.0,-964.0,19428.0,0.0
-10402.0,-1200.0,19393.0,0.0
-10742.0,-1483.0,19984.0,0.0
-11676.0,-1875.0,21676.0,0.0
0.0,0.0,0.0,0.0
-21474.0,-4415.0,39693.0,2.0
0.0,0.0,0.0,0.0
0.0,0.0,0.0,0.0
0.0,0.0,0.0,0.0
-21624.0,-6382.0,39597.0,2.0
-21699.0,-6888.0,39638.0,2.0
-21716.0,-7377.0,39568.0,2.0
0.0,0.0,0.0,0.0
-21874.0,-8404.0,39651.0,2.0
0.0,0.0,0.0,0.0
-21818.0,-9351.0,39336.0,2.0
-21846.0,-9847.0,39276.0,2.0
0.0,0.0,0.0,0.0
0.0,0.0,0.0,0.0
0.0,0.0,0.0,0.0
-21852.0,-11785.0,38830.0,2.0
0.0,0.0,0.0,0.0
0.0,0.0,0.0,0.0
0.0,0.0,0.0,0.0
-21873.0,-13734.0,38377.0,2.0
0.0,0.0,0.0,0.0
-21861.0,-14696.0,38101.0,2.0
-21923.0,-15224.0,38076.0,2.0
0.0,0.0,0.0,0.0
0.0,0.0,0.0,0.0
-21969.0,-16721.0,37747.0,2.0
-21987.0,-17225.0,37638.0,2.0
-21996.0,-17723.0,37509.0,2.0
-22034.0,-18245.0,37428.0,2.0
0.0,0.0,0.0,0.0
0.0,0.0,0.0,0.0
0.0,0.0,0.0,0.0
0.0,0.0,0.0,0.0
0.0,0.0,0.0,0.0
0.0,0.0,0.0,0.0
-21750.0,-21434.0,35873.0,2.0
0.0,0.0,0.0,0.0
0.0,0.0,0.0,0.0
-22174.0,-23367.0,36067.0,2.0
0.0,0.0,0.0,0.0
0.0,0.0,0.0,0.0
0.0,0.0,0.0,0.0
-1072.0,-1228.0,1711.0,0.0
-21852.0,-25542.0,34661.0,2.0
0.0,0.0,0.0,0.0
-21901.0,-26620.0,34365.0,2.0
-22187.0,-27487.0,34620.0,2.0
-22039.0,-27821.0,34193.0,2.0
-21861.0,-28113.0,33721.0,2.0
-21703.0,-28424.0,33278.0,2.0
-21508.0,-28682.0,32781.0,2.0
-21326.0,-28949.0,32303.0,2.0
-21171.0,-29247.0,31865.0,2.0
-21017.0,-29541.0,31428.0,2.0
-20832.0,-29788.0,30947.0,2.0
-20704.0,-30107.0,30547.0,2.0
-20549.0,-30387.0,30110.0,2.0
-40.0,-61.0,60.0,0.0
-52.0,-80.0,75.0,0.0
-50.0,-79.0,74.0,0.0
-48.0,-78.0,70.0,0.0
-59.0,-96.0,84.0,0.0
-55.0,-92.0,79.0,0.0
-60.0,-101.0,85.0,0.0
-65.0,-109.0,90.0,0.0
-64.0,-110.0,89.0,0.0
-64.0,-112.0,88.0,0.0
-68.0,-120.0,92.0,0.0
-70.0,-124.0,92.0,0.0
-65.0,-119.0,87.0,0.0
-73.0,-135.0,95.0,0.0
-75.0,-140.0,98.0,0.0
-73.0,-139.0,94.0,0.0
-78.0,-151.0,100.0,0.0
-82.0,-162.0,104.0,0.0
-74.0,-147.0,93.0,0.0
-77.0,-156.0,95.0,0.0
-78.0,-159.0,95.0,0.0
-81.0,-168.0,98.0,0.0
-83.0,-173.0,98.0,0.0
-84.0,-180.0,98.0,0.0
-85.0,-184.0,99.0,0.0
-85.0,-186.0,96.0,0.0
-87.0,-193.0,98.0,0.0
-88.0,-197.0,97.0,0.0
-89.0,-202.0,97.0,0.0
-87.0,-200.0,93.0,0.0
-89.0,-209.0,94.0,0.0
-88.0,-208.0,91.0,0.0
-89.0,-214.0,90.0,0.0
-92.0,-226.0,92.0,0.0
-94.0,-233.0,93.0,0.0
-90.0,-226.0,87.0,0.0
-105.0,-269.0,100.0,0.0
-114.0,-293.0,105.0,0.0
-110.0,-286.0,100.0,0.0
-110.0,-292.0,98.0,0.0
-108.0,-288.0,92.0,0.0
-104.0,-285.0,89.0,0.0
-105.0,-288.0,86.0,0.0
-101.0,-282.0,81.0,0.0
-101.0,-284.0,78.0,0.0
-97.0,-280.0,74.0,0.0
-100.0,-292.0,74.0,0.0
-97.0,-286.0,69.0,0.0
-96.0,-288.0,66.0,0.0
-95.0,-287.0,63.0,0.0
-20212.0,47073.0,39101.0,0.0
-20196.0,46124.0,39159.0,0.0
0.0,0.0,0.0,0.0
-19849.0,43589.0,38659.0,0.0
0.0,0.0,0.0,0.0
-19513.0,41186.0,38159.0,0.0
-17094.0,35368.0,33494.0,0.0
-16785.0,34039.0,32948.0,0.0
-16837.0,33461.0,33107.0,0.0
-16805.0,32724.0,33098.0,0.0
-16687.0,31837.0,32919.0,0.0
-16301.0,30465.0,32203.0,0.0
-16330.0,29892.0,32306.0,0.0
-16286.0,29194.0,32261.0,0.0
-16098.0,28257.0,31932.0,0.0
-16173.0,27790.0,32117.0,0.0
-15799.0,26571.0,31410.0,0.0
-15880.0,26135.0,31604.0,0.0
-885.0,1427.0,1766.0,0.0
-15946.0,25115.0,31795.0,0.0
-15690.0,24166.0,31311.0,0.0
-15943.0,24007.0,31841.0,0.0
-15346.0,22587.0,30671.0,0.0
-15278.0,21972.0,30554.0,0.0
-15300.0,21496.0,30617.0,0.0
-15437.0,21180.0,30906.0,0.0
-15279.0,20466.0,30606.0,0.0
-15458.0,20208.0,30978.0,0.0
-15499.0,19768.0,31072.0,0.0
-15583.0,19381.0,31249.0,0.0
-16967.0,20573.0,34034.0,0.0
-16771.0,19816.0,33649.0,0.0
-16705.0,19225.0,33521.0,0.0
-16767.0,18786.0,33648.0,0.0
-16714.0,18224.0,33545.0,0.0
-16670.0,17679.0,33458.0,0.0
-16630.0,17143.0,33375.0,0.0
-16594.0,16618.0,33299.0,0.0
-16509.0,16054.0,33126.0,0.0
-16449.0,15522.0,33000.0,0.0
-16436.0,15039.0,32966.0,0.0
-16397.0,14537.0,32879.0,0.0
-16273.0,13969.0,32619.0,0.0
-16275.0,13516.0,32613.0,0.0
-10354.0,8312.0,20741.0,0.0
-10139.0,7859.0,20298.0,0.0
-10099.0,7552.0,20209.0,0.0
-10075.0,7261.0,20151.0,0.0
-10048.0,6971.0,20085.0,0.0
-10020.0,6682.0,20015.0,0.0
-10009.0,6409.0,19980.0,0.0
-9973.0,6122.0,19893.0,0.0
-9962.0,5854.0,19858.0,0.0
-9928.0,5575.0,19775.0,0.0
-9915.0,5310.0,19730.0,0.0
-9887.0,5040.0,19659.0,0.0
-9863.0,4775.0,19590.0,0.0
-9850.0,4518.0,19547.0,0.0
-9816.0,4253.0,19460.0,0.0
-9810.0,4003.0,19425.0,0.0
-9783.0,3747.0,19351.0,0.0
-9775.0,3500.0,19314.0,0.0
-9754.0,3250.0,19249.0,0.0
-9728.0,3001.0,19176.0,0.0
-9708.0,2756.0,19112.0,0.0
-9706.0,2518.0,19083.0,0.0
-9697.0,2279.0,19038.0,0.0
-9682.0,2040.0,18982.0,0.0
-9674.0,1805.0,18940.0,0.0
-9642.0,1567.0,18850.0,0.0
-9639.0,1335.0,18813.0,0.0
-9619.0,1102.0,18745.0,0.0
-9624.0,874.0,18726.0,0.0
-9614.0,646.0,18676.0,0.0
-9590.0,417.0,18598.0,0.0
-9583.0,191.0,18552.0,0.0
-9571.0,-33.0,18495.0,0.0
-9553.0,-257.0,18425.0,0.0
-9572.0,-481.0,18427.0,0.0
-11025.0,-811.0,21183.0,0.0
-10136.0,-980.0,19435.0,0.0
-10138.0,-1216.0,19400.0,0.0
-10525.0,-1505.0,20101.0,0.0
-11407.0,-1894.0,21740.0,0.0
-20964.0,-3964.0,39865.0,2.0
0.0,0.0,0.0,0.0
-20927.0,-4918.0,39617.0,2.0
0.0,0.0,0.0,0.0
0.0,0.0,0.0,0.0
-21105.0,-6406.0,39674.0,2.0
0.0,0.0,0.0,0.0
-21211.0,-7405.0,39677.0,2.0
-21259.0,-7904.0,39665.0,2.0
0.0,0.0,0.0,0.0
0.0,0.0,0.0,0.0
0.0,0.0,0.0,0.0
-21316.0,-9860.0,39346.0,2.0
0.0,0.0,0.0,0.0
0.0,0.0,0.0,0.0
0.0,0.0,0.0,0.0
0.0,0.0,0.0,0.0
-21253.0,-12235.0,38660.0,2.0
0.0,0.0,0.0,0.0
0.0,0.0,0.0,0.0
0.0,0.0,0.0,0.0
-21320.0,-14205.0,38289.0,2.0
-21304.0,-14676.0,38131.0,2.0
0.0,0.0,0.0,0.0
-21410.0,-15720.0,38055.0,2.0
-21348.0,-16161.0,37812.0,2.0
0.0,0.0,0.0,0.0
0.0,0.0,0.0,0.0
-21407.0,-17668.0,37498.0,2.0
0.0,0.0,0.0,0.0
0.0,0.0,0.0,0.0
-21438.0,-19165.0,37112.0,2.0
0.0,0.0,0.0,0.0
0.0,0.0,0.0,0.0
-21182.0,-20398.0,36217.0,2.0
-21120.0,-20827.0,35955.0,2.0
0.0,0.0,0.0,0.0
0.0,0.0,0.0,0.0
-21335.0,-22524.0,35834.0,2.0
0.0,0.0,0.0,0.0
0.0,0.0,0.0,0.0
-21771.0,-24515.0,36049.0,2.0
0.0,0.0,0.0,0.0
0.0,0.0,0.0,0.0
0.0,0.0,0.0,0.0
0.0,0.0,0.0,0.0
-21819.0,-27158.0,35207.0,2.0
-21653.0,-27471.0,34749.0,2.0
-21456.0,-27738.0,34239.0,2.0
-21293.0,-28042.0,33784.0,2.0
-21107.0,-28310.0,33293.0,2.0
-20953.0,-28615.0,32854.0,2.0
-20811.0,-28931.0,32433.0,2.0
-20636.0,-29197.0,31961.0,2.0
-20452.0,-29442.0,31473.0,2.0
-20349.0,-29800.0,31111.0,2.0
-36.0,-54.0,55.0,0.0
-40.0,-62.0,62.0,0.0
-44.0,-69.0,67.0,0.0
-51.0,-81.0,77.0,0.0
-47.0,-75.0,70.0,0.0
-55.0,-90.0,82.0,0.0
-55.0,-90.0,80.0,0.0
-53.0,-89.0,77.0,0.0
-63.0,-109.0,92.0,0.0
-62.0,-107.0,89.0,0.0
-65.0,-114.0,91.0,0.0
-64.0,-114.0,90.0,0.0
-65.0,-118.0,91.0,0.0
-66.0,-122.0,92.0,0.0
-64.0,-119.0,87.0,0.0
-73.0,-137.0,98.0,0.0
-68.0,-130.0,91.0,0.0
-74.0,-143.0,97.0,0.0
-72.0,-144.0,95.0,0.0
-77.0,-154.0,99.0,0.0
-77.0,-156.0,99.0,0.0
-80.0,-167.0,103.0,0.0
-76.0,-159.0,96.0,0.0
-76.0,-162.0,95.0,0.0
-78.0,-169.0,96.0,0.0
-81.0,-178.0,98.0,0.0
-89.0,-196.0,106.0,0.0
-80.0,-178.0,93.0,0.0
-83.0,-188.0,95.0,0.0
-81.0,-189.0,93.0,0.0
-86.0,-202.0,97.0,0.0
-87.0,-206.0,96.0,0.0
-87.0,-211.0,96.0,0.0
-88.0,-214.0,94.0,0.0
-87.0,-216.0,92.0,0.0
-87.0,-220.0,91.0,0.0
-89.0,-227.0,91.0,0.0
-93.0,-238.0,93.0,0.0
-96.0,-251.0,95.0,0.0
-105.0,-280.0,101.0,0.0
-111.0,-299.0,106.0,0.0
-106.0,-288.0,97.0,0.0
-103.0,-285.0,93.0,0.0
-100.0,-277.0,88.0,0.0
-101.0,-285.0,86.0,0.0
-100.0,-289.0,84.0,0.0
-97.0,-282.0,79.0,0.0
-94.0,-277.0,74.0,0.0
-97.0,-290.0,74.0,0.0
-96.0,-290.0,70.0,0.0
-96.0,-294.0,68.0,0.0
-95.0,-295.0,66.0,0.0
-19583.0,46787.0,39138.0,0.0
-19507.0,45700.0,39073.0,0.0
-19361.0,44473.0,38862.0,0.0
-19179.0,43189.0,38572.0,0.0
0.0,0.0,0.0,0.0
-18891.0,40875.0,38135.0,0.0
-18776.0,39819.0,37969.0,0.0
-16280.0,33832.0,32975.0,0.0
-16256.0,33104.0,32980.0,0.0
-16036.0,31995.0,32583.0,0.0
-16254.0,31769.0,33072.0,0.0
-15788.0,30224.0,32166.0,0.0
-15850.0,29715.0,32334.0,0.0
-15855.0,29107.0,32384.0,0.0
-15994.0,28746.0,32705.0,0.0
-15881.0,27938.0,32507.0,0.0
-15344.0,26416.0,31438.0,0.0
-15361.0,25876.0,31501.0,0.0
-15262.0,25150.0,31326.0,0.0
-15379.0,24787.0,31592.0,0.0
-15378.0,24235.0,31612.0,0.0
-17065.0,26290.0,35102.0,0.0
-14900.0,22434.0,30667.0,0.0
-14839.0,21831.0,30562.0,0.0
-14781.0,21239.0,30454.0,0.0
-14677.0,20594.0,30254.0,0.0
-888.0,1217.0,1833.0,0.0
-14753.0,19718.0,30432.0,0.0
-15046.0,19617.0,31045.0,0.0
-15134.0,19242.0,31236.0,0.0
-16499.0,20448.0,34059.0,0.0
-16128.0,19474.0,33296.0,0.0
-16250.0,19110.0,33551.0,0.0
-16281.0,18640.0,33617.0,0.0
-16237.0,18087.0,33523.0,0.0
-16195.0,17545.0,33436.0,0.0
-16165.0,17021.0,33369.0,0.0
-16097.0,16466.0,33226.0,0.0
-16053.0,15941.0,33126.0,0.0
-16012.0,15426.0,33033.0,0.0
-15958.0,14907.0,32912.0,0.0
-15915.0,14404.0,32814.0,0.0
-15843.0,13881.0,32653.0,0.0
-15750.0,13349.0,32447.0,0.0
-9881.0,8094.0,20348.0,0.0
-9843.0,7784.0,20258.0,0.0
-9820.0,7491.0,20198.0,0.0
-9800.0,7204.0,20148.0,0.0
-9761.0,6906.0,20055.0,0.0
-9742.0,6625.0,20000.0,0.0
-9715.0,6342.0,19930.0,0.0
-9693.0,6066.0,19873.0,0.0
-9671.0,5792.0,19810.0,0.0
-9643.0,5518.0,19736.0,0.0
-9636.0,5257.0,19703.0,0.0
-9615.0,4992.0,19642.0,0.0
-9590.0,4728.0,19573.0,0.0
-9575.0,4470.0,19521.0,0.0
-9566.0,4218.0,19483.0,0.0
-9544.0,3962.0,19417.0,0.0
-9516.0,3707.0,19338.0,0.0
-9502.0,3459.0,19287.0,0.0
-9484.0,3211.0,19226.0,0.0
-9469.0,2967.0,19173.0,0.0
-9460.0,2726.0,19129.0,0.0
-9446.0,2486.0,19075.0,0.0
-9427.0,2245.0,19011.0,0.0
-9419.0,2010.0,18968.0,0.0
-9409.0,1775.0,18919.0,0.0
-9390.0,1541.0,18854.0,0.0
-9379.0,1309.0,18803.0,0.0
-9363.0,1078.0,18741.0,0.0
-9356.0,850.0,18695.0,0.0
-9341.0,622.0,18635.0,0.0
-9329.0,396.0,18579.0,0.0
-9328.0,170.0,18544.0,0.0
-9316.0,-53.0,18488.0,0.0
-9306.0,-275.0,18434.0,0.0
-9332.0,-499.0,18449.0,0.0
-10726.0,-828.0,21165.0,0.0
-9886.0,-998.0,19467.0,0.0
-9868.0,-1230.0,19392.0,0.0
-10334.0,-1532.0,20269.0,0.0
-11094.0,-1906.0,21713.0,0.0
-20423.0,-3990.0,39884.0,2.0
0.0,0.0,0.0,0.0
0.0,0.0,0.0,0.0
0.0,0.0,0.0,0.0
0.0,0.0,0.0,0.0
0.0,0.0,0.0,0.0
-20696.0,-6946.0,39858.0,2.0
-20656.0,-7413.0,39682.0,2.0
0.0,0.0,0.0,0.0
-20682.0,-8382.0,39526.0,2.0
-20629.0,-8840.0,39323.0,2.0
0.0,0.0,0.0,0.0
0.0,0.0,0.0,0.0
-20673.0,-10294.0,39084.0,2.0
0.0,0.0,0.0,0.0
0.0,0.0,0.0,0.0
0.0,0.0,0.0,0.0
0.0,0.0,0.0,0.0
0.0,0.0,0.0,0.0
0.0,0.0,0.0,0.0
-20740.0,-13687.0,38390.0,2.0
-20775.0,-14191.0,38327.0,2.0
-20762.0,-14663.0,38176.0,2.0
0.0,0.0,0.0,0.0
-20810.0,-15663.0,38005.0,2.0
0.0,0.0,0.0,0.0
-20796.0,-16621.0,37712.0,2.0
-20804.0,-17111.0,37587.0,2.0
0.0,0.0,0.0,0.0
-1035.0,-900.0,1858.0,0.0
0.0,0.0,0.0,0.0
0.0,0.0,0.0,0.0
-20814.0,-19556.0,36885.0,2.0
0.0,0.0,0.0,0.0
0.0,0.0,0.0,0.0
-20628.0,-20842.0,36101.0,2.0
-20663.0,-21368.0,36006.0,2.0
0.0,0.0,0.0,0.0
0.0,0.0,0.0,0.0
-1031.0,-1140.0,1774.0,0.0
-1006.0,-1138.0,1723.0,0.0
0.0,0.0,0.0,0.0
0.0,0.0,0.0,0.0
0.0,0.0,0.0,0.0
0.0,0.0,0.0,0.0
-21266.0,-26599.0,35490.0,2.0
-21245.0,-27094.0,35267.0,2.0
-21091.0,-27416.0,34823.0,2.0
-20920.0,-27710.0,34350.0,2.0
-20761.0,-28015.0,33897.0,2.0
-20608.0,-28322.0,33454.0,2.0
-995.0,-1393.0,1607.0,0.0
-20245.0,-28839.0,32476.0,2.0
-20096.0,-29135.0,32040.0,2.0
-19957.0,-29440.0,31619.0,2.0
-19797.0,-29708.0,31163.0,2.0
-34.0,-53.0,55.0,0.0
-38.0,-60.0,60.0,0.0
-43.0,-68.0,67.0,0.0
-37.0,-60.0,58.0,0.0
-43.0,-70.0,65.0,0.0
-46.0,-78.0,71.0,0.0
-57.0,-97.0,86.0,0.0
-57.0,-98.0,85.0,0.0
-59.0,-103.0,88.0,0.0
-59.0,-104.0,86.0,0.0
-55.0,-100.0,81.0,0.0
-61.0,-112.0,89.0,0.0
-60.0,-113.0,87.0,0.0
-64.0,-120.0,90.0,0.0
-66.0,-126.0,93.0,0.0
-67.0,-132.0,95.0,0.0
-63.0,-124.0,87.0,0.0
-69.0,-137.0,95.0,0.0
-72.0,-145.0,97.0,0.0
-72.0,-149.0,97.0,0.0
-70.0,-145.0,93.0,0.0
-68.0,-144.0,90.0,0.0
-71.0,-151.0,92.0,0.0
-76.0,-165.0,97.0,0.0
-72.0,-161.0,92.0,0.0
-70.0,-158.0,88.0,0.0
-75.0,-170.0,92.0,0.0
-75.0,-175.0,92.0,0.0
-76.0,-178.0,91.0,0.0
-84.0,-201.0,100.0,0.0
-79.0,-191.0,92.0,0.0
-82.0,-199.0,94.0,0.0
-82.0,-202.0,92.0,0.0
-83.0,-207.0,93.0,0.0
-81.0,-207.0,90.0,0.0
-81.0,-209.0,87.0,0.0
-85.0,-224.0,91.0,0.0
-85.0,-226.0,89.0,0.0
-81.0,-219.0,84.0,0.0
-100.0,-272.0,99.0,0.0
-104.0,-287.0,102.0,0.0
-106.0,-295.0,102.0,0.0
-99.0,-282.0,94.0,0.0
-97.0,-280.0,90.0,0.0
-98.0,-283.0,87.0,0.0
-94.0,-277.0,82.0,0.0
-94.0,-281.0,80.0,0.0
-91.0,-276.0,74.0,0.0
-94.0,-287.0,75.0,0.0
-92.0,-287.0,71.0,0.0
-90.0,-283.0,67.0,0.0
-89.0,-285.0,64.0,0.0
-18986.0,46573.0,39230.0,0.0
-18823.0,45268.0,38971.0,0.0
-18671.0,44018.0,38730.0,0.0
-18541.0,42846.0,38528.0,0.0
0.0,0.0,0.0,0.0
-18213.0,40431.0,37977.0,0.0
0.0,0.0,0.0,0.0
-15799.0,33676.0,33044.0,0.0
-15727.0,32842.0,32939.0,0.0
-15917.0,32564.0,33383.0,0.0
-15866.0,31794.0,33319.0,0.0
-15328.0,30080.0,32227.0,0.0
-15335.0,29468.0,32278.0,0.0
-15408.0,28988.0,32465.0,0.0
-15257.0,28098.0,32179.0,0.0
-15410.0,27775.0,32531.0,0.0
-14903.0,26285.0,31487.0,0.0
-14871.0,25660.0,31445.0,0.0
-14683.0,24781.0,31069.0,0.0
-836.0,1381.0,1771.0,0.0
-14882.0,24015.0,31532.0,0.0
-14534.0,22923.0,30809.0,0.0
-866.0,1335.0,1837.0,0.0
-14422.0,21717.0,30603.0,0.0
-877.0,1290.0,1863.0,0.0
-14509.0,20833.0,30809.0,0.0
-14543.0,20382.0,30890.0,0.0
-14710.0,20116.0,31251.0,0.0
-14690.0,19593.0,31215.0,0.0
-14671.0,19080.0,31179.0,0.0
-15964.0,20235.0,33928.0,0.0
-15752.0,19451.0,33479.0,0.0
-15780.0,18977.0,33540.0,0.0
-15817.0,18514.0,33616.0,0.0
-15758.0,17945.0,33487.0,0.0
-15714.0,17401.0,33389.0,0.0
-15680.0,16875.0,33310.0,0.0
-15640.0,16349.0,33217.0,0.0
-15594.0,15824.0,33110.0,0.0
-15535.0,15292.0,32975.0,0.0
-15517.0,14808.0,32925.0,0.0
-15473.0,14305.0,32820.0,0.0
-15373.0,13757.0,32592.0,0.0
-15327.0,13266.0,32479.0,0.0
-9584.0,8016.0,20299.0,0.0
-9567.0,7725.0,20252.0,0.0
-9543.0,7432.0,20187.0,0.0
-9507.0,7133.0,20098.0,0.0
-9494.0,6854.0,20057.0,0.0
-9465.0,6568.0,19981.0,0.0
-9444.0,6289.0,19922.0,0.0
-9421.0,6014.0,19858.0,0.0
-9405.0,5744.0,19806.0,0.0
-9390.0,5478.0,19757.0,0.0
-9372.0,5213.0,19702.0,0.0
-9351.0,4948.0,19636.0,0.0
-9329.0,4686.0,19573.0,0.0
-9317.0,4431.0,19524.0,0.0
-9303.0,4178.0,19477.0,0.0
-9291.0,3927.0,19428.0,0.0
-9271.0,3675.0,19363.0,0.0
-9246.0,3424.0,19289.0,0.0
-9228.0,3178.0,19227.0,0.0
-9221.0,2937.0,19186.0,0.0
-9206.0,2694.0,19130.0,0.0
-9197.0,2457.0,19087.0,0.0
-9184.0,2219.0,19032.0,0.0
-9162.0,1981.0,18958.0,0.0
-9153.0,1747.0,18912.0,0.0
-9137.0,1514.0,18851.0,0.0
-9125.0,1284.0,18796.0,0.0
-9105.0,1053.0,18725.0,0.0
-9115.0,828.0,18715.0,0.0
-9108.0,601.0,18667.0,0.0
-9094.0,375.0,18605.0,0.0
-9074.0,151.0,18533.0,0.0
-9073.0,-71.0,18498.0,0.0
-9069.0,-293.0,18458.0,0.0
-9146.0,-518.0,18577.0,0.0
-10444.0,-847.0,21173.0,0.0
-9621.0,-1013.0,19464.0,0.0
-9601.0,-1243.0,19385.0,0.0
-10080.0,-1549.0,20310.0,0.0
-10716.0,-1905.0,21545.0,0.0
-19745.0,-3986.0,39616.0,2.0
-19714.0,-4452.0,39467.0,2.0
-19807.0,-4948.0,39564.0,2.0
0.0,0.0,0.0,0.0
0.0,0.0,0.0,0.0
0.0,0.0,0.0,0.0
0.0,0.0,0.0,0.0
0.0,0.0,0.0,0.0
0.0,0.0,0.0,0.0
0.0,0.0,0.0,0.0
0.0,0.0,0.0,0.0
0.0,0.0,0.0,0.0
-19957.0,-9733.0,38878.0,2.0
0.0,0.0,0.0,0.0
0.0,0.0,0.0,0.0
0.0,0.0,0.0,0.0
0.0,0.0,0.0,0.0
-19914.0,-12067.0,38238.0,2.0
0.0,0.0,0.0,0.0
0.0,0.0,0.0,0.0
0.0,0.0,0.0,0.0
0.0,0.0,0.0,0.0
0.0,0.0,0.0,0.0
-20230.0,-15136.0,38106.0,2.0
-20291.0,-15664.0,38091.0,2.0
0.0,0.0,0.0,0.0
-20300.0,-16637.0,37841.0,2.0
0.0,0.0,0.0,0.0
-20343.0,-17643.0,37645.0,2.0
0.0,0.0,0.0,0.0
0.0,0.0,0.0,0.0
0.0,0.0,0.0,0.0
0.0,0.0,0.0,0.0
-20265.0,-20010.0,36779.0,2.0
-20191.0,-20425.0,36493.0,2.0
0.0,0.0,0.0,0.0
-1052.0,-1115.0,1885.0,0.0
0.0,0.0,0.0,0.0
0.0,0.0,0.0,0.0
0.0,0.0,0.0,0.0
-998.0,-1156.0,1758.0,0.0
-1017.0,-1203.0,1784.0,0.0
0.0,0.0,0.0,0.0
-964.0,-1188.0,1674.0,0.0
0.0,0.0,0.0,0.0
-20712.0,-26555.0,35570.0,2.0
-20680.0,-27036.0,35332.0,2.0
-20510.0,-27331.0,34855.0,2.0
-20335.0,-27612.0,34369.0,2.0
-20218.0,-27968.0,33983.0,2.0
-20050.0,-28247.0,33508.0,2.0
-19870.0,-28506.0,33018.0,2.0
-19731.0,-28816.0,32593.0,2.0
-19563.0,-29078.0,32120.0,2.0
-19409.0,-29356.0,31672.0,2.0
-41.0,-63.0,67.0,0.0
-41.0,-64.0,66.0,0.0
-44.0,-70.0,70.0,0.0
-42.0,-69.0,68.0,0.0
-46.0,-76.0,73.0,0.0
-50.0,-84.0,79.0,0.0
-58.0,-99.0,91.0,0.0
-56.0,-97.0,88.0,0.0
-55.0,-98.0,87.0,0.0
-57.0,-101.0,87.0,0.0
-61.0,-112.0,93.0,0.0
-61.0,-113.0,92.0,0.0
-62.0,-116.0,92.0,0.0
-60.0,-115.0,90.0,0.0
-67.0,-130.0,99.0,0.0
-67.0,-132.0,98.0,0.0
-69.0,-139.0,101.0,0.0
-65.0,-132.0,94.0,0.0
-70.0,-143.0,98.0,0.0
-68.0,-143.0,97.0,0.0
-75.0,-159.0,104.0,0.0
-71.0,-151.0,97.0,0.0
-71.0,-156.0,98.0,0.0
-74.0,-163.0,99.0,0.0
-74.0,-168.0,99.0,0.0
-79.0,-179.0,104.0,0.0
-77.0,-179.0,101.0,0.0
-82.0,-192.0,105.0,0.0
-78.0,-184.0,98.0,0.0
-79.0,-190.0,99.0,0.0
-80.0,-195.0,99.0,0.0
-81.0,-201.0,99.0,0.0
-80.0,-200.0,95.0,0.0
-80.0,-205.0,95.0,0.0
-82.0,-212.0,95.0,0.0
-83.0,-218.0,95.0,0.0
-88.0,-232.0,98.0,0.0
-86.0,-230.0,95.0,0.0
-85.0,-231.0,91.0,0.0
-86.0,-238.0,91.0,0.0
-93.0,-261.0,97.0,0.0
-102.0,-292.0,104.0,0.0
-101.0,-291.0,101.0,0.0
-101.0,-293.0,98.0,0.0
-97.0,-289.0,93.0,0.0
-98.0,-295.0,91.0,0.0
-95.0,-289.0,87.0,0.0
-92.0,-284.0,81.0,0.0
-92.0,-288.0,79.0,0.0
-91.0,-290.0,76.0,0.0
-91.0,-294.0,74.0,0.0
-88.0,-287.0,69.0,0.0
-88.0,-288.0,66.0,0.0
-18327.0,46198.0,39178.0,0.0
0.0,0.0,0.0,0.0
-17997.0,43586.0,38606.0,0.0
0.0,0.0,0.0,0.0
0.0,0.0,0.0,0.0
-17601.0,40118.0,37932.0,0.0
-15247.0,34052.0,32907.0,0.0
-15293.0,33462.0,33049.0,0.0
-15292.0,32775.0,33087.0,0.0
-15226.0,31965.0,32984.0,0.0
-14870.0,30571.0,32246.0,0.0
-14878.0,29951.0,32297.0,0.0
-14840.0,29250.0,32247.0,0.0
-14992.0,28925.0,32604.0,0.0
-14680.0,27723.0,31954.0,0.0
-14403.0,26619.0,31377.0,0.0
-14467.0,26157.0,31537.0,0.0
-14432.0,25527.0,31483.0,0.0
-14485.0,25057.0,31617.0,0.0
-14335.0,24247.0,31307.0,0.0
-16019.0,26486.0,35000.0,0.0
-14036.0,22683.0,30681.0,0.0
-843.0,1332.0,1845.0,0.0
-13964.0,21539.0,30546.0,0.0
-13797.0,20781.0,30190.0,0.0
-13914.0,20460.0,30452.0,0.0
-14112.0,20252.0,30891.0,0.0
-14311.0,20037.0,31331.0,0.0
-14266.0,19479.0,31234.0,0.0
-15525.0,20666.0,33990.0,0.0
-15478.0,20080.0,33891.0,0.0
-15334.0,19377.0,33571.0,0.0
-15349.0,18887.0,33601.0,0.0
-15362.0,18397.0,33624.0,0.0
-15310.0,17836.0,33505.0,0.0
-15250.0,17274.0,33366.0,0.0
-15198.0,16729.0,33243.0,0.0
-15175.0,16222.0,33183.0,0.0
-15116.0,15684.0,33042.0,0.0
-15088.0,15184.0,32965.0,0.0
-15041.0,14674.0,32852.0,0.0
-14969.0,14145.0,32677.0,0.0
-14947.0,13671.0,32615.0,0.0
-14890.0,13169.0,32472.0,0.0
-9300.0,7946.0,20267.0,0.0
-9279.0,7654.0,20210.0,0.0
-9256.0,7363.0,20146.0,0.0
-9240.0,7080.0,20098.0,0.0
-9216.0,6794.0,20031.0,0.0
-9195.0,6514.0,19969.0,0.0
-9166.0,6231.0,19892.0,0.0
-9157.0,5964.0,19851.0,0.0
-9141.0,5697.0,19799.0,0.0
-9111.0,5422.0,19716.0,0.0
-9094.0,5160.0,19662.0,0.0
-9085.0,4902.0,19621.0,0.0
-9062.0,4641.0,19552.0,0.0
-9044.0,4385.0,19493.0,0.0
-9023.0,4129.0,19424.0,0.0
-9016.0,3882.0,19387.0,0.0
-9004.0,3634.0,19336.0,0.0
-8985.0,3386.0,19273.0,0.0
-8962.0,3140.0,19197.0,0.0
-8951.0,2899.0,19150.0,0.0
-8942.0,2660.0,19104.0,0.0
-8935.0,2424.0,19063.0,0.0
-8922.0,2187.0,19008.0,0.0
-8898.0,1950.0,18929.0,0.0
-8892.0,1719.0,18889.0,0.0
-8880.0,1488.0,18835.0,0.0
-8865.0,1258.0,18773.0,0.0
-8859.0,1030.0,18729.0,0.0
-8867.0,806.0,18715.0,0.0
-8854.0,580.0,18654.0,0.0
-8842.0,355.0,18597.0,0.0
-8821.0,132.0,18519.0,0.0
-8798.0,-88.0,18438.0,0.0
-8811.0,-309.0,18431.0,0.0
-8918.0,-536.0,18618.0,0.0
-10150.0,-862.0,21149.0,0.0
-9360.0,-1028.0,19465.0,0.0
-9339.0,-1257.0,19384.0,0.0
-9852.0,-1570.0,20404.0,0.0
0.0,0.0,0.0,0.0
-19216.0,-4008.0,39626.0,2.0
0.0,0.0,0.0,0.0
-19310.0,-4976.0,39645.0,2.0
0.0,0.0,0.0,0.0
0.0,0.0,0.0,0.0
0.0,0.0,0.0,0.0
-19599.0,-6964.0,39863.0,2.0
0.0,0.0,0.0,0.0
-19599.0,-7918.0,39664.0,2.0
-19605.0,-8396.0,39575.0,2.0
-19381.0,-8770.0,39020.0,2.0
0.0,0.0,0.0,0.0
0.0,0.0,0.0,0.0
-19239.0,-10105.0,38420.0,2.0
0.0,0.0,0.0,0.0
0.0,0.0,0.0,0.0
0.0,0.0,0.0,0.0
0.0,0.0,0.0,0.0
0.0,0.0,0.0,0.0
-19591.0,-13138.0,38439.0,2.0
0.0,0.0,0.0,0.0
0.0,0.0,0.0,0.0
0.0,0.0,0.0,0.0
-19680.0,-15108.0,38117.0,2.0
-19623.0,-15542.0,37879.0,2.0
0.0,0.0,0.0,0.0
0.0,0.0,0.0,0.0
-19708.0,-17052.0,37646.0,2.0
0.0,0.0,0.0,0.0
-995.0,-910.0,1889.0,0.0
0.0,0.0,0.0,0.0
0.0,0.0,0.0,0.0
0.0,0.0,0.0,0.0
0.0,0.0,0.0,0.0
0.0,0.0,0.0,0.0
0.0,0.0,0.0,0.0
-993.0,-1079.0,1832.0,0.0
-1012.0,-1127.0,1861.0,0.0
-976.0,-1110.0,1785.0,0.0
-993.0,-1155.0,1809.0,0.0
-954.0,-1134.0,1730.0,0.0
-19997.0,-24257.0,36059.0,2.0
-984.0,-1219.0,1767.0,0.0
-954.0,-1205.0,1704.0,0.0
-965.0,-1245.0,1717.0,0.0
0.0,0.0,0.0,0.0
-20115.0,-26972.0,35387.0,2.0
-19978.0,-27305.0,34960.0,2.0
-19800.0,-27577.0,34463.0,2.0
-19703.0,-27958.0,34108.0,2.0
-19475.0,-28145.0,33525.0,2.0
-19354.0,-28482.0,33130.0,2.0
-19171.0,-28722.0,32626.0,2.0
-34.0,-51.0,57.0,0.0
-28.0,-43.0,47.0,0.0
-32.0,-51.0,54.0,0.0
-34.0,-56.0,58.0,0.0
-43.0,-70.0,71.0,0.0
-40.0,-67.0,68.0,0.0
-49.0,-83.0,80.0,0.0
-40.0,-70.0,66.0,0.0
-45.0,-79.0,73.0,0.0
-47.0,-83.0,75.0,0.0
-53.0,-95.0,84.0,0.0
-51.0,-95.0,82.0,0.0
-52.0,-97.0,82.0,0.0
-54.0,-102.0,84.0,0.0
-60.0,-116.0,93.0,0.0
-54.0,-105.0,82.0,0.0
-56.0,-112.0,86.0,0.0
-57.0,-116.0,86.0,0.0
-61.0,-126.0,92.0,0.0
-64.0,-133.0,95.0,0.0
-66.0,-140.0,98.0,0.0
-71.0,-153.0,103.0,0.0
-70.0,-152.0,100.0,0.0
-64.0,-143.0,91.0,0.0
-71.0,-158.0,100.0,0.0
-71.0,-161.0,99.0,0.0
-72.0,-168.0,100.0,0.0
-74.0,-174.0,101.0,0.0
-75.0,-177.0,100.0,0.0
-71.0,-172.0,95.0,0.0
-75.0,-183.0,98.0,0.0
-73.0,-182.0,95.0,0.0
-72.0,-182.0,92.0,0.0
-76.0,-193.0,96.0,0.0
-77.0,-201.0,97.0,0.0
-75.0,-197.0,92.0,0.0
-76.0,-201.0,90.0,0.0
-78.0,-210.0,92.0,0.0
-81.0,-219.0,93.0,0.0
-79.0,-219.0,91.0,0.0
-81.0,-227.0,91.0,0.0
-80.0,-228.0,88.0,0.0
-84.0,-242.0,91.0,0.0
-99.0,-289.0,105.0,0.0
-97.0,-288.0,100.0,0.0
-98.0,-295.0,100.0,0.0
-96.0,-291.0,96.0,0.0
-92.0,-285.0,90.0,0.0
-93.0,-289.0,87.0,0.0
-93.0,-294.0,85.0,0.0
-89.0,-286.0,80.0,0.0
-89.0,-290.0,78.0,0.0
-89.0,-295.0,75.0,0.0
-86.0,-289.0,70.0,0.0
-85.0,-289.0,67.0,0.0
-17631.0,45712.0,39020.0,0.0
-17536.0,44561.0,38873.0,0.0
-17365.0,43243.0,38551.0,0.0
0.0,0.0,0.0,0.0
0.0,0.0,0.0,0.0
-17010.0,39844.0,37915.0,0.0
-14757.0,33865.0,32935.0,0.0
-14757.0,33173.0,32973.0,0.0
-14556.0,32048.0,32559.0,0.0
-14653.0,31594.0,32808.0,0.0
-14338.0,30270.0,32131.0,0.0
-14405.0,29775.0,32310.0,0.0
-14336.0,29007.0,32181.0,0.0
-14390.0,28500.0,32328.0,0.0
-14416.0,27939.0,32407.0,0.0
-13944.0,26443.0,31366.0,0.0
-14031.0,26030.0,31580.0,0.0
-13929.0,25273.0,31365.0,0.0
-13784.0,24458.0,31055.0,0.0
-13955.0,24209.0,31454.0,0.0
-15540.0,26349.0,35037.0,0.0
-13617.0,22562.0,30711.0,0.0
-852.0,1380.0,1924.0,0.0
-13535.0,21401.0,30540.0,0.0
0.0,0.0,0.0,0.0
-13542.0,20407.0,30564.0,0.0
-15237.0,22407.0,34394.0,0.0
-13844.0,19859.0,31251.0,0.0
-13818.0,19330.0,31191.0,0.0
-15059.0,20534.0,33988.0,0.0
-15008.0,19941.0,33871.0,0.0
-14943.0,19340.0,33720.0,0.0
-14933.0,18816.0,33689.0,0.0
-14879.0,18244.0,33560.0,0.0
-14829.0,17685.0,33437.0,0.0
-14802.0,17162.0,33367.0,0.0
-14801.0,16674.0,33351.0,0.0
-14727.0,16112.0,33174.0,0.0
-14675.0,15581.0,33041.0,0.0
-14623.0,15058.0,32910.0,0.0
-14603.0,14574.0,32848.0,0.0
-14491.0,14006.0,32578.0,0.0
-14512.0,13575.0,32607.0,0.0
-14475.0,13092.0,32504.0,0.0
-9037.0,7895.0,20277.0,0.0
-9002.0,7592.0,20188.0,0.0
-8977.0,7299.0,20115.0,0.0
-8975.0,7029.0,20096.0,0.0
-8954.0,6746.0,20032.0,0.0
-8925.0,6460.0,19949.0,0.0
-8912.0,6189.0,19904.0,0.0
-8889.0,5915.0,19835.0,0.0
-8871.0,5646.0,19776.0,0.0
-8851.0,5379.0,19709.0,0.0
-8830.0,5114.0,19644.0,0.0
-8823.0,4860.0,19608.0,0.0
-8813.0,4606.0,19566.0,0.0
-8789.0,4346.0,19489.0,0.0
-8779.0,4096.0,19444.0,0.0
-8757.0,3843.0,19372.0,0.0
-8748.0,3598.0,19329.0,0.0
-8732.0,3353.0,19268.0,0.0
-8715.0,3109.0,19206.0,0.0
-8697.0,2867.0,19141.0,0.0
-8693.0,2630.0,19104.0,0.0
-8670.0,2390.0,19027.0,0.0
-8677.0,2160.0,19015.0,0.0
-8657.0,1924.0,18942.0,0.0
-8643.0,1693.0,18882.0,0.0
-8631.0,1463.0,18827.0,0.0
-8634.0,1236.0,18802.0,0.0
-8616.0,1008.0,18733.0,0.0
-8615.0,783.0,18699.0,0.0
-8604.0,559.0,18644.0,0.0
-8592.0,336.0,18586.0,0.0
-8576.0,113.0,18515.0,0.0
-8568.0,-106.0,18466.0,0.0
-8572.0,-325.0,18440.0,0.0
-8729.0,-555.0,18741.0,0.0
-9880.0,-881.0,21172.0,0.0
-9089.0,-1041.0,19439.0,0.0
-9092.0,-1272.0,19405.0,0.0
-9558.0,-1579.0,20358.0,0.0
0.0,0.0,0.0,0.0
0.0,0.0,0.0,0.0
0.0,0.0,0.0,0.0
-18764.0,-4989.0,39617.0,2.0
0.0,0.0,0.0,0.0
0.0,0.0,0.0,0.0
0.0,0.0,0.0,0.0
0.0,0.0,0.0,0.0
0.0,0.0,0.0,0.0
0.0,0.0,0.0,0.0
-18954.0,-8350.0,39347.0,2.0
0.0,0.0,0.0,0.0
0.0,0.0,0.0,0.0
0.0,0.0,0.0,0.0
0.0,0.0,0.0,0.0
0.0,0.0,0.0,0.0
0.0,0.0,0.0,0.0
0.0,0.0,0.0,0.0
0.0,0.0,0.0,0.0
0.0,0.0,0.0,0.0
-19099.0,-13154.0,38549.0,2.0
-19073.0,-13610.0,38376.0,2.0
-19094.0,-14099.0,38296.0,2.0
0.0,0.0,0.0,0.0
-19089.0,-15046.0,38038.0,2.0
0.0,0.0,0.0,0.0
-19132.0,-16035.0,37867.0,2.0
0.0,0.0,0.0,0.0
-19126.0,-16987.0,37593.0,2.0
0.0,0.0,0.0,0.0
0.0,0.0,0.0,0.0
0.0,0.0,0.0,0.0
0.0,0.0,0.0,0.0
0.0,0.0,0.0,0.0
-971.0,-1010.0,1869.0,0.0
-984.0,-1048.0,1885.0,0.0
0.0,0.0,0.0,0.0
0.0,0.0,0.0,0.0
-19104.0,-21806.0,36110.0,2.0
-973.0,-1136.0,1831.0,0.0
-978.0,-1167.0,1835.0,0.0
-962.0,-1173.0,1795.0,0.0
-975.0,-1214.0,1813.0,0.0
-957.0,-1217.0,1771.0,0.0
-964.0,-1251.0,1775.0,0.0
-968.0,-1282.0,1773.0,0.0
-19526.0,-26352.0,35564.0,2.0
-965.0,-1329.0,1751.0,0.0
-946.0,-1328.0,1708.0,0.0
-19269.0,-27545.0,34558.0,2.0
-19091.0,-27802.0,34054.0,2.0
-18969.0,-28137.0,33653.0,2.0
-18796.0,-28391.0,33160.0,2.0
-18635.0,-28655.0,32688.0,2.0
-18473.0,-28912.0,32215.0,2.0
-37.0,-60.0,65.0,0.0
-35.0,-58.0,63.0,0.0
-35.0,-59.0,62.0,0.0
-41.0,-71.0,73.0,0.0
-45.0,-77.0,77.0,0.0
-47.0,-83.0,81.0,0.0
-43.0,-76.0,72.0,0.0
-48.0,-87.0,81.0,0.0
-57.0,-104.0,94.0,0.0
-52.0,-96.0,85.0,0.0
-50.0,-94.0,81.0,0.0
-54.0,-102.0,86.0,0.0
-54.0,-107.0,89.0,0.0
-56.0,-110.0,89.0,0.0
-62.0,-126.0,98.0,0.0
-60.0,-123.0,94.0,0.0
-59.0,-123.0,92.0,0.0
-66.0,-139.0,101.0,0.0
-66.0,-142.0,102.0,0.0
-69.0,-149.0,105.0,0.0
-66.0,-146.0,100.0,0.0
-66.0,-147.0,97.0,0.0
-69.0,-157.0,101.0,0.0
-69.0,-161.0,101.0,0.0
-71.0,-165.0,101.0,0.0
-72.0,-170.0,102.0,0.0
-74.0,-176.0,103.0,0.0
-72.0,-175.0,99.0,0.0
-75.0,-185.0,102.0,0.0
-75.0,-186.0,101.0,0.0
-73.0,-186.0,97.0,0.0
-74.0,-192.0,99.0,0.0
-72.0,-191.0,95.0,0.0
-77.0,-205.0,99.0,0.0
-75.0,-201.0,95.0,0.0
-75.0,-205.0,94.0,0.0
-78.0,-215.0,95.0,0.0
-79.0,-221.0,95.0,0.0
-81.0,-228.0,95.0,0.0
-80.0,-231.0,94.0,0.0
-78.0,-230.0,90.0,0.0
-79.0,-235.0,89.0,0.0
-93.0,-281.0,103.0,0.0
-96.0,-293.0,104.0,0.0
-94.0,-290.0,99.0,0.0
-93.0,-293.0,97.0,0.0
-91.0,-290.0,92.0,0.0
-91.0,-293.0,89.0,0.0
-88.0,-288.0,85.0,0.0
-88.0,-291.0,82.0,0.0
-87.0,-294.0,79.0,0.0
-87.0,-297.0,76.0,0.0
-84.0,-293.0,73.0,0.0
-84.0,-294.0,69.0,0.0
-16986.0,45345.0,38955.0,0.0
-16825.0,44010.0,38638.0,0.0
-16756.0,42944.0,38528.0,0.0
0.0,0.0,0.0,0.0
-16521.0,40638.0,38077.0,0.0
-14261.0,34364.0,32906.0,0.0
-14285.0,33712.0,32992.0,0.0
-14255.0,32948.0,32954.0,0.0
-14347.0,32475.0,33198.0,0.0
-14319.0,31735.0,33160.0,0.0
-13892.0,30142.0,32194.0,0.0
-13937.0,29603.0,32322.0,0.0
-13624.0,28326.0,31619.0,0.0
0.0,0.0,0.0,0.0
-15371.0,30600.0,35711.0,0.0
-13523.0,26338.0,31435.0,0.0
-13574.0,25859.0,31565.0,0.0
-13401.0,24967.0,31176.0,0.0
-13712.0,24976.0,31907.0,0.0
-13616.0,24245.0,31693.0,0.0
-13705.0,23851.0,31909.0,0.0
-13172.0,22396.0,30671.0,0.0
-13114.0,21784.0,30543.0,0.0
-13073.0,21205.0,30448.0,0.0
-13007.0,20599.0,30296.0,0.0
-13196.0,20396.0,30737.0,0.0
-13540.0,20418.0,31534.0,0.0
-13406.0,19718.0,31219.0,0.0
-13414.0,19238.0,31236.0,0.0
-14596.0,20404.0,33983.0,0.0
-14561.0,19831.0,33892.0,0.0
-14506.0,19241.0,33758.0,0.0
-14450.0,18657.0,33617.0,0.0
-14406.0,18099.0,33503.0,0.0
-14381.0,17571.0,33432.0,0.0
-14337.0,17029.0,33319.0,0.0
-14299.0,16499.0,33214.0,0.0
-14274.0,15993.0,33142.0,0.0
-14231.0,15472.0,33023.0,0.0
-14190.0,14962.0,32912.0,0.0
-14131.0,14439.0,32757.0,0.0
-14102.0,13952.0,32668.0,0.0
-14092.0,13491.0,32623.0,0.0
-14060.0,13013.0,32524.0,0.0
-8752.0,7824.0,20231.0,0.0
-8736.0,7538.0,20181.0,0.0
-8721.0,7254.0,20130.0,0.0
-8699.0,6968.0,20062.0,0.0
-8690.0,6694.0,20023.0,0.0
-8655.0,6406.0,19925.0,0.0
-8646.0,6138.0,19886.0,0.0
-8625.0,5866.0,19820.0,0.0
-8611.0,5600.0,19765.0,0.0
-8580.0,5327.0,19675.0,0.0
-8589.0,5081.0,19673.0,0.0
-8561.0,4815.0,19588.0,0.0
-8549.0,4561.0,19537.0,0.0
-8536.0,4309.0,19486.0,0.0
-8518.0,4056.0,19421.0,0.0
-8503.0,3808.0,19365.0,0.0
-8492.0,3563.0,19314.0,0.0
-8488.0,3323.0,19277.0,0.0
-8461.0,3076.0,19193.0,0.0
-8450.0,2836.0,19142.0,0.0
-8447.0,2601.0,19105.0,0.0
-8428.0,2364.0,19036.0,0.0
-8425.0,2132.0,19000.0,0.0
-8410.0,1898.0,18937.0,0.0
-8399.0,1668.0,18884.0,0.0
-8387.0,1439.0,18826.0,0.0
-8380.0,1212.0,18781.0,0.0
-8370.0,986.0,18727.0,0.0
-8361.0,761.0,18675.0,0.0
-8359.0,539.0,18638.0,0.0
-8352.0,317.0,18589.0,0.0
-8331.0,96.0,18511.0,0.0
-8326.0,-123.0,18463.0,0.0
-8331.0,-342.0,18439.0,0.0
-8479.0,-570.0,18732.0,0.0
-9581.0,-895.0,21126.0,0.0
-8841.0,-1056.0,19454.0,0.0
-8828.0,-1283.0,19384.0,0.0
-9361.0,-1604.0,20512.0,0.0
-18277.0,-3604.0,39966.0,2.0
0.0,0.0,0.0,0.0
0.0,0.0,0.0,0.0
0.0,0.0,0.0,0.0
0.0,0.0,0.0,0.0
0.0,0.0,0.0,0.0
0.0,0.0,0.0,0.0
0.0,0.0,0.0,0.0
-18479.0,-7436.0,39669.0,2.0
-18453.0,-7896.0,39516.0,2.0
-18481.0,-8379.0,39477.0,2.0
0.0,0.0,0.0,0.0
0.0,0.0,0.0,0.0
0.0,0.0,0.0,0.0
-18181.0,-10093.0,38426.0,2.0
0.0,0.0,0.0,0.0
0.0,0.0,0.0,0.0
0.0,0.0,0.0,0.0
0.0,0.0,0.0,0.0
0.0,0.0,0.0,0.0
-18523.0,-13109.0,38477.0,2.0
0.0,0.0,0.0,0.0
0.0,0.0,0.0,0.0
0.0,0.0,0.0,0.0
-952.0,-771.0,1954.0,0.0
-18590.0,-15527.0,38004.0,2.0
0.0,0.0,0.0,0.0
-967.0,-857.0,1965.0,0.0
0.0,0.0,0.0,0.0
-18602.0,-17447.0,37508.0,2.0
-974.0,-938.0,1958.0,0.0
-960.0,-951.0,1925.0,0.0
-965.0,-979.0,1925.0,0.0
-951.0,-991.0,1892.0,0.0
-928.0,-990.0,1837.0,0.0
-964.0,-1054.0,1902.0,0.0
-939.0,-1051.0,1844.0,0.0
-933.0,-1070.0,1826.0,0.0
-938.0,-1099.0,1827.0,0.0
-940.0,-1127.0,1824.0,0.0
-946.0,-1159.0,1826.0,0.0
-945.0,-1182.0,1816.0,0.0
-939.0,-1201.0,1798.0,0.0
-948.0,-1237.0,1806.0,0.0
-917.0,-1221.0,1739.0,0.0
-940.0,-1278.0,1775.0,0.0
-935.0,-1297.0,1757.0,0.0
0.0,0.0,0.0,0.0
-18875.0,-27189.0,35078.0,2.0
-18729.0,-27494.0,34627.0,2.0
-18622.0,-27854.0,34250.0,2.0
-18422.0,-28066.0,33700.0,2.0
-18298.0,-28386.0,33287.0,2.0
-18147.0,-28661.0,32828.0,2.0
-17990.0,-28922.0,32360.0,2.0
-38.0,-62.0,68.0,0.0
-31.0,-52.0,56.0,0.0
-38.0,-66.0,69.0,0.0
-32.0,-55.0,57.0,0.0
-44.0,-77.0,76.0,0.0
-40.0,-73.0,72.0,0.0
-44.0,-81.0,77.0,0.0
-44.0,-82.0,77.0,0.0
-50.0,-96.0,87.0,0.0
-48.0,-90.0,81.0,0.0
-50.0,-98.0,85.0,0.0
-51.0,-101.0,85.0,0.0
-53.0,-107.0,88.0,0.0
-51.0,-104.0,84.0,0.0
-52.0,-107.0,85.0,0.0
-55.0,-115.0,89.0,0.0
-57.0,-121.0,91.0,0.0
-63.0,-137.0,101.0,0.0
-61.0,-135.0,96.0,0.0
-63.0,-141.0,98.0,0.0
-62.0,-140.0,96.0,0.0
-63.0,-145.0,96.0,0.0
-65.0,-152.0,98.0,0.0
-65.0,-155.0,99.0,0.0
-63.0,-153.0,95.0,0.0
-67.0,-164.0,99.0,0.0
-71.0,-176.0,104.0,0.0
-68.0,-172.0,99.0,0.0
-66.0,-169.0,95.0,0.0
-70.0,-181.0,98.0,0.0
-70.0,-184.0,98.0,0.0
-71.0,-190.0,98.0,0.0
-70.0,-189.0,94.0,0.0
-70.0,-193.0,94.0,0.0
-72.0,-202.0,96.0,0.0
-73.0,-207.0,95.0,0.0
-74.0,-212.0,95.0,0.0
-76.0,-218.0,95.0,0.0
-74.0,-218.0,92.0,0.0
-74.0,-221.0,90.0,0.0
-77.0,-230.0,91.0,0.0
-75.0,-230.0,88.0,0.0
-85.0,-265.0,99.0,0.0
-95.0,-301.0,107.0,0.0
-93.0,-296.0,103.0,0.0
-91.0,-294.0,97.0,0.0
-88.0,-290.0,93.0,0.0
-88.0,-293.0,91.0,0.0
-89.0,-298.0,88.0,0.0
-87.0,-298.0,86.0,0.0
-84.0,-295.0,81.0,0.0
-84.0,-298.0,78.0,0.0
-83.0,-300.0,75.0,0.0
-83.0,-302.0,73.0,0.0
0.0,0.0,0.0,0.0
-16189.0,43633.0,38544.0,0.0
0.0,0.0,0.0,0.0
0.0,0.0,0.0,0.0
-15886.0,40241.0,37937.0,0.0
-13746.0,34104.0,32858.0,0.0
-13802.0,33532.0,33016.0,0.0
-13699.0,32591.0,32795.0,0.0
-13728.0,31977.0,32887.0,0.0
-13725.0,31300.0,32903.0,0.0
-13442.0,30005.0,32240.0,0.0
-13440.0,29363.0,32252.0,0.0
-13617.0,29115.0,32695.0,0.0
-13395.0,28023.0,32173.0,0.0
-13041.0,26692.0,31336.0,0.0
-13098.0,26223.0,31484.0,0.0
-13122.0,25692.0,31548.0,0.0
-12897.0,24691.0,31015.0,0.0
-13021.0,24370.0,31319.0,0.0
-13083.0,23934.0,31473.0,0.0
-13377.0,23913.0,32183.0,0.0
-12747.0,22260.0,30667.0,0.0
-12712.0,21681.0,30581.0,0.0
0.0,0.0,0.0,0.0
0.0,0.0,0.0,0.0
-12813.0,20329.0,30818.0,0.0
-12973.0,20080.0,31199.0,0.0
-12983.0,19599.0,31216.0,0.0
-12969.0,19085.0,31173.0,0.0
-14132.0,20268.0,33962.0,0.0
-14071.0,19659.0,33803.0,0.0
-14036.0,19096.0,33708.0,0.0
-14002.0,18542.0,33614.0,0.0
-13934.0,17952.0,33435.0,0.0
-13922.0,17442.0,33390.0,0.0
-13876.0,16896.0,33264.0,0.0
-13845.0,16378.0,33175.0,0.0
-13815.0,15864.0,33082.0,0.0
-13778.0,15351.0,32973.0,0.0
-13741.0,14844.0,32864.0,0.0
-13728.0,14370.0,32811.0,0.0
-13623.0,13808.0,32538.0,0.0
-13590.0,13326.0,32436.0,0.0
-8484.0,8042.0,20232.0,0.0
-8498.0,7780.0,20252.0,0.0
-8477.0,7488.0,20182.0,0.0
-8459.0,7202.0,20124.0,0.0
-8428.0,6909.0,20032.0,0.0
-8429.0,6645.0,20015.0,0.0
-8401.0,6362.0,19930.0,0.0
-8386.0,6091.0,19874.0,0.0
-8355.0,5812.0,19782.0,0.0
-8349.0,5553.0,19745.0,0.0
-8340.0,5294.0,19701.0,0.0
-8325.0,5034.0,19645.0,0.0
-8306.0,4775.0,19579.0,0.0
-8288.0,4519.0,19511.0,0.0
-8275.0,4267.0,19457.0,0.0
-8260.0,4017.0,19398.0,0.0
-8251.0,3772.0,19352.0,0.0
-8245.0,3531.0,19313.0,0.0
-8228.0,3286.0,19248.0,0.0
-8212.0,3044.0,19184.0,0.0
-8205.0,2807.0,19140.0,0.0
-8203.0,2573.0,19107.0,0.0
-8183.0,2336.0,19034.0,0.0
-8181.0,2106.0,18999.0,0.0
-8168.0,1873.0,18940.0,0.0
-8147.0,1642.0,18861.0,0.0
-8142.0,1415.0,18816.0,0.0
-8124.0,1187.0,18746.0,0.0
-8127.0,965.0,18721.0,0.0
-8130.0,742.0,18696.0,0.0
-8113.0,519.0,18622.0,0.0
-8110.0,298.0,18584.0,0.0
-8094.0,79.0,18514.0,0.0
-8085.0,-139.0,18458.0,0.0
-8096.0,-358.0,18450.0,0.0
-8260.0,-587.0,18785.0,0.0
-9253.0,-905.0,21002.0,0.0
-8561.0,-1065.0,19392.0,0.0
-8578.0,-1296.0,19391.0,0.0
-9111.0,-1619.0,20553.0,0.0
0.0,0.0,0.0,0.0
-17648.0,-4071.0,39640.0,2.0
0.0,0.0,0.0,0.0
0.0,0.0,0.0,0.0
0.0,0.0,0.0,0.0
0.0,0.0,0.0,0.0
0.0,0.0,0.0,0.0
-18000.0,-6991.0,39879.0,2.0
0.0,0.0,0.0,0.0
0.0,0.0,0.0,0.0
-17934.0,-8372.0,39439.0,2.0
0.0,0.0,0.0,0.0
0.0,0.0,0.0,0.0
0.0,0.0,0.0,0.0
0.0,0.0,0.0,0.0
0.0,0.0,0.0,0.0
0.0,0.0,0.0,0.0
0.0,0.0,0.0,0.0
0.0,0.0,0.0,0.0
0.0,0.0,0.0,0.0
0.0,0.0,0.0,0.0
0.0,0.0,0.0,0.0
0.0,0.0,0.0,0.0
-18018.0,-14524.0,38184.0,2.0
0.0,0.0,0.0,0.0
-18029.0,-15478.0,37961.0,2.0
-18002.0,-15927.0,37777.0,2.0
-936.0,-853.0,1959.0,0.0
-18025.0,-16897.0,37569.0,2.0
-948.0,-913.0,1970.0,0.0
-942.0,-932.0,1950.0,0.0
-919.0,-935.0,1898.0,0.0
-939.0,-980.0,1931.0,0.0
-932.0,-998.0,1909.0,0.0
-948.0,-1041.0,1935.0,0.0
0.0,0.0,0.0,0.0
-927.0,-1067.0,1877.0,0.0
-928.0,-1093.0,1872.0,0.0
-930.0,-1120.0,1867.0,0.0
-931.0,-1147.0,1862.0,0.0
-925.0,-1164.0,1841.0,0.0
-919.0,-1182.0,1823.0,0.0
-914.0,-1200.0,1804.0,0.0
-921.0,-1236.0,1810.0,0.0
-917.0,-1255.0,1794.0,0.0
-904.0,-1262.0,1759.0,0.0
-916.0,-1305.0,1775.0,0.0
-910.0,-1322.0,1754.0,0.0
-18314.0,-27112.0,35105.0,2.0
-18170.0,-27412.0,34652.0,2.0
-18050.0,-27745.0,34246.0,2.0
-17918.0,-28053.0,33814.0,2.0
-17759.0,-28315.0,33335.0,2.0
-17593.0,-28559.0,32842.0,2.0
-26.0,-44.0,50.0,0.0
-31.0,-53.0,59.0,0.0
-35.0,-61.0,66.0,0.0
-35.0,-60.0,63.0,0.0
-40.0,-71.0,73.0,0.0
-41.0,-74.0,74.0,0.0
-50.0,-93.0,91.0,0.0
-44.0,-83.0,79.0,0.0
-45.0,-86.0,82.0,0.0
-48.0,-94.0,86.0,0.0
-45.0,-89.0,80.0,0.0
-53.0,-106.0,93.0,0.0
-54.0,-110.0,95.0,0.0
-52.0,-107.0,90.0,0.0
-58.0,-122.0,99.0,0.0
-57.0,-121.0,96.0,0.0
-59.0,-128.0,100.0,0.0
-61.0,-134.0,101.0,0.0
-62.0,-138.0,102.0,0.0
-61.0,-139.0,101.0,0.0
-63.0,-146.0,103.0,0.0
-64.0,-150.0,103.0,0.0
