//X,Y,Z,Classification
-2361,13473,20542,0.0
-2422,13367,20869,0.0
-2444,13043,20856,0.0
-3536,18250,29899,0.0
-2482,12391,20805,0.0
-3644,17592,30280,0.0
-3709,17309,30552,0.0
-3736,16860,30528,0.0
-4111,17932,33320,0.0
-3356,14152,26996,0.0
-3347,13637,26715,0.0
-3507,13806,27791,0.0
-3522,13392,27712,0.0
-3510,12883,27418,0.0
-3512,12442,27247,0.0
-3496,11952,26950,0.0
-3521,11610,26966,0.0
-3512,11161,26725,0.0
-3565,10913,26955,0.0
-3593,10591,27007,0.0
-3473,9851,25952,0.0
-3604,9831,26777,0.0
-4202,11011,31035,0.0
-2594,6527,19056,0.0
-2605,6284,19027,0.0
-2611,6038,18976,0.0
-2617,5792,18918,0.0
-2619,5543,18841,0.0
-2630,5314,18821,0.0
-2630,5068,18734,0.0
-2630,4826,18647,0.0
-2634,4593,18587,0.0
-2643,4372,18564,0.0
-2651,4152,18537,0.0
-2654,3926,18476,0.0
-2661,3706,18443,0.0
-2664,3486,18385,0.0
-2663,3263,18305,0.0
-2665,3046,18244,0.0
-2668,2831,18189,0.0
-2676,2626,18183,0.0
-2678,2414,18126,0.0
-2682,2206,18080,0.0
-2677,1994,17978,0.0
-2674,1785,17897,0.0
-2683,1586,17889,0.0
-2684,1383,17838,0.0
-2692,1186,17829,0.0
-2693,986,17779,0.0
-2692,787,17713,0.0
-2696,590,17678,0.0
-2702,395,17662,0.0
-2699,199,17592,0.0
-2704,6,17568,0.0
-2704,-186,17513,0.0
-2684,-375,17331,0.0
-2708,-570,17444,0.0
-2702,-759,17354,0.0
-2754,-966,17641,0.0
-2874,-1207,18351,0.0
-2893,-1417,18429,0.0
-3110,-1738,19757,0.0
0,0,0,0.0
0,0,0,0.0
-5714,-4375,36020,1.0
-5734,-4783,36060,1.0
-5716,-5160,35855,1.0
0,0,0,0.0
-5700,-5925,35585,1.0
0,0,0,0.0
0,0,0,0.0
-5717,-7114,35447,1.0
-5706,-7492,35304,1.0
0,0,0,0.0
-5715,-8289,35213,1.0
-5746,-8728,35328,1.0
0,0,0,0.0
0,0,0,0.0
0,0,0,0.0
0,0,0,0.0
0,0,0,0.0
-5677,-10988,34502,1.0
0,0,0,0.0
0,0,0,0.0
0,0,0,0.0
-5661,-12563,34157,1.0
-5644,-12933,34003,1.0
-5632,-13314,33876,1.0
-5608,-13666,33676,1.0
0,0,0,0.0
-5596,-14459,33495,1.0
-5590,-14860,33409,1.0
0,0,0,0.0
-5593,-15716,33334,1.0
-5579,-16102,33203,1.0
-5581,-16537,33165,1.0
-5583,-16980,33135,1.0
-5561,-17350,32959,1.0
-5549,-17758,32852,1.0
0,0,0,0.0
-5520,-18557,32595,1.0
-5502,-18949,32450,1.0
-5471,-19303,32238,1.0
0,0,0,0.0
-5492,-20311,32290,1.0
-5498,-20810,32291,1.0
-5509,-21337,32323,1.0
-5473,-21686,32081,1.0
-5444,-22063,31880,1.0
-5335,-22115,31217,1.0
-5090,-21571,29753,1.0
-5068,-21964,29606,1.0
-5035,-22308,29390,1.0
-5015,-22709,29248,1.0
-5003,-23160,29162,1.0
-4972,-23523,28964,1.0
-5344,-25842,31116,1.0
-5303,-26205,30859,1.0
-5245,-26481,30502,1.0
-5175,-26702,30084,1.0
-5111,-26943,29694,1.0
-5049,-27199,29326,1.0
-4984,-27428,28933,1.0
-4927,-27710,28598,1.0
-2885,-16578,16740,0.0
-2804,-16472,16273,0.0
-2737,-16429,15879,0.0
-2660,-16312,15426,0.0
-2586,-16210,14998,0.0
-2551,-16352,14800,0.0
-2477,-16227,14368,0.0
-12,-80,69,0.0
-14,-98,83,0.0
-13,-92,76,0.0
-14,-99,80,0.0
-15,-109,87,0.0
-2320,-17396,13483,0.0
-2306,-17701,13415,0.0
-2292,-18008,13342,0.0
-2279,-18328,13273,0.0
-2265,-18646,13198,0.0
-2249,-18973,13122,0.0
-2235,-19316,13052,0.0
-2219,-19657,12974,0.0
-2200,-19985,12882,0.0
-2184,-20342,12803,0.0
-2165,-20682,12706,0.0
-2147,-21055,12625,0.0
-17,-165,96,0.0
-17,-172,98,0.0
-16,-167,92,0.0
-14,-159,86,0.0
-16,-178,94,0.0
-16,-191,98,0.0
-17,-201,100,0.0
-17,-204,100,0.0
-19,-237,112,0.0
-18,-242,111,0.0
-18,-247,110,0.0
-19,-256,110,0.0
-19,-266,112,0.0
-19,-290,119,0.0
-19,-295,116,0.0
-20,-315,121,0.0
-20,-336,125,0.0
-20,-345,124,0.0
-19,-341,119,0.0
-18,-347,116,0.0
-18,-349,113,0.0
-16,-345,108,0.0
-16,-350,106,0.0
-709,16021,15486,0.0
-747,15814,15614,0.0
-1604,31912,32186,0.0
-1675,31376,32329,0.0
-1725,30520,32126,0.0
-1814,30367,32656,0.0
-820,13010,14294,0.0
-852,12840,14414,0.0
-1923,27552,31605,0.0
-1963,26795,31411,0.0
-2003,26048,31207,0.0
-2061,25604,31353,0.0
-2065,24511,30680,0.0
-2120,24062,30792,0.0
-2170,23586,30860,0.0
-2204,22944,30700,0.0
-1407,14045,19221,0.0
-1438,13765,19269,0.0
-1452,13342,19110,0.0
-2310,20390,29886,0.0
-1559,13224,19839,0.0
-1661,13539,20796,0.0
-1677,13140,20667,0.0
-1722,12976,20903,0.0
-2499,18117,29905,0.0
-2533,17671,29894,0.0
-2629,17660,30625,0.0
-2659,17192,30575,0.0
-2689,16734,30530,0.0
-2961,17737,33208,0.0
-2991,17248,33155,0.0
-2398,13311,26279,0.0
-2603,13906,28211,0.0
-2669,13725,28623,0.0
-2577,12753,27354,0.0
-2597,12360,27282,0.0
-2610,11952,27164,0.0
-2646,11643,27262,0.0
-2656,11236,27124,0.0
-2666,10837,26985,0.0
-2697,10525,27057,0.0
-2703,10120,26882,0.0
-2714,9751,26781,0.0
-2949,10153,28862,0.0
-1959,6460,19024,0.0
-1967,6208,18962,0.0
-1978,5969,18923,0.0
-1983,5717,18838,0.0
-1993,5481,18798,0.0
-2001,5242,18740,0.0
-2004,4999,18650,0.0
-2011,4768,18596,0.0
-2022,4546,18572,0.0
-2029,4320,18528,0.0
-2036,4098,18485,0.0
-2043,3877,18439,0.0
-2048,3654,18376,0.0
-2055,3437,18332,0.0
-2056,3217,18254,0.0
-2065,3007,18229,0.0
-2066,2789,18142,0.0
-2075,2585,18132,0.0
-2077,2374,18063,0.0
-2081,2167,18008,0.0
-2090,1966,18002,0.0
-2091,1760,17928,0.0
-2097,1559,17897,0.0
-2098,1358,17840,0.0
-2101,1158,17791,0.0
-2102,959,17722,0.0
-2104,762,17667,0.0
-2108,567,17630,0.0
-2114,373,17614,0.0
-2113,180,17539,0.0
-2116,-11,17498,0.0
-2119,-203,17460,0.0
-2121,-393,17414,0.0
-2122,-583,17369,0.0
-2120,-770,17298,0.0
-2169,-979,17644,0.0
-2259,-1219,18320,0.0
-2288,-1434,18491,0.0
-2462,-1758,19849,0.0
0,0,0,0.0
-4479,-3973,35892,1.0
-4463,-4345,35669,1.0
-4493,-4763,35817,1.0
-4468,-5121,35526,1.0
-4464,-5503,35416,1.0
-4461,-5881,35298,1.0
-4486,-6301,35417,1.0
-4485,-6687,35335,1.0
-4499,-7096,35368,1.0
0,0,0,0.0
-4506,-7885,35270,1.0
-4511,-8285,35238,1.0
-4491,-8638,35015,1.0
-4473,-8994,34814,1.0
0,0,0,0.0
-4480,-9796,34754,1.0
-4471,-10172,34626,1.0
0,0,0,0.0
0,0,0,0.0
0,0,0,0.0
0,0,0,0.0
0,0,0,0.0
-4430,-12477,34023,1.0
-4412,-12835,33848,1.0
0,0,0,0.0
0,0,0,0.0
-4423,-14118,33834,1.0
-4421,-14535,33788,1.0
-4403,-14906,33629,1.0
0,0,0,0.0
0,0,0,0.0
0,0,0,0.0
0,0,0,0.0
-4262,-16567,32458,1.0
0,0,0,0.0
-4312,-17667,32819,1.0
0,0,0,0.0
0,0,0,0.0
-4297,-19012,32698,1.0
0,0,0,0.0
-4273,-19874,32524,1.0
0,0,0,0.0
-4243,-20732,32319,1.0
-4227,-21162,32211,1.0
-4208,-21590,32091,1.0
-4186,-21995,31936,1.0
-4047,-21783,30899,1.0
-3916,-21587,29922,1.0
-3875,-21878,29639,1.0
-3792,-21926,29035,1.0
-3741,-22154,28682,1.0
-3726,-22598,28606,1.0
-3705,-23006,28477,1.0
-3667,-23319,28231,1.0
-4008,-26104,30909,1.0
-3954,-26372,30544,1.0
-3900,-26644,30187,1.0
-3844,-26901,29818,1.0
-3781,-27102,29390,1.0
-3730,-27388,29059,1.0
-3635,-27355,28398,1.0
-2154,-16601,16863,0.0
-2095,-16550,16449,0.0
-2031,-16454,16002,0.0
-1969,-16355,15563,0.0
-1910,-16266,15145,0.0
-8,-73,67,0.0
-1811,-16236,14470,0.0
-9,-81,71,0.0
-8,-82,70,0.0
-9,-89,74,0.0
-9,-93,76,0.0
-10,-96,77,0.0
-8,-86,67,0.0
-10,-112,85,0.0
-10,-111,83,0.0
-1586,-18184,13267,0.0
-1568,-18506,13197,0.0
-1549,-18841,13131,0.0
-1528,-19163,13049,0.0
-1507,-19490,12966,0.0
-1486,-19836,12889,0.0
-1463,-20188,12810,0.0
-1439,-20528,12716,0.0
-1418,-20909,12643,0.0
-1394,-21286,12559,0.0
-1368,-21664,12469,0.0
-10,-153,86,0.0
-10,-168,91,0.0
-9,-154,81,0.0
-10,-190,98,0.0
-10,-185,93,0.0
-9,-189,93,0.0
-10,-210,101,0.0
-10,-215,100,0.0
-10,-233,105,0.0
-10,-245,107,0.0
-10,-260,111,0.0
-10,-265,109,0.0
-10,-279,111,0.0
-10,-300,116,0.0
-9,-324,122,0.0
-10,-339,124,0.0
-9,-344,121,0.0
-9,-349,118,0.0
-8,-352,115,0.0
-7,-347,110,0.0
-6,-351,107,0.0
-321,16524,16041,0.0
-360,16362,16224,0.0
-398,16128,16337,0.0
-435,15876,16427,0.0
-470,15575,16464,0.0
-493,14969,16166,0.0
-523,14609,16118,0.0
-490,12651,14263,0.0
-519,12459,14353,0.0
-1192,26623,31341,0.0
-1248,26062,31355,0.0
-1303,25529,31393,0.0
-1326,24412,30686,0.0
-1381,23966,30799,0.0
-1430,23454,30819,0.0
-1467,22745,30564,0.0
-1538,22598,31059,0.0
-1579,22022,30961,0.0
-1046,13858,19934,0.0
-1615,20360,29970,0.0
-1094,13141,19799,0.0
-1185,13567,20927,0.0
-1215,13269,20961,0.0
-1240,12935,20929,0.0
-1825,18190,30155,0.0
-1859,17719,30106,0.0
-1914,17445,30386,0.0
-1962,17112,30568,0.0
-2177,18178,33311,0.0
-2204,17630,33155,0.0
-2235,17118,33052,0.0
-1806,13258,26292,0.0
-1875,13192,26881,0.0
-1935,13040,27317,0.0
-1966,12704,27373,0.0
-1985,12292,27255,0.0
-2008,11914,27203,0.0
-2037,11576,27231,0.0
-2053,11179,27111,0.0
-2067,10777,26965,0.0
-2087,10418,26912,0.0
-2093,10000,26690,0.0
-2119,9680,26717,0.0
-1523,6650,18999,0.0
-1539,6420,19002,0.0
-1548,6166,18926,0.0
-1560,5926,18885,0.0
-1570,5684,18830,0.0
-1578,5439,18752,0.0
-1589,5207,18712,0.0
-1596,4970,18643,0.0
-1603,4733,18564,0.0
-1612,4508,18523,0.0
-1620,4279,18457,0.0
-1631,4067,18453,0.0
-1640,3847,18409,0.0
-1647,3629,18360,0.0
-1655,3414,18321,0.0
-1657,3190,18222,0.0
-1664,2978,18177,0.0
-1670,2768,18134,0.0
-1678,2562,18108,0.0
-1685,2356,18061,0.0
-1690,2149,18009,0.0
-1696,1946,17967,0.0
-1699,1741,17904,0.0
-1705,1542,17881,0.0
-1709,1341,17815,0.0
-1714,1143,17784,0.0
-1716,945,17718,0.0
-1719,749,17666,0.0
-1722,554,17615,0.0
-1726,361,17573,0.0
-1726,168,17495,0.0
-1730,-22,17465,0.0
-1731,-212,17409,0.0
-1736,-401,17385,0.0
-1740,-590,17361,0.0
-1739,-778,17291,0.0
-1793,-994,17764,0.0
-1850,-1221,18264,0.0
-1884,-1444,18534,0.0
-2024,-1763,19845,0.0
0,0,0,0.0
0,0,0,0.0
-3663,-4343,35591,1.0
-3671,-4736,35569,1.0
0,0,0,0.0
0,0,0,0.0
-3694,-5921,35521,1.0
-3699,-6315,35491,1.0
0,0,0,0.0
0,0,0,0.0
0,0,0,0.0
0,0,0,0.0
-3693,-8241,35080,1.0
0,0,0,0.0
-3691,-9017,34937,1.0
0,0,0,0.0
-3674,-9762,34675,1.0
0,0,0,0.0
-3659,-10515,34447,1.0
-3649,-10885,34313,1.0
0,0,0,0.0
-3609,-11568,33878,1.0
-3626,-12028,34006,1.0
-3629,-12449,34007,1.0
0,0,0,0.0
-3604,-13194,33742,1.0
-3602,-13608,33710,1.0
-3606,-14051,33742,1.0
-3590,-14421,33593,1.0
0,0,0,0.0
-3569,-15206,33390,1.0
0,0,0,0.0
-3537,-15959,33108,1.0
0,0,0,0.0
-3487,-16639,32676,1.0
0,0,0,0.0
-3462,-17447,32492,1.0
-3457,-17896,32471,1.0
-3459,-18395,32534,1.0
-3452,-18853,32511,1.0
-3441,-19291,32447,1.0
0,0,0,0.0
0,0,0,0.0
-3404,-20637,32261,1.0
-3381,-21036,32108,1.0
0,0,0,0.0
-3300,-21618,31480,1.0
-3278,-22033,31347,1.0
-3171,-21870,30405,1.0
-3147,-22268,30259,1.0
-3105,-22547,29949,1.0
-3008,-22409,29103,1.0
-2952,-22573,28664,1.0
-2926,-22960,28513,1.0
0,0,0,0.0
-3157,-26100,31005,1.0
-3101,-26328,30594,1.0
-3047,-26565,30200,1.0
-2995,-26817,29827,1.0
-2944,-27080,29468,1.0
-2891,-27328,29097,1.0
-2817,-27363,28507,1.0
-1663,-16613,16936,0.0
-1614,-16574,16533,0.0
-1562,-16506,16111,0.0
-1505,-16369,15634,0.0
-1454,-16287,15221,0.0
-1406,-16217,14829,0.0
-1366,-16238,14528,0.0
-1325,-16238,14214,0.0
-1281,-16196,13870,0.0
-6,-80,67,0.0
-7,-90,74,0.0
-6,-76,60,0.0
-1191,-17158,13451,0.0
-7,-95,73,0.0
-1153,-17803,13344,0.0
-1132,-18118,13276,0.0
-1110,-18435,13205,0.0
-1087,-18742,13121,0.0
-1064,-19082,13054,0.0
-1039,-19402,12968,0.0
-1015,-19765,12904,0.0
-989,-20095,12812,0.0
-963,-20450,12730,0.0
-935,-20797,12637,0.0
-906,-21168,12553,0.0
-878,-21549,12467,0.0
-5,-145,81,0.0
-5,-149,82,0.0
-5,-158,84,0.0
-5,-156,82,0.0
-5,-174,89,0.0
-5,-188,93,0.0
-5,-199,95,0.0
-5,-209,97,0.0
-5,-225,103,0.0
-5,-230,101,0.0
-4,-243,105,0.0
-5,-258,107,0.0
-3,-269,109,0.0
-4,-292,114,0.0
-3,-307,116,0.0
-3,-334,122,0.0
-3,-339,120,0.0
-2,-343,117,0.0
-1,-346,114,0.0
0,-341,109,0.0
0,-344,106,0.0
81,14598,14223,0.0
51,15653,15580,0.0
16,15917,16183,0.0
-20,15862,16475,0.0
-56,15589,16541,0.0
-93,15403,16696,0.0
-129,15226,16863,0.0
-165,15057,17038,0.0
-166,12309,14232,0.0
-233,14499,17131,0.0
-259,13829,16700,0.0
-292,13649,16848,0.0
-326,13539,17083,0.0
-644,23910,30843,0.0
-696,23365,30818,0.0
-737,22512,30364,0.0
-804,22517,31063,0.0
-846,21844,30827,0.0
-578,13795,19919,0.0
-915,20288,29979,0.0
-662,13674,20681,0.0
-698,13478,20870,0.0
-725,13110,20788,0.0
-759,12889,20935,0.0
-1132,18095,30114,0.0
-1167,17575,29976,0.0
-1223,17396,30419,0.0
-1267,17035,30550,0.0
-1421,18083,33268,0.0
-1460,17606,33240,0.0
-1493,17079,33107,0.0
-1219,13243,26367,0.0
-1272,13138,26879,0.0
-1324,12998,27340,0.0
-1355,12636,27339,0.0
-1378,12238,27248,0.0
-1404,11860,27191,0.0
-1437,11559,27304,0.0
-1464,11217,27317,0.0
-1469,10713,26917,0.0
-1657,11502,29837,0.0
-1491,9854,26414,0.0
-1535,9659,26773,0.0
-1106,6617,18987,0.0
-1121,6384,18977,0.0
-1135,6138,18927,0.0
-1146,5891,18859,0.0
-1159,5654,18815,0.0
-1170,5415,18756,0.0
-1180,5176,18690,0.0
-1190,4942,18630,0.0
-1199,4707,18555,0.0
-1211,4489,18541,0.0
-1219,4260,18468,0.0
-1231,4043,18440,0.0
-1239,3824,18396,0.0
-1247,3602,18329,0.0
-1255,3389,18289,0.0
-1264,3177,18252,0.0
-1270,2958,18166,0.0
-1280,2754,18153,0.0
-1284,2540,18066,0.0
-1289,2332,18003,0.0
-1294,2124,17932,0.0
-1306,1930,17963,0.0
-1308,1723,17862,0.0
-1315,1524,17829,0.0
-1321,1326,17799,0.0
-1327,1130,17771,0.0
-1330,931,17684,0.0
-1332,735,17621,0.0
-1339,543,17615,0.0
-1345,351,17591,0.0
-1348,159,17529,0.0
-1348,-31,17449,0.0
-1353,-221,17426,0.0
-1354,-409,17356,0.0
-1359,-597,17343,0.0
-1361,-784,17296,0.0
-1398,-996,17690,0.0
-1449,-1227,18249,0.0
-1477,-1449,18531,0.0
-1591,-1773,19891,0.0
-2855,-3561,35570,1.0
-2883,-3979,35800,1.0
0,0,0,0.0
-2893,-4758,35706,1.0
0,0,0,0.0
0,0,0,0.0
-2906,-5930,35572,1.0
0,0,0,0.0
-2917,-6722,35537,1.0
-2914,-7103,35429,1.0
-2904,-7465,35240,1.0
-2888,-7808,34973,1.0
-2871,-8151,34726,1.0
-2883,-8574,34817,1.0
-2885,-8970,34792,1.0
0,0,0,0.0
0,0,0,0.0
-2869,-10109,34504,1.0
-2857,-10465,34331,1.0
-2829,-10762,33974,1.0
0,0,0,0.0
-2828,-11571,33939,1.0
-2828,-11983,33935,1.0
0,0,0,0.0
-2808,-12739,33718,1.0
0,0,0,0.0
-2789,-13506,33523,1.0
-2795,-13970,33613,1.0
-2770,-14294,33361,1.0
0,0,0,0.0
0,0,0,0.0
-2771,-15668,33503,1.0
-2738,-15946,33153,1.0
-2746,-16476,33320,1.0
-2709,-16736,32941,1.0
-2668,-16970,32521,1.0
-2650,-17348,32381,1.0
-2632,-17729,32245,1.0
-2645,-18340,32513,1.0
0,0,0,0.0
0,0,0,0.0
0,0,0,0.0
0,0,0,0.0
-2584,-20642,32351,1.0
-2561,-21046,32208,1.0
-2546,-21527,32175,1.0
-2504,-21777,31795,1.0
-2459,-22012,31401,1.0
-2413,-22226,30985,1.0
-2376,-22523,30690,1.0
-2295,-22406,29846,1.0
-2251,-22630,29472,1.0
-2233,-23122,29445,1.0
-2207,-23531,29306,1.0
-2323,-25529,31097,1.0
-2295,-26006,30986,1.0
-2250,-26288,30640,1.0
-2201,-26530,30253,1.0
-2153,-26781,29879,1.0
-2104,-27032,29508,1.0
-2053,-27253,29108,1.0
-1999,-27425,28663,1.0
-1932,-27408,28031,1.0
-1129,-16582,16595,0.0
-1086,-16524,16183,0.0
-1041,-16421,15737,0.0
-999,-16343,15326,0.0
-955,-16218,14882,0.0
-928,-16388,14714,0.0
-4,-88,78,0.0
-5,-84,72,0.0
-815,-16274,13683,0.0
-794,-16558,13619,0.0
-772,-16841,13550,0.0
-745,-17006,13382,0.0
-728,-17443,13423,0.0
-704,-17750,13356,0.0
-679,-18049,13278,0.0
-655,-18367,13210,0.0
-629,-18685,13135,0.0
-602,-19012,13060,0.0
-574,-19334,12976,0.0
-546,-19665,12893,0.0
-517,-20027,12823,0.0
-487,-20361,12730,0.0
-456,-20722,12648,0.0
-424,-21081,12558,0.0
-392,-21446,12464,0.0
-3,-143,80,0.0
-2,-155,86,0.0
-2,-167,89,0.0
-2,-163,85,0.0
-1,-188,96,0.0
-1,-204,101,0.0
0,-208,101,0.0
0,-211,99,0.0
0,-232,106,0.0
0,-250,111,0.0
0,-248,107,0.0
0,-260,108,0.0
1,-262,107,0.0
1,-281,110,0.0
2,-308,118,0.0
3,-345,128,0.0
4,-353,126,0.0
4,-355,122,0.0
5,-359,119,0.0
5,-356,114,0.0
6,-349,108,0.0
1311,12295,12098,0.0
1298,12258,12322,0.0
1286,12235,12562,0.0
1272,12189,12784,0.0
1260,12159,13027,0.0
1237,12030,13169,0.0
1312,12844,14366,0.0
1273,12556,14349,0.0
1230,12214,14264,0.0
1188,11891,14191,0.0
1171,11796,14387,0.0
1150,11660,14536,0.0
1696,17323,22077,0.0
0,0,0,0.0
1633,16920,22542,0.0
1104,11523,15700,0.0
1080,11348,15815,0.0
1646,17396,24800,0.0
1629,17331,25281,0.0
1218,13048,19477,0.0
1451,15650,23913,0.0
1182,12830,20072,0.0
1173,12804,20514,0.0
1166,12817,21036,0.0
1139,12595,21180,0.0
1569,17449,30075,0.0
1333,14912,26352,0.0
1294,14555,26379,0.0
1251,14147,26304,0.0
1221,13883,26494,0.0
1192,13616,26681,0.0
1163,13357,26885,0.0
1089,12563,25984,0.0
1053,12195,25933,0.0
1012,11770,25747,0.0
969,11311,25465,0.0
945,11072,25671,0.0
982,11545,27584,0.0
972,11452,28211,0.0
960,11346,28839,0.0
1013,11975,31427,0.0
982,11635,31556,0.0
923,10936,30673,0.0
549,6506,18890,0.0
530,6279,18893,0.0
510,6026,18810,0.0
490,5783,18747,0.0
472,5548,18697,0.0
454,5317,18655,0.0
437,5083,18592,0.0
420,4851,18527,0.0
403,4616,18440,0.0
388,4402,18429,0.0
373,4182,18387,0.0
359,3965,18345,0.0
343,3746,18286,0.0
331,3540,18285,0.0
319,3330,18252,0.0
305,3112,18166,0.0
293,2902,18114,0.0
281,2695,18068,0.0
270,2489,18020,0.0
259,2286,17978,0.0
248,2085,17945,0.0
239,1881,17880,0.0
228,1680,17812,0.0
220,1484,17784,0.0
211,1287,17739,0.0
202,1092,17684,0.0
195,897,17632,0.0
187,706,17591,0.0
179,512,17506,0.0
173,323,17494,0.0
167,134,17440,0.0
161,-54,17447,0.0
155,-241,17358,0.0
150,-427,17299,0.0
145,-612,17263,0.0
140,-797,17215,0.0
140,-1009,17655,0.0
141,-1236,18191,0.0
140,-1461,18539,0.0
147,-1784,19898,0.0
261,-3606,35852,1.0
255,-3973,35640,1.0
0,0,0,0.0
247,-4724,35411,1.0
245,-5130,35529,1.0
243,-5505,35417,1.0
239,-5824,34973,1.0
238,-6194,34870,1.0
236,-6528,34574,1.0
236,-6882,34408,1.0
237,-7222,34186,1.0
238,-7564,33985,1.0
0,0,0,0.0
0,0,0,0.0
251,-8793,34244,1.0
0,0,0,0.0
263,-9576,34209,1.0
268,-9917,34006,1.0
0,0,0,0.0
0,0,0,0.0
0,0,0,0.0
301,-11470,33826,1.0
0,0,0,0.0
324,-12314,33889,1.0
335,-12709,33835,1.0
345,-13015,33544,1.0
357,-13357,33357,1.0
371,-13770,33340,1.0
385,-14145,33227,1.0
400,-14492,33050,1.0
0,0,0,0.0
435,-15388,33128,1.0
450,-15697,32862,1.0
467,-16077,32742,1.0
484,-16401,32513,1.0
505,-16846,32516,1.0
526,-17229,32395,1.0
546,-17619,32284,1.0
570,-18046,32235,1.0
596,-18555,32320,1.0
621,-18986,32261,1.0
0,0,0,0.0
0,0,0,0.0
701,-20277,32035,1.0
734,-20858,32178,1.0
0,0,0,0.0
794,-21757,32030,1.0
811,-21810,31374,1.0
0,0,0,0.0
0,0,0,0.0
922,-23445,31499,1.0
957,-23893,31390,1.0
0,0,0,0.0
1025,-24675,31006,1.0
0,0,0,0.0
1116,-25884,31122,1.0
1148,-26159,30771,1.0
1180,-26393,30376,1.0
1212,-26629,29988,1.0
1243,-26851,29590,1.0
1277,-27101,29225,1.0
1313,-27367,28881,1.0
1346,-27566,28470,1.0
823,-16569,16746,0.0
836,-16552,16374,0.0
847,-16481,15954,0.0
855,-16373,15511,0.0
864,-16281,15095,0.0
877,-16246,14739,0.0
892,-16250,14426,0.0
906,-16222,14092,0.0
918,-16183,13755,0.0
943,-16359,13604,0.0
974,-16635,13532,0.0
1006,-16900,13449,0.0
1041,-17211,13395,0.0
1075,-17509,13327,0.0
1112,-17822,13264,0.0
1149,-18144,13203,0.0
1187,-18446,13121,0.0
1224,-18741,13029,0.0
1265,-19082,12964,0.0
1307,-19422,12893,0.0
1350,-19763,12814,0.0
1392,-20085,12718,0.0
1438,-20449,12643,0.0
1483,-20794,12549,0.0
1533,-21189,12479,0.0
1582,-21540,12376,0.0
1633,-21924,12286,0.0
11,-153,84,0.0
12,-172,91,0.0
13,-175,90,0.0
14,-190,95,0.0
15,-201,98,0.0
15,-203,97,0.0
17,-214,100,0.0
18,-228,103,0.0
19,-235,103,0.0
20,-244,103,0.0
22,-262,108,0.0
24,-286,114,0.0
26,-297,115,0.0
29,-329,124,0.0
30,-343,125,0.0
32,-347,122,0.0
32,-353,119,0.0
33,-355,116,0.0
34,-355,112,0.0
2325,14738,14530,0.0
2268,14370,14470,0.0
2185,13847,14245,0.0
2103,13329,14007,0.0
1896,12011,12895,0.0
1889,11954,13111,0.0
1903,12031,13483,0.0
1892,11949,13682,0.0
1871,11804,13811,0.0
1879,11839,14156,0.0
1873,11780,14396,0.0
1850,11613,14507,0.0
1980,12407,15843,0.0
1923,12016,15689,0.0
1717,10699,14283,0.0
1952,12126,16556,0.0
1957,12122,16928,0.0
1823,11247,16067,0.0
1815,11151,16301,0.0
1804,11037,16513,0.0
1799,10958,16780,0.0
2009,12175,19089,0.0
1802,10863,17444,0.0
1799,10778,17728,0.0
1798,10704,18041,0.0
1800,10644,18388,0.0
1798,10557,18698,0.0
1799,10487,19050,0.0
1801,10412,19405,0.0
1802,10325,19751,0.0
1804,10245,20122,0.0
1803,10143,20466,0.0
1806,10054,20847,0.0
1812,9974,21264,0.0
1817,9883,21673,0.0
1820,9779,22072,0.0
1827,9689,22520,0.0
1833,9584,22953,0.0
1841,9486,23428,0.0
1849,9377,23897,0.0
1858,9274,24402,0.0
1868,9157,24900,0.0
1876,9029,25392,0.0
1373,6479,18863,0.0
1350,6238,18821,0.0
1325,5988,18740,0.0
1304,5757,18710,0.0
1281,5515,18637,0.0
1262,5293,18622,0.0
1240,5055,18542,0.0
1221,4830,18501,0.0
1201,4601,18435,0.0
1184,4384,18410,0.0
1164,4156,18328,0.0
1146,3934,18259,0.0
1132,3730,18263,0.0
1116,3517,18222,0.0
1100,3302,18161,0.0
1086,3097,18143,0.0
1072,2890,18100,0.0
1056,2678,18018,0.0
1042,2472,17962,0.0
1031,2273,17944,0.0
1018,2070,17894,0.0
1006,1870,17839,0.0
993,1669,17770,0.0
982,1471,17701,0.0
973,1278,17697,0.0
964,1086,17680,0.0
955,892,17625,0.0
944,698,17548,0.0
935,508,17498,0.0
928,319,17479,0.0
918,129,17382,0.0
913,-56,17381,0.0
905,-243,17320,0.0
892,-425,17149,0.0
892,-612,17218,0.0
887,-797,17186,0.0
908,-1008,17638,0.0
931,-1232,18138,0.0
946,-1457,18484,0.0
1009,-1770,19745,0.0
0,0,0,0.0
1798,-3930,35275,1.0
1805,-4333,35426,1.0
1807,-4728,35480,1.0
1799,-5091,35299,1.0
1788,-5441,35050,1.0
0,0,0,0.0
1775,-6155,34705,1.0
1772,-6516,34566,1.0
1778,-6907,34591,1.0
1781,-7286,34548,1.0
1785,-7662,34489,1.0
0,0,0,0.0
1792,-8411,34350,1.0
1795,-8771,34226,1.0
0,0,0,0.0
1804,-9501,34006,1.0
1814,-9889,33982,1.0
1816,-10232,33798,1.0
0,0,0,0.0
1839,-11007,33725,1.0
1849,-11381,33639,1.0
1854,-11720,33447,1.0
1871,-12123,33440,1.0
1886,-12520,33409,1.0
1904,-12927,33396,1.0
1921,-13323,33348,1.0
1933,-13679,33196,1.0
1954,-14098,33197,1.0
1965,-14437,33003,1.0
1982,-14812,32891,1.0
0,0,0,0.0
2017,-15561,32656,1.0
2041,-15981,32628,1.0
2070,-16429,32648,1.0
2095,-16842,32591,1.0
2108,-17152,32332,1.0
2157,-17751,32609,1.0
2190,-18217,32623,1.0
2210,-18569,32428,1.0
2231,-18924,32239,1.0
2265,-19377,32210,1.0
2301,-19842,32194,1.0
2336,-20296,32150,1.0
2370,-20726,32061,1.0
2384,-20993,31720,1.0
2432,-21538,31794,1.0
0,0,0,0.0
2506,-22417,31604,1.0
2554,-22939,31611,1.0
2593,-23389,31512,1.0
0,0,0,0.0
0,0,0,0.0
2707,-24632,31040,1.0
2734,-24943,30744,1.0
2796,-25553,30813,1.0
2844,-26024,30701,1.0
2869,-26290,30347,1.0
2896,-26554,29991,1.0
2921,-26800,29620,1.0
2947,-27045,29251,1.0
2975,-27292,28887,1.0
2996,-27476,28462,1.0
1810,-16585,16813,0.0
1809,-16564,16434,0.0
1805,-16506,16027,0.0
1796,-16398,15582,0.0
1787,-16290,15149,0.0
1781,-16196,14740,0.0
1802,-16359,14568,0.0
1787,-16178,14098,0.0
1795,-16210,13821,0.0
1808,-16276,13577,0.0
1842,-16531,13491,0.0
1880,-16823,13430,0.0
1919,-17113,13362,0.0
1958,-17408,13293,0.0
1997,-17685,13206,0.0
2043,-18018,13155,0.0
2087,-18332,13085,0.0
2131,-18638,13002,0.0
2177,-18956,12922,0.0
2229,-19323,12871,0.0
2275,-19628,12771,0.0
2328,-19989,12702,0.0
2378,-20319,12607,0.0
2430,-20661,12514,0.0
2488,-21053,12443,0.0
2545,-21414,12348,0.0
2605,-21806,12263,0.0
17,-149,81,0.0
19,-167,89,0.0
19,-165,85,0.0
21,-180,91,0.0
22,-187,93,0.0
25,-209,100,0.0
26,-215,100,0.0
28,-233,105,0.0
30,-240,106,0.0
31,-250,107,0.0
31,-249,103,0.0
35,-277,112,0.0
36,-285,111,0.0
41,-321,121,0.0
45,-343,125,0.0
44,-344,122,0.0
44,-339,116,0.0
46,-343,113,0.0
45,-340,108,0.0
-3535,14887,13639,0.0
-3606,14823,13875,0.0
-3682,14778,14133,0.0
-3758,14728,14391,0.0
-3835,14675,14651,0.0
-3913,14615,14908,0.0
-3992,14557,15173,0.0
-4072,14496,15440,0.0
-4151,14432,15707,0.0
-4231,14357,15969,0.0
-4314,14290,16246,0.0
-4364,14115,16401,0.0
-4371,13798,16390,0.0
-4386,13512,16409,0.0
-4434,13331,16553,0.0
-4765,13978,17749,0.0
-4858,13904,18057,0.0
-4954,13831,18374,0.0
-5024,13680,18593,0.0
-5129,13621,18943,0.0
-5184,13423,19105,0.0
-5145,12987,18923,0.0
-5191,12773,19057,0.0
-5581,13378,20441,0.0
-5691,13291,20805,0.0
-5805,13202,21176,0.0
-5916,13102,21542,0.0
-6659,14354,24198,0.0
-6663,13974,24160,0.0
-6653,13574,24081,0.0
-6473,12843,23383,0.0
-6625,12776,23886,0.0
0,0,0,0.0
-6529,11879,23446,0.0
-6606,11667,23677,0.0
-9204,15772,32927,0.0
-9184,15260,32790,0.0
-9176,14777,32700,0.0
-9181,14321,32656,0.0
-9181,13860,32590,0.0
-8499,12413,30116,0.0
-8439,11912,29845,0.0
-8563,11673,30226,0.0
-8574,11280,30208,0.0
-8621,10934,30313,0.0
-8957,10941,31433,0.0
-9106,10704,31900,0.0
-9102,10281,31822,0.0
-9130,9901,31863,0.0
-6327,6577,22040,0.0
-6324,6293,21987,0.0
-6334,6024,21980,0.0
-6328,5742,21914,0.0
-6112,5282,21127,0.0
-6284,5162,21680,0.0
-6315,4918,21745,0.0
-6303,4643,21661,0.0
-6290,4371,21578,0.0
-6284,4105,21512,0.0
-6278,3842,21451,0.0
-6265,3578,21363,0.0
-6257,3320,21297,0.0
-6256,3066,21250,0.0
-6247,2812,21178,0.0
-6237,2558,21104,0.0
-6227,2308,21025,0.0
-6227,2062,20984,0.0
-6203,1812,20864,0.0
-5904,1495,19816,0.0
-5924,1271,19845,0.0
-5984,1053,20005,0.0
-6071,835,20255,0.0
-5946,591,19796,0.0
-5966,367,19824,0.0
-6165,146,20441,0.0
-6167,-86,20407,0.0
-6161,-317,20342,0.0
-6151,-546,20264,0.0
-6146,-775,20204,0.0
-6139,-1003,20141,0.0
-6135,-1229,20085,0.0
-6132,-1455,20030,0.0
-6121,-1678,19952,0.0
-6119,-1902,19901,0.0
-6116,-2126,19846,0.0
-6099,-2343,19748,0.0
-6074,-2557,19625,0.0
-6052,-2768,19505,0.0
-6097,-3010,19608,0.0
-6086,-3225,19524,0.0
-6086,-3448,19482,0.0
-6080,-3665,19417,0.0
-6078,-3884,19365,0.0
-6072,-4101,19302,0.0
-6066,-4317,19238,0.0
-6062,-4534,19173,0.0
-6067,-4758,19146,0.0
-6062,-4972,19079,0.0
-6052,-5185,19002,0.0
-6043,-5397,18926,0.0
-6038,-5612,18864,0.0
-6039,-5832,18818,0.0
-6041,-6055,18774,0.0
-6030,-6265,18692,0.0
-6024,-6479,18624,0.0
-6025,-6701,18576,0.0
-6019,-6914,18508,0.0
-6017,-7134,18450,0.0
-6019,-7359,18405,0.0
-6014,-7575,18337,0.0
-5825,-7552,17712,0.0
-5500,-7337,16676,0.0
-5505,-7549,16641,0.0
-5499,-7748,16577,0.0
-5508,-7967,16554,0.0
-6012,-8924,18015,0.0
-6021,-9163,17983,0.0
-6025,-9398,17937,0.0
-6018,-9619,17863,0.0
-6022,-9857,17818,0.0
-6022,-10090,17760,0.0
-6024,-10328,17708,0.0
-6028,-10569,17660,0.0
-6026,-10804,17596,0.0
-6029,-11047,17544,0.0
-6031,-11292,17490,0.0
-6042,-11554,17460,0.0
-6047,-11807,17412,0.0
-5979,-11914,17150,0.0
-5623,-11436,16072,0.0
-5527,-11468,15738,0.0
-5372,-11369,15237,0.0
-6059,-13076,17119,0.0
-6065,-13344,17067,0.0
-6084,-13642,17051,0.0
-6093,-13925,17008,0.0
-6100,-14203,16955,0.0
-6103,-14477,16893,0.0
-6111,-14762,16840,0.0
-6129,-15078,16814,0.0
-6131,-15357,16745,0.0
-6017,-15343,16358,0.0
-6005,-15588,16248,0.0
-6125,-16181,16495,0.0
-6158,-16557,16503,0.0
-6164,-16863,16437,0.0
-6175,-17188,16383,0.0
-6181,-17503,16315,0.0
-6185,-17818,16241,0.0
-6206,-18183,16206,0.0
-6211,-18506,16127,0.0
-6224,-18860,16069,0.0
-6234,-19215,16007,0.0
-6246,-19574,15941,0.0
-6254,-19928,15864,0.0
-6261,-20285,15784,0.0
-6271,-20656,15708,0.0
-6283,-21040,15635,0.0
-6299,-21446,15571,0.0
-6301,-21809,15470,0.0
-6318,-22230,15402,0.0
-6324,-22618,15305,0.0
-6335,-23032,15217,0.0
-6349,-23468,15137,0.0
-6231,-23410,14737,0.0
-6042,-23079,14176,0.0
-6396,-24836,14884,0.0
0,0,0,0.0
-510,-2048,1167,0.0
0,0,0,0.0
-503,-2088,1131,0.0
-512,-2162,1139,0.0
-492,-2113,1085,0.0
-38,-172,85,0.0
-38,-171,83,0.0
-45,-206,96,0.0
-44,-203,93,0.0
-47,-219,98,0.0
-45,-220,95,0.0
-48,-240,101,0.0
-52,-261,106,0.0
-58,-292,115,0.0
-62,-322,123,0.0
-64,-334,124,0.0
-64,-344,123,0.0
-64,-350,121,0.0
-62,-345,115,0.0
-61,-342,110,0.0
-62,-354,110,0.0
-60,-348,103,0.0
-59,-352,100,0.0
-57,-348,96,0.0
-2604,15658,14698,0.0
-2616,15287,14659,0.0
-2624,14914,14610,0.0
-2652,14659,14671,0.0
-2687,14444,14769,0.0
-4078,21335,22289,0.0
-4138,21058,22477,0.0
-2990,14807,16149,0.0
-2994,14428,16080,0.0
-3049,14302,16288,0.0
-3118,14234,16569,0.0
-3164,14052,16718,0.0
-3262,14100,17149,0.0
-3242,13642,16960,0.0
-3363,13769,17505,0.0
-3377,13458,17495,0.0
-3379,13109,17429,0.0
-3640,13737,18682,0.0
-3727,13685,19042,0.0
-3805,13597,19360,0.0
-3862,13425,19564,0.0
-3967,13412,20009,0.0
0,0,0,0.0
-4034,12896,20178,0.0
-4059,12616,20223,0.0
-4319,13050,21436,0.0
-4435,13021,21924,0.0
-4535,12936,22335,0.0
-4635,12843,22746,0.0
-4739,12749,23168,0.0
-4847,12657,23612,0.0
-4959,12565,24071,0.0
-5047,12404,24413,0.0
-5165,12308,24897,0.0
-5114,11810,24569,0.0
-5234,11709,25060,0.0
-5259,11392,25099,0.0
-5673,11891,26984,0.0
-5811,11779,27552,0.0
-5921,11601,27985,0.0
-6077,11501,28633,0.0
-6132,11199,28799,0.0
-6277,11059,29396,0.0
-6412,10885,29937,0.0
-4084,6675,19012,0.0
-4123,6481,19136,0.0
-4121,6224,19070,0.0
-4121,5973,19012,0.0
-4119,5724,18951,0.0
-4120,5481,18902,0.0
-4116,5234,18833,0.0
-4117,4997,18784,0.0
-4118,4761,18733,0.0
-4115,4525,18669,0.0
-4113,4293,18613,0.0
-4108,4059,18540,0.0
-4112,3838,18513,0.0
-4109,3610,18447,0.0
-4106,3386,18387,0.0
-4109,3169,18353,0.0
-4102,2946,18273,0.0
-4106,2734,18248,0.0
-4106,2520,18197,0.0
-4104,2306,18147,0.0
-4102,2094,18088,0.0
-4099,1884,18035,0.0
-4100,1677,17993,0.0
-4100,1471,17947,0.0
-4093,1264,17874,0.0
-4099,1062,17855,0.0
-4094,860,17794,0.0
-4095,658,17751,0.0
-4098,459,17723,0.0
-4095,260,17670,0.0
-4096,62,17634,0.0
-4091,-134,17567,0.0
-4090,-329,17524,0.0
-4089,-524,17479,0.0
-4074,-716,17376,0.0
-4096,-913,17428,0.0
-4327,-1169,18367,0.0
-4337,-1376,18366,0.0
-4338,-1580,18328,0.0
-4336,-1782,18277,0.0
-4334,-1983,18226,0.0
-4331,-2184,18173,0.0
-4328,-2384,18121,0.0
-4334,-2589,18103,0.0
-4330,-2787,18042,0.0
-4332,-2990,18013,0.0
-4346,-3199,18025,0.0
-4328,-3386,17909,0.0
-4334,-3592,17893,0.0
-4327,-3786,17826,0.0
-4326,-3986,17782,0.0
-4328,-4188,17747,0.0
-4323,-4383,17687,0.0
-4318,-4577,17621,0.0
-4321,-4781,17596,0.0
-4323,-4985,17564,0.0
-4318,-5180,17502,0.0
-4315,-5377,17447,0.0
-4316,-5580,17412,0.0
-4312,-5777,17353,0.0
-4325,-5997,17364,0.0
-4311,-6181,17266,0.0
-4311,-6386,17227,0.0
-4311,-6590,17186,0.0
-4299,-6777,17100,0.0
-4306,-6993,17083,0.0
-4300,-7190,17019,0.0
-4300,-7399,16980,0.0
-4300,-7606,16936,0.0
-4295,-7807,16876,0.0
-4292,-8012,16821,0.0
-4297,-8233,16799,0.0
-4288,-8427,16721,0.0
-4287,-8639,16675,0.0
-4290,-8862,16647,0.0
-4283,-9061,16574,0.0
-4280,-9272,16519,0.0
-4279,-9489,16473,0.0
-4281,-9714,16438,0.0
-4272,-9915,16358,0.0
-4273,-10142,16318,0.0
-4275,-10374,16284,0.0
-4274,-10598,16234,0.0
-4269,-10816,16173,0.0
-4265,-11036,16110,0.0
-4264,-11269,16064,0.0
-4262,-11496,16007,0.0
-4265,-11742,15971,0.0
-4261,-11975,15914,0.0
-4265,-12230,15882,0.0
-4257,-12450,15802,0.0
-4253,-12687,15741,0.0
-4246,-12916,15667,0.0
-4244,-13164,15611,0.0
-4239,-13402,15541,0.0
-4243,-13679,15510,0.0
-4236,-13917,15433,0.0
-4234,-14177,15375,0.0
-4229,-14429,15306,0.0
-4228,-14698,15249,0.0
-4226,-14970,15191,0.0
-4223,-15240,15128,0.0
-4219,-15510,15060,0.0
-4215,-15780,14987,0.0
-26,-99,92,0.0
-24,-96,87,0.0
-24,-97,86,0.0
-23,-92,81,0.0
-22,-93,79,0.0
-19,-78,65,0.0
-18,-76,61,0.0
-18,-76,60,0.0
-19,-80,62,0.0
-21,-97,74,0.0
-20,-92,69,0.0
-22,-104,76,0.0
-3930,-18668,13235,0.0
-3926,-18994,13156,0.0
-3926,-19346,13090,0.0
-3923,-19691,13012,0.0
-3915,-20022,12918,0.0
-3911,-20378,12835,0.0
-3910,-20754,12759,0.0
-3905,-21122,12670,0.0
-25,-135,79,0.0
-3895,-21890,12491,0.0
-25,-143,79,0.0
-27,-159,86,0.0
-28,-166,87,0.0
-26,-160,82,0.0
-28,-175,87,0.0
-30,-188,91,0.0
-31,-196,93,0.0
-32,-207,95,0.0
-32,-219,98,0.0
-35,-240,104,0.0
-35,-249,105,0.0
-38,-269,110,0.0
-38,-277,110,0.0
-43,-320,123,0.0
-44,-337,125,0.0
-43,-342,123,0.0
-43,-348,120,0.0
-42,-342,115,0.0
-42,-355,114,0.0
-40,-348,108,0.0
-40,-351,105,0.0
-39,-348,100,0.0
0,0,0,0.0
0,0,0,0.0
-2016,31999,32201,0.0
-2084,31432,32311,0.0
-2136,30662,32201,0.0
-965,13203,14165,0.0
-1003,13105,14365,0.0
-1033,12891,14438,0.0
-2317,27663,31660,0.0
-2363,27009,31587,0.0
-2458,26918,32174,0.0
-2448,25709,31408,0.0
-2522,25423,31749,0.0
-2492,24126,30803,0.0
-2542,23657,30883,0.0
-1576,14102,18825,0.0
-1613,13881,18953,0.0
-1618,13399,18713,0.0
-2678,21354,30514,0.0
-2671,20513,29998,0.0
-1789,13241,19820,0.0
-1909,13607,20850,0.0
-1946,13372,20982,0.0
-1963,13001,20895,0.0
-2848,18191,29954,0.0
-2920,17984,30350,0.0
-2956,17555,30372,0.0
-3011,17244,30594,0.0
-3043,16807,30590,0.0
-3336,17767,33185,0.0
-3359,17252,33081,0.0
-3388,16776,33040,0.0
-2812,13422,27161,0.0
-2897,13327,27724,0.0
-2888,12804,27394,0.0
-2905,12404,27309,0.0
-2914,11983,27167,0.0
-2961,11717,27367,0.0
-2966,11295,27194,0.0
-3142,11506,28578,0.0
-2989,10525,26989,0.0
-2958,10005,26504,0.0
-2997,9733,26662,0.0
-3264,10170,28833,0.0
-2162,6459,18970,0.0
-2179,6235,18987,0.0
-2189,5992,18944,0.0
-2198,5754,18907,0.0
-2200,5498,18803,0.0
-2207,5261,18750,0.0
-2216,5032,18718,0.0
-2224,4801,18674,0.0
-2228,4566,18598,0.0
-2234,4340,18550,0.0
-2240,4113,18495,0.0
-2246,3893,18455,0.0
-2253,3674,18413,0.0
-2254,3450,18331,0.0
-2259,3234,18284,0.0
-2267,3023,18257,0.0
-2268,2806,18180,0.0
-2269,2592,18108,0.0
-2273,2384,18060,0.0
-2280,2179,18028,0.0
-2283,1973,17982,0.0
-2282,1765,17892,0.0
-2280,1560,17808,0.0
-2292,1365,17836,0.0
-2298,1168,17810,0.0
-2299,968,17753,0.0
-2302,771,17706,0.0
-2303,575,17650,0.0
-2305,380,17604,0.0
-2307,186,17550,0.0
-2310,-6,17519,0.0
-2312,-198,17473,0.0
-2221,-373,16735,0.0
-2308,-577,17329,0.0
-2315,-766,17328,0.0
-2364,-975,17642,0.0
-2454,-1211,18265,0.0
-2488,-1427,18455,0.0
-2681,-1753,19834,0.0
0,0,0,0.0
0,0,0,0.0
0,0,0,0.0
0,0,0,0.0
-4882,-5135,35645,1.0
-4886,-5528,35595,1.0
0,0,0,0.0
0,0,0,0.0
-4885,-6688,35338,1.0
0,0,0,0.0
0,0,0,0.0
-4929,-7922,35426,1.0
-4918,-8298,35280,1.0
-4918,-8691,35212,1.0
-4913,-9076,35112,1.0
-4892,-9429,34890,1.0
0,0,0,0.0
-4881,-10197,34691,1.0
-4877,-10586,34604,1.0
-4871,-10973,34508,1.0
0,0,0,0.0
0,0,0,0.0
-4850,-12128,34199,1.0
-4833,-12494,34037,1.0
-4835,-12909,34010,1.0
0,0,0,0.0
-4833,-13727,33903,1.0
-4837,-14160,33896,1.0
0,0,0,0.0
-4794,-14874,33519,1.0
-4771,-15230,33331,1.0
-4767,-15641,33261,1.0
-4748,-16015,33106,1.0
-4699,-16278,32731,1.0
-4694,-16701,32677,1.0
0,0,0,0.0
0,0,0,0.0
-4709,-18102,32719,1.0
0,0,0,0.0
0,0,0,0.0
-4717,-19538,32727,1.0
-4701,-19950,32602,1.0
-4682,-20361,32470,1.0
-4671,-20807,32388,1.0
0,0,0,0.0
-4644,-21692,32194,1.0
-4592,-21959,31835,1.0
-4448,-21777,30842,1.0
-4307,-21580,29866,1.0
-4266,-21879,29592,1.0
-4157,-21818,28845,1.0
-4132,-22193,28684,1.0
-4115,-22614,28577,1.0
-4097,-23037,28467,1.0
0,0,0,0.0
0,0,0,0.0
-4385,-26421,30547,1.0
-4321,-26633,30121,1.0
-4264,-26899,29762,1.0
-4201,-27119,29355,1.0
-4145,-27388,29004,1.0
-4086,-27632,28632,1.0
-2396,-16579,16809,0.0
-2333,-16527,16394,0.0
-2269,-16460,15977,0.0
-2200,-16338,15516,0.0
-2137,-16258,15106,0.0
-2092,-16297,14816,0.0
-12,-92,81,0.0
-12,-94,82,0.0
-1930,-16181,13773,0.0
-1912,-16433,13682,0.0
-11,-101,82,0.0
-12,-107,85,0.0
-1864,-17293,13469,0.0
-13,-118,89,0.0
-1834,-17923,13345,0.0
-10,-105,76,0.0
-1801,-18569,13210,0.0
-1780,-18873,13121,0.0
-1762,-19204,13045,0.0
-1743,-19546,12971,0.0
-1723,-19887,12889,0.0
-1702,-20229,12802,0.0
-1681,-20581,12717,0.0
-1662,-20989,12657,0.0
-1637,-21330,12550,0.0
-11,-146,84,0.0
-13,-171,95,0.0
-11,-157,85,0.0
-12,-173,92,0.0
-12,-189,98,0.0
-13,-204,103,0.0
-13,-213,105,0.0
-12,-214,101,0.0
-14,-246,113,0.0
-13,-237,106,0.0
-13,-249,109,0.0
-13,-260,111,0.0
-14,-285,117,0.0
-13,-287,115,0.0
-13,-307,119,0.0
-13,-331,124,0.0
-13,-341,123,0.0
-12,-344,121,0.0
-12,-351,119,0.0
-11,-354,115,0.0
-10,-349,110,0.0
-9,-352,108,0.0
841,15056,14758,0.0
800,14730,14749,0.0
757,14332,14658,0.0
722,14074,14704,0.0
678,13632,14549,0.0
640,13287,14489,0.0
601,12920,14394,0.0
541,12042,13708,0.0
528,12209,14201,0.0
495,11879,14122,0.0
472,11820,14359,0.0
448,11703,14530,0.0
425,11618,14748,0.0
524,15049,19529,0.0
491,14844,19695,0.0
465,14858,20162,0.0
437,14853,20615,0.0
403,14636,20780,0.0
370,14398,20916,0.0
311,13082,19449,0.0
303,13881,21123,0.0
270,13639,21250,0.0
232,13041,20807,0.0
200,12748,20835,0.0
171,12619,21131,0.0
165,14541,24957,0.0
131,14259,25090,0.0
96,13955,25183,0.0
61,13587,25155,0.0
28,13184,25051,0.0
-4,12928,25222,0.0
-36,12538,25125,0.0
-69,12497,25733,0.0
-99,12036,25481,0.0
-136,12299,26783,0.0
-158,11296,25317,0.0
-195,11495,26531,0.0
-220,10946,26030,0.0
-253,10814,26515,0.0
-285,10626,26884,0.0
-299,9860,25755,0.0
-333,9775,26385,0.0
-417,10985,30666,0.0
-276,6559,18955,0.0
-292,6298,18857,0.0
-308,6061,18823,0.0
-324,5820,18768,0.0
-339,5588,18735,0.0
-353,5342,18644,0.0
-368,5111,18598,0.0
-382,4886,18563,0.0
-395,4659,18513,0.0
-408,4443,18496,0.0
-420,4212,18412,0.0
-433,4000,18401,0.0
-444,3781,18346,0.0
-455,3563,18293,0.0
-466,3349,18245,0.0
-476,3135,18183,0.0
-486,2922,18121,0.0
-495,2710,18049,0.0
-504,2507,18020,0.0
-514,2304,17984,0.0
-522,2101,17942,0.0
-529,1897,17875,0.0
-537,1696,17814,0.0
-544,1496,17759,0.0
-551,1300,17733,0.0
-558,1105,17691,0.0
-563,908,17603,0.0
-570,717,17592,0.0
-576,525,17543,0.0
-581,333,17514,0.0
-587,144,17485,0.0
-591,-45,17425,0.0
-596,-233,17379,0.0
-600,-420,17340,0.0
-604,-607,17289,0.0
-607,-792,17243,0.0
-630,-1008,17742,0.0
-651,-1232,18202,0.0
-674,-1474,18742,0.0
-723,-1787,19965,0.0
-1302,-3589,35735,1.0
-1310,-3986,35780,1.0
-1304,-4337,35438,1.0
-1314,-4744,35560,1.0
0,0,0,0.0
-1316,-5497,35342,1.0
0,0,0,0.0
-1310,-6220,34982,1.0
0,0,0,0.0
0,0,0,0.0
-1308,-7348,34732,1.0
-1304,-7710,34584,1.0
-1311,-8145,34758,1.0
-1308,-8525,34684,1.0
0,0,0,0.0
-1296,-9255,34423,1.0
-1282,-9563,34088,1.0
0,0,0,0.0
0,0,0,0.0
-1266,-10706,33886,1.0
-1260,-11092,33826,1.0
0,0,0,0.0
0,0,0,0.0
0,0,0,0.0
-1221,-12572,33379,1.0
0,0,0,0.0
-1198,-13314,33156,1.0
0,0,0,0.0
0,0,0,0.0
-1177,-14658,33328,1.0
-1164,-15051,33240,1.0
0,0,0,0.0
0,0,0,0.0
-1117,-16207,32905,1.0
-1097,-16531,32665,1.0
-1080,-16932,32576,1.0
-1053,-17190,32215,1.0
-1038,-17648,32229,1.0
-1023,-18098,32219,1.0
-1007,-18586,32264,1.0
0,0,0,0.0
0,0,0,0.0
-954,-20043,32320,1.0
-938,-20613,32450,1.0
-909,-20952,32209,1.0
-883,-21328,32022,1.0
-858,-21783,31952,1.0
-808,-21616,30981,1.0
-809,-22775,31902,1.0
-779,-23189,31750,1.0
-712,-22438,30032,1.0
0,0,0,0.0
0,0,0,0.0
-645,-24553,30733,1.0
-604,-24635,30161,1.0
-589,-25925,31049,1.0
-550,-26183,30676,1.0
-510,-26417,30282,1.0
-469,-26658,29900,1.0
-429,-26909,29532,1.0
-388,-27170,29177,1.0
-346,-27395,28790,1.0
-304,-27602,28385,1.0
-155,-16542,16648,0.0
-128,-16497,16247,0.0
-101,-16408,15815,0.0
-74,-16308,15382,0.0
-48,-16235,14984,0.0
-23,-16336,14755,0.0
1,-16256,14366,0.0
26,-16222,14028,0.0
51,-16195,13701,0.0
76,-16447,13613,0.0
103,-16719,13537,0.0
130,-16893,13378,0.0
159,-17312,13409,0.0
189,-17615,13342,0.0
218,-17922,13272,0.0
249,-18235,13202,0.0
281,-18553,13130,0.0
314,-18881,13060,0.0
348,-19198,12975,0.0
383,-19539,12901,0.0
419,-19882,12823,0.0
455,-20216,12733,0.0
494,-20593,12663,0.0
533,-20944,12570,0.0
573,-21319,12485,0.0
615,-21691,12392,0.0
4,-153,85,0.0
4,-155,84,0.0
5,-172,91,0.0
6,-181,93,0.0
6,-187,93,0.0
7,-190,92,0.0
8,-217,103,0.0
8,-220,101,0.0
8,-223,99,0.0
9,-235,102,0.0
10,-252,106,0.0
11,-254,104,0.0
12,-277,110,0.0
14,-288,111,0.0
16,-329,122,0.0
17,-330,119,0.0
17,-342,119,0.0
18,-348,117,0.0
18,-342,111,0.0
19,-344,108,0.0
1628,12319,12137,0.0
1607,12194,12271,0.0
1675,12742,13098,0.0
1594,12163,12773,0.0
1574,12040,12916,0.0
1554,11917,13060,0.0
1555,11952,13384,0.0
1545,11896,13612,0.0
1529,11797,13793,0.0
1520,11753,14042,0.0
1503,11646,14223,0.0
1489,11556,14424,0.0
1484,11528,14709,0.0
1474,11463,14955,0.0
1462,11381,15183,0.0
1455,11334,15463,0.0
1444,11255,15705,0.0
1436,11199,15986,0.0
1431,11148,16283,0.0
1422,11080,16563,0.0
1413,11010,16847,0.0
1407,10950,17154,0.0
1407,10934,17541,0.0
1408,10918,17943,0.0
1405,10877,18317,0.0
1788,13812,23840,0.0
1745,13448,23797,0.0
1704,13087,23753,0.0
1659,12694,23638,0.0
1607,12248,23408,0.0
1753,13305,26109,0.0
1709,12911,26024,0.0
1670,12547,25990,0.0
1637,12225,26038,0.0
1594,11826,25907,0.0
1539,11336,25560,0.0
1513,11053,25665,0.0
1552,11236,26886,0.0
1595,11440,28223,0.0
1604,11390,28993,0.0
1608,11289,29675,0.0
1572,10914,29646,0.0
1556,10657,29940,0.0
960,6490,18877,0.0
941,6262,18872,0.0
917,6005,18773,0.0
897,5767,18722,0.0
876,5527,18661,0.0
859,5308,18654,0.0
839,5073,18592,0.0
820,4838,18510,0.0
804,4624,18504,0.0
786,4395,18435,0.0
769,4171,18370,0.0
753,3953,18326,0.0
737,3735,18269,0.0
723,3522,18227,0.0
710,3316,18210,0.0
695,3102,18146,0.0
682,2894,18103,0.0
670,2690,18074,0.0
657,2480,17995,0.0
644,2276,17949,0.0
634,2076,17914,0.0
623,1877,17873,0.0
612,1675,17807,0.0
602,1479,17773,0.0
593,1283,17724,0.0
584,1088,17681,0.0
575,895,17642,0.0
566,702,17585,0.0
558,510,17528,0.0
550,321,17476,0.0
544,131,17457,0.0
537,-55,17417,0.0
530,-242,17347,0.0
524,-428,17281,0.0
520,-613,17252,0.0
514,-797,17203,0.0
525,-1011,17680,0.0
535,-1234,18150,0.0
544,-1461,18529,0.0
579,-1777,19811,0.0
1040,-3590,35699,1.0
1028,-3944,35386,1.0
1024,-4325,35339,1.0
1019,-4696,35218,1.0
1016,-5071,35135,1.0
1015,-5454,35103,1.0
1019,-5861,35214,1.0
1016,-6221,35042,1.0
1007,-6537,34650,1.0
1005,-6896,34506,1.0
1000,-7219,34202,1.0
1009,-7640,34354,1.0
1007,-7975,34123,1.0
1018,-8400,34271,1.0
1027,-8811,34345,1.0
1033,-9196,34304,1.0
1035,-9537,34103,1.0
1046,-9953,34166,1.0
0,0,0,0.0
1052,-10609,33696,1.0
1058,-10948,33509,1.0
1067,-11316,33409,1.0
0,0,0,0.0
1097,-12168,33527,1.0
0,0,0,0.0
1114,-12827,33103,1.0
1131,-13251,33132,1.0
1146,-13638,33062,1.0
0,0,0,0.0
1174,-14370,32812,1.0
1189,-14722,32655,1.0
0,0,0,0.0
1219,-15428,32340,1.0
1250,-15964,32557,1.0
1269,-16332,32418,1.0
1287,-16691,32260,1.0
1312,-17118,32231,1.0
0,0,0,0.0
1371,-18075,32330,1.0
1396,-18485,32245,1.0
0,0,0,0.0
1462,-19496,32369,1.0
1492,-19929,32295,1.0
0,0,0,0.0
1552,-20784,32111,1.0
1589,-21287,32124,1.0
1615,-21633,31895,1.0
1638,-21925,31588,1.0
1687,-22553,31756,1.0
1720,-22960,31601,1.0
1767,-23552,31693,1.0
0,0,0,0.0
1829,-24249,31202,1.0
0,0,0,0.0
0,0,0,0.0
1967,-25823,31098,1.0
1997,-26101,30752,1.0
2024,-26335,30359,1.0
2053,-26595,29999,1.0
2080,-26814,29596,1.0
2111,-27064,29233,1.0
2142,-27312,28870,1.0
2172,-27532,28481,1.0
1316,-16599,16805,0.0
1322,-16564,16411,0.0
1324,-16487,15987,0.0
1325,-16405,15568,0.0
1327,-16314,15150,0.0
1328,-16217,14738,0.0
1349,-16353,14543,0.0
1346,-16197,14095,0.0
1355,-16200,13793,0.0
1375,-16313,13589,0.0
1408,-16576,13509,0.0
1445,-16884,13460,0.0
1478,-17133,13359,0.0
1517,-17451,13306,0.0
1554,-17741,13229,0.0
1595,-18058,13165,0.0
1635,-18366,13089,0.0
1676,-18679,13012,0.0
1723,-19032,12955,0.0
1768,-19363,12878,0.0
1811,-19681,12786,0.0
1860,-20040,12715,0.0
1910,-20408,12643,0.0
1958,-20740,12542,0.0
2010,-21100,12452,0.0
2063,-21475,12364,0.0
2119,-21869,12279,0.0
15,-159,86,0.0
16,-163,87,0.0
17,-175,90,0.0
17,-183,92,0.0
20,-207,101,0.0
21,-211,100,0.0
22,-221,102,0.0
23,-233,105,0.0
25,-248,109,0.0
26,-246,104,0.0
28,-267,110,0.0
29,-277,111,0.0
30,-291,113,0.0
36,-335,126,0.0
38,-351,128,0.0
38,-352,123,0.0
39,-352,119,0.0
38,-339,111,0.0
39,-351,111,0.0
-3710,14889,13580,0.0
-3787,14843,13832,0.0
-3863,14787,14079,0.0
-3942,14742,14341,0.0
-4022,14691,14601,0.0
-4101,14632,14859,0.0
-4180,14564,15113,0.0
-4265,14513,15389,0.0
-4345,14440,15648,0.0
-4405,14297,15832,0.0
-4488,14227,16103,0.0
-4535,14036,16238,0.0
-4493,13580,16060,0.0
-4574,13498,16320,0.0
-4698,13534,16731,0.0
-4976,13988,17684,0.0
-5072,13916,17994,0.0
-5173,13851,18319,0.0
-5269,13764,18624,0.0
-5319,13553,18765,0.0
-5402,13425,19025,0.0
-5335,12929,18757,0.0
-5394,12744,18930,0.0
-5761,13267,20183,0.0
-8618,19336,30132,0.0
-6818,14905,23800,0.0
-6950,14794,24215,0.0
-6952,14410,24184,0.0
-6976,14072,24222,0.0
-6962,13662,24128,0.0
-6952,13269,24052,0.0
-6939,12876,23963,0.0
-6907,12456,23813,0.0
-6899,12084,23741,0.0
-6880,11700,23636,0.0
-9607,15856,32948,0.0
-9596,15361,32853,0.0
-9580,14865,32740,0.0
-9586,14409,32703,0.0
-9583,13946,32634,0.0
-9571,13476,32539,0.0
-8801,11980,29870,0.0
-8938,11752,30279,0.0
-8816,11187,29813,0.0
-8970,10977,30282,0.0
-9227,10877,31092,0.0
-9343,10599,31425,0.0
-9468,10325,31792,0.0
-6336,6633,21238,0.0
-6407,6432,21438,0.0
-6546,6292,21865,0.0
-6598,6062,21996,0.0
-6612,5799,22005,0.0
-6416,5359,21313,0.0
-6577,5222,21809,0.0
-6582,4956,21782,0.0
-6551,4667,21641,0.0
-6556,4406,21619,0.0
-6548,4139,21550,0.0
-6538,3874,21481,0.0
-6529,3611,21412,0.0
-6519,3350,21337,0.0
-6510,3092,21266,0.0
-6513,2842,21237,0.0
-6501,2587,21154,0.0
-6485,2333,21062,0.0
-6484,2086,21023,0.0
-6107,1735,19760,0.0
-6109,1506,19727,0.0
-6100,1275,19660,0.0
-6167,1060,19837,0.0
-6345,856,20369,0.0
-6152,604,19709,0.0
-6211,381,19859,0.0
-6410,159,20450,0.0
-6413,-72,20420,0.0
-6403,-304,20346,0.0
-6404,-536,20309,0.0
-6398,-766,20246,0.0
-6386,-994,20164,0.0
-6391,-1223,20140,0.0
-6380,-1448,20061,0.0
-6373,-1673,19993,0.0
-6367,-1898,19932,0.0
-6359,-2121,19864,0.0
-6364,-2348,19834,0.0
-6352,-2567,19750,0.0
-6342,-2787,19677,0.0
-6339,-3009,19623,0.0
-6328,-3226,19543,0.0
-6329,-3449,19502,0.0
-6320,-3665,19426,0.0
-6320,-3887,19382,0.0
-6311,-4102,19307,0.0
-6307,-4320,19249,0.0
-6302,-4538,19188,0.0
-6296,-4754,19121,0.0
-6291,-4971,19059,0.0
-6296,-5194,19025,0.0
-6289,-5410,18956,0.0
-6285,-5626,18895,0.0
-6282,-5845,18837,0.0
-6276,-6060,18770,0.0
-6268,-6274,18698,0.0
-6264,-6489,18632,0.0
-6260,-6706,18569,0.0
-6254,-6923,18503,0.0
-6252,-7142,18442,0.0
-6259,-7372,18412,0.0
-6251,-7586,18335,0.0
-6067,-7580,17745,0.0
-6060,-7789,17673,0.0
-6061,-8008,17623,0.0
-6095,-8273,17669,0.0
-6257,-8721,18085,0.0
-6263,-8955,18044,0.0
-6260,-9181,17980,0.0
-6262,-9413,17926,0.0
-6268,-9652,17885,0.0
-6271,-9889,17836,0.0
-6264,-10112,17759,0.0
-6269,-10354,17713,0.0
-6269,-10589,17652,0.0
-6264,-10816,17574,0.0
-6275,-11074,17545,0.0
-6282,-11326,17502,0.0
-6288,-11579,17454,0.0
-6289,-11825,17394,0.0
-6293,-12076,17337,0.0
-5810,-11375,15944,0.0
-5643,-11273,15429,0.0
-5631,-11472,15334,0.0
-6326,-13140,17155,0.0
-6335,-13414,17110,0.0
-5538,-11953,14897,0.0
-6347,-13957,16999,0.0
-6356,-14240,16951,0.0
-6360,-14515,16887,0.0
-6366,-14796,16827,0.0
-6372,-15078,16763,0.0
-6382,-15377,16713,0.0
-6393,-15680,16664,0.0
-6396,-15966,16590,0.0
-6408,-16275,16536,0.0
-6420,-16593,16485,0.0
-6429,-16907,16424,0.0
-6450,-17253,16390,0.0
-6451,-17552,16303,0.0
-6461,-17878,16238,0.0
-6466,-18197,16160,0.0
-6482,-18551,16108,0.0
-6498,-18909,16052,0.0
-6506,-19252,15977,0.0
-6526,-19631,15926,0.0
-6529,-19970,15835,0.0
-6541,-20336,15761,0.0
-6551,-20702,15680,0.0
-6573,-21114,15627,0.0
-6592,-21522,15562,0.0
-6597,-21893,15464,0.0
-6605,-22278,15369,0.0
-6621,-22696,15290,0.0
-6649,-23166,15237,0.0
-6660,-23581,15141,0.0
-6672,-24008,15044,0.0
-6686,-24450,14949,0.0
-6628,-24633,14691,0.0
-6624,-25019,14551,0.0
-6470,-24837,14083,0.0
-6549,-25556,14122,0.0
-6522,-25863,13925,0.0
-527,-2125,1114,0.0
-524,-2149,1097,0.0
-43,-183,91,0.0
-43,-188,91,0.0
-49,-213,100,0.0
-50,-221,101,0.0
-52,-232,103,0.0
-53,-242,104,0.0
-58,-271,113,0.0
-59,-281,114,0.0
-66,-317,124,0.0
-66,-326,123,0.0
-68,-340,124,0.0
-69,-348,123,0.0
-67,-345,118,0.0
-64,-339,112,0.0
-64,-343,110,0.0
-63,-346,106,0.0
-63,-351,104,0.0
-61,-345,97,0.0
-61,-348,95,0.0
123,-326,65,0.0
122,-320,68,0.0
118,-303,67,0.0
119,-301,71,0.0
121,-302,74,0.0
118,-292,75,0.0
115,-282,76,0.0
111,-267,75,0.0
114,-270,79,0.0
110,-260,79,0.0
111,-257,81,0.0
111,-256,84,0.0
112,-253,86,0.0
114,-254,90,0.0
116,-256,94,0.0
118,-257,98,0.0
119,-254,99,0.0
122,-258,105,0.0
121,-252,105,0.0
125,-255,110,0.0
122,-247,109,0.0
121,-242,111,0.0
126,-247,117,0.0
125,-243,118,0.0
127,-242,121,0.0
129,-245,126,0.0
131,-243,129,0.0
145,-267,145,0.0
155,-281,157,0.0
152,-272,156,0.0
146,-257,151,0.0
143,-250,151,0.0
127,-219,136,0.0
129,-219,139,0.0
118,-197,129,0.0
116,-192,128,0.0
118,-192,132,0.0
11482,-18243,12873,0.0
11417,-17873,12930,0.0
11395,-17573,13032,0.0
11333,-17216,13086,0.0
11284,-16883,13151,0.0
11270,-16606,13256,0.0
11218,-16275,13311,0.0
11310,-16155,13537,0.0
11470,-16125,13844,0.0
11805,-16335,14367,0.0
11901,-16205,14602,0.0
12183,-16320,15065,0.0
12412,-16356,15467,0.0
12454,-16140,15636,0.0
12443,-15857,15738,0.0
12487,-15644,15907,0.0
12488,-15377,16021,0.0
12495,-15118,16139,0.0
12483,-14838,16231,0.0
12487,-14579,16344,0.0
12507,-14339,16476,0.0
12494,-14063,16563,0.0
12496,-13803,16668,0.0
12496,-13542,16768,0.0
12534,-13323,16918,0.0
12516,-13046,16993,0.0
12524,-12795,17099,0.0
12527,-12542,17198,0.0
12529,-12287,17295,0.0
12531,-12032,17388,0.0
12542,-11787,17495,0.0
12540,-11531,17582,0.0
12541,-11278,17671,0.0
12530,-11014,17743,0.0
12537,-10767,17836,0.0
12544,-10522,17932,0.0
12554,-10278,18029,0.0
12551,-10023,18106,0.0
12550,-9772,18185,0.0
12557,-9526,18274,0.0
12562,-9280,18360,0.0
12543,-9016,18407,0.0
12562,-8780,18511,0.0
12559,-8528,18581,0.0
12555,-8276,18648,0.0
12567,-8035,18737,0.0
12564,-7783,18804,0.0
12545,-7524,18845,0.0
12559,-7284,18935,0.0
12543,-7026,18977,0.0
12542,-6778,19043,0.0
12529,-6523,19088,0.0
12552,-6287,19188,0.0
12538,-6032,19228,0.0
12537,-5784,19287,0.0
18024,-7960,27819,0.0
17892,-7547,27699,0.0
17955,-7219,27881,0.0
12520,-4786,19500,0.0
17009,-6165,26567,0.0
12535,-4296,19635,0.0
12568,-4057,19741,0.0
12577,-3810,19810,0.0
12609,-3568,19912,0.0
12601,-3316,19953,0.0
12620,-3069,20033,0.0
