//X,Y,Z,Classification
14.0,55.0,95.0,0.0
13.0,58.0,97.0,0.0
13.0,57.0,92.0,0.0
13.0,58.0,91.0,0.0
13.0,58.0,91.0,0.0
13.0,61.0,92.0,0.0
13.0,65.0,96.0,0.0
13.0,68.0,98.0,0.0
14.0,75.0,106.0,0.0
12.0,69.0,95.0,0.0
14.0,79.0,107.0,0.0
13.0,77.0,100.0,0.0
13.0,79.0,100.0,0.0
13.0,81.0,102.0,0.0
13.0,85.0,105.0,0.0
12.0,86.0,103.0,0.0
13.0,90.0,105.0,0.0
12.0,89.0,103.0,0.0
12.0,87.0,98.0,0.0
13.0,97.0,106.0,0.0
13.0,105.0,112.0,0.0
12.0,102.0,107.0,0.0
13.0,105.0,108.0,0.0
12.0,111.0,112.0,0.0
13.0,118.0,116.0,0.0
12.0,114.0,111.0,0.0
12.0,122.0,114.0,0.0
18.0,-286.0,87.0,0.0
18.0,-286.0,89.0,0.0
18.0,-287.0,93.0,0.0
20.0,-290.0,98.0,0.0
20.0,-283.0,99.0,0.0
21.0,-290.0,105.0,0.0
22.0,-286.0,107.0,0.0
22.0,-287.0,111.0,0.0
23.0,-288.0,116.0,0.0
23.0,-282.0,116.0,0.0
25.0,-288.0,122.0,0.0
25.0,-284.0,125.0,0.0
26.0,-282.0,126.0,0.0
26.0,-277.0,128.0,0.0
27.0,-283.0,135.0,0.0
28.0,-278.0,136.0,0.0
29.0,-283.0,142.0,0.0
29.0,-277.0,143.0,0.0
29.0,-266.0,141.0,0.0
32.0,-286.0,155.0,0.0
33.0,-286.0,159.0,0.0
33.0,-286.0,165.0,0.0
33.0,-278.0,163.0,0.0
31.0,-253.0,152.0,0.0
29.0,-236.0,146.0,0.0
29.0,-227.0,143.0,0.0
30.0,-227.0,147.0,0.0
28.0,-211.0,140.0,0.0
28.0,-207.0,140.0,0.0
27.0,-191.0,132.0,0.0
27.0,-192.0,136.0,0.0
25.0,-167.0,121.0,0.0
26.0,-176.0,131.0,0.0
26.0,-168.0,128.0,0.0
24.0,-153.0,119.0,0.0
25.0,-150.0,119.0,0.0
23.0,-142.0,115.0,0.0
21.0,-129.0,108.0,0.0
23.0,-135.0,115.0,0.0
22.0,-128.0,111.0,0.0
22.0,-121.0,108.0,0.0
21.0,-114.0,103.0,0.0
20.0,-107.0,100.0,0.0
19.0,-98.0,93.0,0.0
18.0,-90.0,87.0,0.0
18.0,-90.0,89.0,0.0
17.0,-80.0,82.0,0.0
331.0,-1608.0,1667.0,0.0
345.0,-1639.0,1737.0,0.0
345.0,-1601.0,1735.0,0.0
5405.0,-24609.0,27266.0,1.0
346.0,-1545.0,1750.0,0.0
352.0,-1535.0,1779.0,0.0
5589.0,-23901.0,28299.0,1.0
354.0,-1484.0,1798.0,0.0
5736.0,-23519.0,29121.0,1.0
358.0,-1435.0,1818.0,0.0
355.0,-1396.0,1809.0,0.0
356.0,-1369.0,1815.0,0.0
369.0,-1389.0,1884.0,0.0
358.0,-1321.0,1834.0,0.0
6091.0,-21959.0,31190.0,1.0
3735.0,-13170.0,19151.0,0.0
3788.0,-13069.0,19459.0,0.0
3782.0,-12760.0,19458.0,0.0
3794.0,-12512.0,19545.0,0.0
3789.0,-12216.0,19555.0,0.0
3753.0,-11825.0,19401.0,0.0
3785.0,-11650.0,19596.0,0.0
3821.0,-11487.0,19817.0,0.0
3807.0,-11177.0,19782.0,0.0
3818.0,-10938.0,19868.0,0.0
3818.0,-10675.0,19905.0,0.0
3755.0,-10241.0,19612.0,0.0
3807.0,-10123.0,19919.0,0.0
4091.0,-10601.0,21442.0,0.0
4080.0,-10303.0,21431.0,0.0
4281.0,-10524.0,22526.0,0.0
387.0,-927.0,2044.0,0.0
0.0,0.0,0.0,0.0
394.0,-891.0,2086.0,0.0
402.0,-883.0,2132.0,0.0
6789.0,-14488.0,36079.0,1.0
6851.0,-14184.0,36485.0,1.0
0.0,0.0,0.0,0.0
6952.0,-13515.0,37174.0,1.0
6987.0,-13145.0,37445.0,1.0
395.0,-719.0,2125.0,0.0
0.0,0.0,0.0,0.0
7119.0,-12067.0,38404.0,1.0
401.0,-654.0,2168.0,0.0
7118.0,-11188.0,38569.0,1.0
7113.0,-10746.0,38640.0,1.0
401.0,-579.0,2180.0,0.0
7038.0,-9773.0,38412.0,1.0
394.0,-523.0,2157.0,0.0
6871.0,-8703.0,37681.0,1.0
395.0,-478.0,2174.0,0.0
6786.0,-7772.0,37403.0,1.0
395.0,-428.0,2180.0,0.0
399.0,-409.0,2212.0,0.0
392.0,-377.0,2175.0,0.0
6762.0,-6102.0,37661.0,1.0
6709.0,-5646.0,37470.0,1.0
396.0,-309.0,2217.0,0.0
6599.0,-4748.0,37056.0,1.0
400.0,-264.0,2254.0,0.0
400.0,-239.0,2258.0,0.0
396.0,-212.0,2242.0,0.0
3657.0,-1733.0,20773.0,0.0
3391.0,-1396.0,19317.0,0.0
3366.0,-1177.0,19237.0,0.0
3665.0,-1052.0,21013.0,0.0
3666.0,-822.0,21078.0,0.0
5.0,-1.0,27.0,0.0
8.0,-1.0,42.0,0.0
10.0,0.0,57.0,0.0
6.0,0.0,35.0,0.0
5.0,0.0,30.0,0.0
9.0,1.0,53.0,0.0
11.0,2.0,69.0,0.0
9.0,2.0,50.0,0.0
13.0,4.0,80.0,0.0
11.0,4.0,64.0,0.0
13.0,5.0,75.0,0.0
13.0,7.0,80.0,0.0
15.0,8.0,86.0,0.0
14.0,9.0,85.0,0.0
17.0,11.0,98.0,0.0
16.0,13.0,97.0,0.0
16.0,14.0,98.0,0.0
18.0,17.0,113.0,0.0
15.0,16.0,95.0,0.0
17.0,19.0,107.0,0.0
17.0,20.0,106.0,0.0
17.0,21.0,106.0,0.0
16.0,22.0,104.0,0.0
20.0,28.0,122.0,0.0
19.0,28.0,119.0,0.0
19.0,31.0,123.0,0.0
19.0,31.0,120.0,0.0
19.0,33.0,120.0,0.0
19.0,35.0,125.0,0.0
19.0,35.0,120.0,0.0
19.0,39.0,127.0,0.0
20.0,42.0,128.0,0.0
20.0,43.0,129.0,0.0
19.0,43.0,126.0,0.0
20.0,47.0,131.0,0.0
20.0,50.0,137.0,0.0
19.0,49.0,127.0,0.0
17.0,46.0,117.0,0.0
17.0,49.0,121.0,0.0
16.0,47.0,113.0,0.0
16.0,47.0,107.0,0.0
17.0,55.0,123.0,0.0
17.0,56.0,122.0,0.0
17.0,55.0,117.0,0.0
16.0,54.0,112.0,0.0
15.0,54.0,107.0,0.0
13.0,50.0,97.0,0.0
13.0,53.0,100.0,0.0
14.0,56.0,103.0,0.0
15.0,63.0,112.0,0.0
14.0,60.0,105.0,0.0
13.0,60.0,101.0,0.0
14.0,62.0,104.0,0.0
13.0,61.0,98.0,0.0
13.0,67.0,106.0,0.0
14.0,68.0,104.0,0.0
14.0,74.0,112.0,0.0
13.0,71.0,105.0,0.0
13.0,71.0,103.0,0.0
14.0,78.0,111.0,0.0
13.0,82.0,114.0,0.0
14.0,86.0,117.0,0.0
13.0,84.0,110.0,0.0
13.0,88.0,113.0,0.0
13.0,92.0,115.0,0.0
13.0,92.0,113.0,0.0
12.0,93.0,111.0,0.0
13.0,97.0,114.0,0.0
13.0,101.0,116.0,0.0
13.0,108.0,122.0,0.0
13.0,105.0,116.0,0.0
12.0,109.0,118.0,0.0
12.0,109.0,115.0,0.0
12.0,115.0,118.0,0.0
12.0,123.0,124.0,0.0
12.0,123.0,122.0,0.0
12.0,129.0,126.0,0.0
12.0,133.0,127.0,0.0
15.0,-291.0,89.0,0.0
15.0,-281.0,89.0,0.0
15.0,-279.0,91.0,0.0
17.0,-285.0,97.0,0.0
18.0,-282.0,100.0,0.0
18.0,-282.0,103.0,0.0
18.0,-281.0,106.0,0.0
19.0,-282.0,110.0,0.0
21.0,-285.0,114.0,0.0
20.0,-278.0,115.0,0.0
21.0,-275.0,117.0,0.0
21.0,-272.0,119.0,0.0
22.0,-276.0,124.0,0.0
23.0,-272.0,127.0,0.0
24.0,-279.0,132.0,0.0
25.0,-275.0,135.0,0.0
24.0,-269.0,136.0,0.0
26.0,-276.0,143.0,0.0
26.0,-272.0,145.0,0.0
27.0,-279.0,153.0,0.0
30.0,-286.0,160.0,0.0
29.0,-279.0,160.0,0.0
30.0,-270.0,159.0,0.0
28.0,-247.0,149.0,0.0
27.0,-234.0,145.0,0.0
27.0,-229.0,145.0,0.0
26.0,-219.0,142.0,0.0
25.0,-204.0,135.0,0.0
25.0,-203.0,138.0,0.0
24.0,-192.0,134.0,0.0
25.0,-187.0,132.0,0.0
25.0,-183.0,133.0,0.0
24.0,-175.0,130.0,0.0
22.0,-157.0,121.0,0.0
22.0,-155.0,121.0,0.0
22.0,-150.0,119.0,0.0
21.0,-138.0,112.0,0.0
21.0,-140.0,117.0,0.0
19.0,-118.0,101.0,0.0
22.0,-138.0,121.0,0.0
19.0,-111.0,99.0,0.0
17.0,-100.0,91.0,0.0
18.0,-104.0,97.0,0.0
17.0,-96.0,91.0,0.0
17.0,-99.0,96.0,0.0
15.0,-82.0,82.0,0.0
15.0,-82.0,83.0,0.0
310.0,-1618.0,1683.0,0.0
314.0,-1608.0,1709.0,0.0
310.0,-1551.0,1685.0,0.0
5016.0,-24584.0,27294.0,1.0
320.0,-1535.0,1743.0,0.0
5137.0,-24124.0,27991.0,1.0
325.0,-1493.0,1772.0,0.0
323.0,-1455.0,1765.0,0.0
335.0,-1477.0,1833.0,0.0
332.0,-1432.0,1816.0,0.0
329.0,-1387.0,1801.0,0.0
5532.0,-22830.0,30311.0,1.0
342.0,-1377.0,1871.0,0.0
339.0,-1338.0,1862.0,0.0
337.0,-1301.0,1852.0,0.0
3552.0,-13421.0,19549.0,0.0
3547.0,-13105.0,19546.0,0.0
3553.0,-12833.0,19601.0,0.0
3539.0,-12498.0,19555.0,0.0
3539.0,-12211.0,19577.0,0.0
3544.0,-11948.0,19633.0,0.0
3535.0,-11642.0,19613.0,0.0
3549.0,-11412.0,19716.0,0.0
3547.0,-11133.0,19731.0,0.0
3554.0,-10887.0,19802.0,0.0
3556.0,-10627.0,19843.0,0.0
3563.0,-10385.0,19914.0,0.0
3571.0,-10148.0,19995.0,0.0
3644.0,-10089.0,20434.0,0.0
3849.0,-10381.0,21621.0,0.0
4014.0,-10541.0,22588.0,0.0
360.0,-918.0,2027.0,0.0
0.0,0.0,0.0,0.0
0.0,0.0,0.0,0.0
353.0,-827.0,1999.0,0.0
6368.0,-14505.0,36161.0,1.0
361.0,-798.0,2056.0,0.0
369.0,-789.0,2102.0,0.0
368.0,-761.0,2097.0,0.0
0.0,0.0,0.0,0.0
0.0,0.0,0.0,0.0
383.0,-718.0,2204.0,0.0
376.0,-680.0,2168.0,0.0
374.0,-652.0,2162.0,0.0
0.0,0.0,0.0,0.0
373.0,-600.0,2162.0,0.0
373.0,-577.0,2168.0,0.0
378.0,-560.0,2202.0,0.0
370.0,-523.0,2159.0,0.0
372.0,-501.0,2175.0,0.0
377.0,-485.0,2213.0,0.0
376.0,-461.0,2213.0,0.0
375.0,-434.0,2211.0,0.0
380.0,-415.0,2245.0,0.0
370.0,-380.0,2191.0,0.0
377.0,-363.0,2240.0,0.0
374.0,-337.0,2232.0,0.0
6289.0,-5249.0,37605.0,1.0
374.0,-288.0,2242.0,0.0
375.0,-264.0,2252.0,0.0
373.0,-238.0,2245.0,0.0
364.0,-208.0,2198.0,0.0
3426.0,-1740.0,20787.0,0.0
3180.0,-1405.0,19353.0,0.0
3154.0,-1185.0,19260.0,0.0
5.0,-2.0,32.0,0.0
3429.0,-831.0,21070.0,0.0
7.0,-1.0,44.0,0.0
8.0,-1.0,46.0,0.0
6.0,0.0,36.0,0.0
8.0,0.0,46.0,0.0
8.0,0.0,52.0,0.0
6.0,1.0,40.0,0.0
8.0,0.0,46.0,0.0
9.0,2.0,61.0,0.0
8.0,2.0,49.0,0.0
8.0,2.0,47.0,0.0
11.0,5.0,71.0,0.0
12.0,6.0,75.0,0.0
15.0,10.0,100.0,0.0
14.0,9.0,89.0,0.0
12.0,9.0,78.0,0.0
12.0,10.0,76.0,0.0
12.0,10.0,76.0,0.0
14.0,14.0,88.0,0.0
14.0,15.0,92.0,0.0
10.0,11.0,66.0,0.0
17.0,20.0,109.0,0.0
14.0,18.0,95.0,0.0
15.0,22.0,104.0,0.0
16.0,24.0,106.0,0.0
14.0,22.0,96.0,0.0
16.0,28.0,113.0,0.0
17.0,31.0,121.0,0.0
16.0,30.0,109.0,0.0
16.0,31.0,111.0,0.0
17.0,36.0,122.0,0.0
17.0,38.0,123.0,0.0
17.0,39.0,122.0,0.0
17.0,43.0,128.0,0.0
19.0,47.0,136.0,0.0
18.0,46.0,130.0,0.0
16.0,44.0,120.0,0.0
17.0,47.0,124.0,0.0
16.0,46.0,115.0,0.0
16.0,48.0,118.0,0.0
15.0,46.0,112.0,0.0
16.0,52.0,121.0,0.0
15.0,50.0,111.0,0.0
14.0,49.0,108.0,0.0
14.0,50.0,108.0,0.0
14.0,53.0,109.0,0.0
14.0,53.0,105.0,0.0
14.0,53.0,104.0,0.0
12.0,52.0,98.0,0.0
13.0,56.0,103.0,0.0
12.0,56.0,101.0,0.0
11.0,55.0,96.0,0.0
12.0,58.0,100.0,0.0
12.0,56.0,93.0,0.0
12.0,62.0,100.0,0.0
12.0,66.0,105.0,0.0
11.0,66.0,102.0,0.0
11.0,64.0,97.0,0.0
11.0,68.0,99.0,0.0
12.0,73.0,106.0,0.0
12.0,73.0,105.0,0.0
11.0,75.0,103.0,0.0
11.0,82.0,110.0,0.0
11.0,82.0,108.0,0.0
11.0,84.0,108.0,0.0
11.0,88.0,110.0,0.0
11.0,87.0,108.0,0.0
10.0,85.0,103.0,0.0
11.0,96.0,113.0,0.0
11.0,96.0,110.0,0.0
10.0,97.0,109.0,0.0
11.0,101.0,111.0,0.0
10.0,108.0,116.0,0.0
10.0,105.0,111.0,0.0
11.0,114.0,118.0,0.0
9.0,111.0,113.0,0.0
10.0,120.0,120.0,0.0
9.0,112.0,110.0,0.0
9.0,120.0,114.0,0.0
13.0,-291.0,90.0,0.0
13.0,-287.0,91.0,0.0
13.0,-286.0,94.0,0.0
14.0,-286.0,97.0,0.0
15.0,-284.0,100.0,0.0
15.0,-287.0,105.0,0.0
16.0,-288.0,109.0,0.0
17.0,-286.0,112.0,0.0
17.0,-282.0,114.0,0.0
18.0,-281.0,117.0,0.0
19.0,-279.0,119.0,0.0
20.0,-287.0,126.0,0.0
20.0,-282.0,128.0,0.0
20.0,-280.0,130.0,0.0
21.0,-276.0,132.0,0.0
22.0,-280.0,138.0,0.0
23.0,-276.0,140.0,0.0
23.0,-270.0,140.0,0.0
24.0,-281.0,150.0,0.0
26.0,-291.0,159.0,0.0
27.0,-298.0,168.0,0.0
26.0,-282.0,163.0,0.0
26.0,-274.0,162.0,0.0
25.0,-250.0,151.0,0.0
25.0,-239.0,148.0,0.0
23.0,-220.0,140.0,0.0
25.0,-226.0,147.0,0.0
24.0,-220.0,146.0,0.0
23.0,-208.0,142.0,0.0
24.0,-202.0,141.0,0.0
23.0,-193.0,138.0,0.0
21.0,-174.0,128.0,0.0
22.0,-176.0,132.0,0.0
22.0,-168.0,129.0,0.0
21.0,-162.0,126.0,0.0
20.0,-148.0,118.0,0.0
19.0,-133.0,109.0,0.0
19.0,-133.0,110.0,0.0
17.0,-121.0,103.0,0.0
17.0,-117.0,102.0,0.0
19.0,-121.0,107.0,0.0
18.0,-113.0,103.0,0.0
16.0,-96.0,90.0,0.0
14.0,-90.0,87.0,0.0
13.0,-82.0,80.0,0.0
15.0,-85.0,86.0,0.0
13.0,-71.0,72.0,0.0
281.0,-1590.0,1656.0,0.0
292.0,-1615.0,1719.0,0.0
297.0,-1611.0,1753.0,0.0
293.0,-1555.0,1731.0,0.0
295.0,-1531.0,1740.0,0.0
4764.0,-24198.0,28132.0,1.0
4839.0,-24047.0,28583.0,1.0
0.0,0.0,0.0,0.0
310.0,-1471.0,1829.0,0.0
4978.0,-23161.0,29439.0,1.0
5041.0,-22940.0,29825.0,1.0
5111.0,-22749.0,30255.0,1.0
5136.0,-22353.0,30418.0,1.0
317.0,-1349.0,1879.0,0.0
0.0,0.0,0.0,0.0
3170.0,-12902.0,18823.0,0.0
3179.0,-12646.0,18890.0,0.0
3181.0,-12362.0,18912.0,0.0
3183.0,-12091.0,18948.0,0.0
3189.0,-11833.0,19000.0,0.0
3218.0,-11664.0,19195.0,0.0
329.0,-1164.0,1965.0,0.0
0.0,0.0,0.0,0.0
340.0,-1146.0,2035.0,0.0
5670.0,-18655.0,33977.0,1.0
3220.0,-10332.0,19319.0,0.0
3217.0,-10066.0,19329.0,0.0
3226.0,-9839.0,19411.0,0.0
3249.0,-9653.0,19573.0,0.0
3413.0,-9876.0,20594.0,0.0
3558.0,-10022.0,21502.0,0.0
350.0,-957.0,2115.0,0.0
347.0,-924.0,2104.0,0.0
347.0,-899.0,2110.0,0.0
352.0,-885.0,2143.0,0.0
425.0,-1038.0,2592.0,0.0
6040.0,-14307.0,36871.0,1.0
347.0,-796.0,2124.0,0.0
352.0,-783.0,2160.0,0.0
0.0,0.0,0.0,0.0
353.0,-733.0,2170.0,0.0
346.0,-695.0,2136.0,0.0
343.0,-664.0,2120.0,0.0
0.0,0.0,0.0,0.0
358.0,-643.0,2221.0,0.0
352.0,-606.0,2185.0,0.0
0.0,0.0,0.0,0.0
6145.0,-9760.0,38383.0,1.0
348.0,-527.0,2177.0,0.0
6100.0,-8842.0,38288.0,1.0
6093.0,-8411.0,38339.0,1.0
6062.0,-7948.0,38237.0,1.0
343.0,-427.0,2173.0,0.0
5965.0,-6996.0,37823.0,1.0
351.0,-388.0,2230.0,0.0
350.0,-362.0,2229.0,0.0
353.0,-341.0,2257.0,0.0
357.0,-320.0,2285.0,0.0
341.0,-282.0,2194.0,0.0
5799.0,-4389.0,37398.0,1.0
348.0,-239.0,2254.0,0.0
346.0,-213.0,2249.0,0.0
3202.0,-1751.0,20839.0,0.0
2964.0,-1411.0,19356.0,0.0
2933.0,-1188.0,19219.0,0.0
2930.0,-978.0,19259.0,0.0
3194.0,-838.0,21065.0,0.0
6.0,-1.0,40.0,0.0
9.0,-1.0,60.0,0.0
9.0,0.0,59.0,0.0
6.0,0.0,39.0,0.0
8.0,0.0,55.0,0.0
7.0,0.0,42.0,0.0
9.0,1.0,65.0,0.0
9.0,2.0,60.0,0.0
9.0,3.0,65.0,0.0
10.0,4.0,69.0,0.0
10.0,5.0,68.0,0.0
12.0,7.0,78.0,0.0
11.0,8.0,82.0,0.0
12.0,9.0,84.0,0.0
13.0,10.0,91.0,0.0
12.0,10.0,84.0,0.0
13.0,13.0,89.0,0.0
13.0,15.0,94.0,0.0
15.0,17.0,104.0,0.0
15.0,19.0,108.0,0.0
14.0,18.0,96.0,0.0
14.0,20.0,98.0,0.0
16.0,24.0,118.0,0.0
15.0,24.0,107.0,0.0
15.0,26.0,111.0,0.0
15.0,29.0,117.0,0.0
15.0,30.0,116.0,0.0
17.0,33.0,124.0,0.0
17.0,36.0,129.0,0.0
18.0,39.0,134.0,0.0
17.0,40.0,131.0,0.0
16.0,40.0,126.0,0.0
17.0,44.0,133.0,0.0
17.0,44.0,130.0,0.0
16.0,44.0,126.0,0.0
17.0,49.0,133.0,0.0
16.0,48.0,127.0,0.0
16.0,51.0,130.0,0.0
15.0,49.0,121.0,0.0
14.0,47.0,112.0,0.0
14.0,51.0,118.0,0.0
14.0,50.0,113.0,0.0
13.0,50.0,109.0,0.0
13.0,54.0,114.0,0.0
12.0,49.0,102.0,0.0
12.0,53.0,106.0,0.0
12.0,55.0,108.0,0.0
12.0,55.0,105.0,0.0
12.0,59.0,108.0,0.0
12.0,60.0,108.0,0.0
13.0,66.0,117.0,0.0
11.0,61.0,105.0,0.0
12.0,65.0,109.0,0.0
10.0,57.0,94.0,0.0
11.0,66.0,105.0,0.0
12.0,73.0,113.0,0.0
11.0,69.0,104.0,0.0
11.0,71.0,106.0,0.0
10.0,75.0,108.0,0.0
10.0,73.0,103.0,0.0
10.0,80.0,110.0,0.0
10.0,79.0,108.0,0.0
10.0,87.0,115.0,0.0
10.0,82.0,105.0,0.0
10.0,92.0,116.0,0.0
10.0,90.0,111.0,0.0
10.0,96.0,116.0,0.0
10.0,94.0,111.0,0.0
9.0,97.0,113.0,0.0
9.0,101.0,114.0,0.0
9.0,108.0,120.0,0.0
9.0,109.0,119.0,0.0
9.0,108.0,115.0,0.0
8.0,119.0,123.0,0.0
9.0,119.0,121.0,0.0
8.0,125.0,125.0,0.0
8.0,122.0,119.0,0.0
8.0,125.0,119.0,0.0
10.0,-287.0,88.0,0.0
10.0,-281.0,89.0,0.0
10.0,-276.0,91.0,0.0
11.0,-283.0,97.0,0.0
12.0,-276.0,98.0,0.0
12.0,-280.0,103.0,0.0
13.0,-285.0,108.0,0.0
14.0,-281.0,109.0,0.0
14.0,-280.0,113.0,0.0
15.0,-279.0,117.0,0.0
15.0,-277.0,118.0,0.0
16.0,-275.0,122.0,0.0
17.0,-277.0,126.0,0.0
17.0,-275.0,128.0,0.0
19.0,-280.0,135.0,0.0
19.0,-277.0,137.0,0.0
19.0,-272.0,139.0,0.0
20.0,-272.0,142.0,0.0
21.0,-271.0,146.0,0.0
22.0,-276.0,152.0,0.0
24.0,-290.0,163.0,0.0
23.0,-282.0,163.0,0.0
23.0,-269.0,159.0,0.0
21.0,-237.0,144.0,0.0
22.0,-241.0,150.0,0.0
22.0,-240.0,153.0,0.0
21.0,-220.0,143.0,0.0
23.0,-225.0,150.0,0.0
21.0,-217.0,148.0,0.0
20.0,-195.0,136.0,0.0
19.0,-183.0,132.0,0.0
20.0,-180.0,132.0,0.0
19.0,-174.0,130.0,0.0
18.0,-155.0,119.0,0.0
19.0,-158.0,124.0,0.0
19.0,-159.0,128.0,0.0
19.0,-152.0,125.0,0.0
18.0,-138.0,117.0,0.0
17.0,-131.0,112.0,0.0
17.0,-123.0,108.0,0.0
19.0,-135.0,120.0,0.0
17.0,-121.0,111.0,0.0
17.0,-118.0,111.0,0.0
14.0,-96.0,92.0,0.0
13.0,-88.0,86.0,0.0
13.0,-86.0,86.0,0.0
13.0,-80.0,82.0,0.0
260.0,-1612.0,1683.0,0.0
272.0,-1642.0,1752.0,0.0
270.0,-1595.0,1739.0,0.0
4250.0,-24587.0,27402.0,1.0
275.0,-1554.0,1770.0,0.0
281.0,-1550.0,1806.0,0.0
278.0,-1507.0,1796.0,0.0
286.0,-1514.0,1843.0,0.0
276.0,-1424.0,1773.0,0.0
4578.0,-23141.0,29464.0,1.0
283.0,-1395.0,1818.0,0.0
284.0,-1372.0,1828.0,0.0
4722.0,-22299.0,30395.0,1.0
4774.0,-22031.0,30728.0,1.0
295.0,-1332.0,1902.0,0.0
3051.0,-13450.0,19655.0,0.0
3048.0,-13126.0,19639.0,0.0
3057.0,-12861.0,19706.0,0.0
3068.0,-12609.0,19789.0,0.0
3068.0,-12314.0,19801.0,0.0
3077.0,-12057.0,19872.0,0.0
3075.0,-11763.0,19875.0,0.0
3084.0,-11512.0,19946.0,0.0
3086.0,-11243.0,19980.0,0.0
3091.0,-10982.0,20029.0,0.0
3099.0,-10737.0,20103.0,0.0
3101.0,-10473.0,20135.0,0.0
3116.0,-10254.0,20255.0,0.0
3165.0,-10146.0,20599.0,0.0
3327.0,-10386.0,21684.0,0.0
3481.0,-10573.0,22710.0,0.0
0.0,0.0,0.0,0.0
313.0,-898.0,2047.0,0.0
0.0,0.0,0.0,0.0
5610.0,-15211.0,36816.0,1.0
329.0,-863.0,2158.0,0.0
325.0,-831.0,2145.0,0.0
5645.0,-13965.0,37228.0,1.0
5665.0,-13573.0,37429.0,1.0
313.0,-724.0,2071.0,0.0
5731.0,-12845.0,38007.0,1.0
0.0,0.0,0.0,0.0
330.0,-687.0,2193.0,0.0
322.0,-648.0,2151.0,0.0
0.0,0.0,0.0,0.0
328.0,-610.0,2201.0,0.0
0.0,0.0,0.0,0.0
0.0,0.0,0.0,0.0
5709.0,-9341.0,38512.0,1.0
329.0,-513.0,2223.0,0.0
329.0,-488.0,2228.0,0.0
329.0,-464.0,2234.0,0.0
330.0,-442.0,2248.0,0.0
323.0,-408.0,2208.0,0.0
325.0,-387.0,2227.0,0.0
326.0,-364.0,2241.0,0.0
325.0,-338.0,2237.0,0.0
323.0,-312.0,2227.0,0.0
324.0,-289.0,2241.0,0.0
328.0,-268.0,2283.0,0.0
326.0,-242.0,2276.0,0.0
323.0,-216.0,2263.0,0.0
2968.0,-1755.0,20832.0,0.0
2750.0,-1418.0,19369.0,0.0
2727.0,-1198.0,19271.0,0.0
2.0,0.0,18.0,0.0
3.0,-1.0,20.0,0.0
2573.0,-536.0,18376.0,0.0
6.0,0.0,49.0,0.0
5.0,0.0,40.0,0.0
6.0,0.0,42.0,0.0
7.0,0.0,51.0,0.0
7.0,0.0,47.0,0.0
6.0,0.0,38.0,0.0
7.0,2.0,57.0,0.0
9.0,3.0,67.0,0.0
9.0,4.0,63.0,0.0
10.0,4.0,70.0,0.0
9.0,5.0,63.0,0.0
11.0,8.0,85.0,0.0
9.0,8.0,70.0,0.0
12.0,10.0,87.0,0.0
9.0,10.0,74.0,0.0
12.0,13.0,88.0,0.0
13.0,14.0,96.0,0.0
13.0,16.0,103.0,0.0
11.0,16.0,91.0,0.0
14.0,19.0,105.0,0.0
11.0,18.0,92.0,0.0
13.0,22.0,103.0,0.0
14.0,24.0,110.0,0.0
15.0,26.0,114.0,0.0
14.0,28.0,112.0,0.0
15.0,29.0,114.0,0.0
12.0,27.0,100.0,0.0
13.0,30.0,110.0,0.0
14.0,33.0,114.0,0.0
14.0,38.0,124.0,0.0
14.0,38.0,120.0,0.0
14.0,41.0,124.0,0.0
15.0,44.0,130.0,0.0
15.0,45.0,127.0,0.0
14.0,44.0,122.0,0.0
14.0,47.0,126.0,0.0
14.0,49.0,124.0,0.0
13.0,49.0,121.0,0.0
12.0,45.0,109.0,0.0
12.0,46.0,107.0,0.0
12.0,49.0,112.0,0.0
11.0,48.0,105.0,0.0
11.0,48.0,104.0,0.0
11.0,50.0,104.0,0.0
12.0,58.0,116.0,0.0
11.0,54.0,106.0,0.0
11.0,57.0,108.0,0.0
9.0,51.0,95.0,0.0
11.0,60.0,107.0,0.0
10.0,58.0,102.0,0.0
9.0,53.0,91.0,0.0
10.0,59.0,100.0,0.0
10.0,64.0,103.0,0.0
10.0,68.0,109.0,0.0
9.0,61.0,95.0,0.0
9.0,65.0,98.0,0.0
8.0,64.0,95.0,0.0
9.0,71.0,103.0,0.0
9.0,75.0,107.0,0.0
9.0,78.0,108.0,0.0
8.0,73.0,100.0,0.0
8.0,76.0,101.0,0.0
8.0,80.0,104.0,0.0
8.0,84.0,107.0,0.0
8.0,85.0,105.0,0.0
8.0,92.0,111.0,0.0
8.0,95.0,114.0,0.0
8.0,93.0,108.0,0.0
7.0,96.0,109.0,0.0
7.0,104.0,116.0,0.0
8.0,104.0,113.0,0.0
8.0,111.0,119.0,0.0
7.0,109.0,114.0,0.0
7.0,112.0,115.0,0.0
7.0,121.0,121.0,0.0
6.0,122.0,118.0,0.0
6.0,125.0,119.0,0.0
7.0,-295.0,91.0,0.0
7.0,-281.0,90.0,0.0
8.0,-282.0,94.0,0.0
8.0,-280.0,96.0,0.0
9.0,-278.0,99.0,0.0
9.0,-281.0,103.0,0.0
10.0,-281.0,107.0,0.0
11.0,-286.0,112.0,0.0
11.0,-282.0,114.0,0.0
13.0,-285.0,119.0,0.0
13.0,-280.0,120.0,0.0
14.0,-279.0,124.0,0.0
14.0,-276.0,126.0,0.0
14.0,-271.0,128.0,0.0
15.0,-278.0,134.0,0.0
16.0,-271.0,134.0,0.0
16.0,-270.0,138.0,0.0
17.0,-266.0,139.0,0.0
18.0,-270.0,146.0,0.0
19.0,-289.0,159.0,0.0
20.0,-291.0,164.0,0.0
21.0,-297.0,172.0,0.0
21.0,-274.0,163.0,0.0
21.0,-266.0,162.0,0.0
21.0,-265.0,165.0,0.0
19.0,-241.0,154.0,0.0
20.0,-239.0,156.0,0.0
19.0,-222.0,150.0,0.0
19.0,-208.0,143.0,0.0
18.0,-204.0,143.0,0.0
19.0,-202.0,145.0,0.0
17.0,-172.0,126.0,0.0
17.0,-173.0,129.0,0.0
17.0,-166.0,128.0,0.0
17.0,-159.0,125.0,0.0
16.0,-149.0,120.0,0.0
17.0,-148.0,122.0,0.0
16.0,-141.0,119.0,0.0
15.0,-128.0,110.0,0.0
13.0,-115.0,101.0,0.0
15.0,-126.0,113.0,0.0
14.0,-110.0,100.0,0.0
15.0,-113.0,107.0,0.0
13.0,-96.0,92.0,0.0
12.0,-91.0,89.0,0.0
12.0,-82.0,82.0,0.0
12.0,-88.0,91.0,0.0
239.0,-1635.0,1709.0,0.0
239.0,-1600.0,1709.0,0.0
3801.0,-24754.0,27040.0,1.0
246.0,-1567.0,1750.0,0.0
3910.0,-24295.0,27727.0,1.0
254.0,-1543.0,1801.0,0.0
4030.0,-23901.0,28509.0,1.0
257.0,-1486.0,1813.0,0.0
259.0,-1467.0,1830.0,0.0
256.0,-1415.0,1805.0,0.0
260.0,-1406.0,1835.0,0.0
0.0,0.0,0.0,0.0
273.0,-1405.0,1918.0,0.0
272.0,-1368.0,1911.0,0.0
4395.0,-21636.0,30933.0,1.0
0.0,0.0,0.0,0.0
2802.0,-13159.0,19717.0,0.0
2836.0,-13003.0,19953.0,0.0
2840.0,-12714.0,19981.0,0.0
2846.0,-12439.0,20032.0,0.0
2848.0,-12149.0,20050.0,0.0
2864.0,-11918.0,20163.0,0.0
2861.0,-11617.0,20154.0,0.0
2869.0,-11362.0,20220.0,0.0
2870.0,-11081.0,20235.0,0.0
2880.0,-10843.0,20324.0,0.0
2873.0,-10541.0,20292.0,0.0
2868.0,-10250.0,20269.0,0.0
2935.0,-10215.0,20762.0,0.0
3088.0,-10462.0,21866.0,0.0
3213.0,-10592.0,22776.0,0.0
292.0,-937.0,2075.0,0.0
0.0,0.0,0.0,0.0
296.0,-896.0,2107.0,0.0
0.0,0.0,0.0,0.0
280.0,-799.0,1999.0,0.0
0.0,0.0,0.0,0.0
0.0,0.0,0.0,0.0
5225.0,-13566.0,37439.0,1.0
5255.0,-13201.0,37717.0,1.0
0.0,0.0,0.0,0.0
5304.0,-12438.0,38207.0,1.0
301.0,-682.0,2177.0,0.0
290.0,-631.0,2095.0,0.0
0.0,0.0,0.0,0.0
301.0,-605.0,2181.0,0.0
310.0,-600.0,2258.0,0.0
0.0,0.0,0.0,0.0
298.0,-528.0,2182.0,0.0
5250.0,-8884.0,38474.0,1.0
0.0,0.0,0.0,0.0
301.0,-461.0,2213.0,0.0
301.0,-437.0,2223.0,0.0
300.0,-410.0,2217.0,0.0
300.0,-388.0,2232.0,0.0
298.0,-360.0,2218.0,0.0
298.0,-337.0,2223.0,0.0
294.0,-307.0,2197.0,0.0
298.0,-289.0,2243.0,0.0
293.0,-260.0,2208.0,0.0
301.0,-243.0,2279.0,0.0
299.0,-217.0,2267.0,0.0
6.0,-4.0,41.0,0.0
4.0,-2.0,32.0,0.0
3.0,-2.0,23.0,0.0
2506.0,-993.0,19282.0,0.0
2726.0,-853.0,21054.0,0.0
5.0,-1.0,39.0,0.0
8.0,-1.0,58.0,0.0
7.0,0.0,57.0,0.0
8.0,0.0,65.0,0.0
5.0,0.0,46.0,0.0
6.0,0.0,47.0,0.0
9.0,2.0,67.0,0.0
10.0,3.0,74.0,0.0
8.0,4.0,69.0,0.0
9.0,4.0,67.0,0.0
9.0,5.0,67.0,0.0
8.0,6.0,69.0,0.0
9.0,7.0,74.0,0.0
8.0,6.0,65.0,0.0
9.0,9.0,74.0,0.0
11.0,12.0,95.0,0.0
9.0,12.0,83.0,0.0
12.0,15.0,103.0,0.0
11.0,15.0,89.0,0.0
12.0,18.0,102.0,0.0
12.0,19.0,102.0,0.0
14.0,22.0,113.0,0.0
12.0,22.0,103.0,0.0
11.0,22.0,101.0,0.0
13.0,25.0,110.0,0.0
15.0,31.0,126.0,0.0
13.0,28.0,110.0,0.0
13.0,30.0,115.0,0.0
14.0,35.0,125.0,0.0
13.0,32.0,111.0,0.0
14.0,39.0,127.0,0.0
15.0,43.0,133.0,0.0
14.0,43.0,131.0,0.0
15.0,46.0,134.0,0.0
13.0,44.0,124.0,0.0
14.0,47.0,130.0,0.0
12.0,45.0,119.0,0.0
13.0,46.0,119.0,0.0
12.0,49.0,123.0,0.0
12.0,49.0,117.0,0.0
12.0,50.0,117.0,0.0
11.0,47.0,108.0,0.0
11.0,52.0,115.0,0.0
11.0,56.0,120.0,0.0
10.0,51.0,106.0,0.0
10.0,54.0,107.0,0.0
9.0,50.0,97.0,0.0
10.0,56.0,108.0,0.0
10.0,62.0,115.0,0.0
8.0,52.0,95.0,0.0
8.0,57.0,100.0,0.0
9.0,60.0,103.0,0.0
8.0,61.0,102.0,0.0
8.0,61.0,100.0,0.0
8.0,67.0,107.0,0.0
8.0,62.0,97.0,0.0
7.0,65.0,99.0,0.0
8.0,68.0,101.0,0.0
8.0,69.0,101.0,0.0
8.0,76.0,108.0,0.0
8.0,82.0,114.0,0.0
7.0,77.0,105.0,0.0
7.0,83.0,111.0,0.0
7.0,81.0,106.0,0.0
7.0,91.0,116.0,0.0
7.0,93.0,115.0,0.0
7.0,96.0,117.0,0.0
7.0,94.0,112.0,0.0
6.0,95.0,110.0,0.0
6.0,102.0,116.0,0.0
7.0,106.0,117.0,0.0
6.0,106.0,116.0,0.0
5.0,110.0,117.0,0.0
6.0,116.0,121.0,0.0
5.0,119.0,122.0,0.0
5.0,123.0,123.0,0.0
5.0,123.0,121.0,0.0
4.0,122.0,116.0,0.0
4.0,-279.0,86.0,0.0
4.0,-268.0,86.0,0.0
5.0,-274.0,91.0,0.0
5.0,-271.0,94.0,0.0
6.0,-276.0,99.0,0.0
6.0,-273.0,102.0,0.0
7.0,-268.0,102.0,0.0
9.0,-282.0,112.0,0.0
9.0,-274.0,111.0,0.0
9.0,-269.0,113.0,0.0
9.0,-270.0,117.0,0.0
10.0,-268.0,120.0,0.0
11.0,-272.0,125.0,0.0
12.0,-268.0,127.0,0.0
12.0,-267.0,129.0,0.0
13.0,-270.0,134.0,0.0
13.0,-268.0,137.0,0.0
13.0,-264.0,138.0,0.0
15.0,-265.0,143.0,0.0
15.0,-274.0,151.0,0.0
16.0,-277.0,157.0,0.0
17.0,-277.0,160.0,0.0
17.0,-266.0,159.0,0.0
16.0,-255.0,156.0,0.0
16.0,-240.0,150.0,0.0
16.0,-237.0,151.0,0.0
16.0,-229.0,150.0,0.0
16.0,-214.0,143.0,0.0
16.0,-210.0,144.0,0.0
16.0,-202.0,142.0,0.0
15.0,-183.0,132.0,0.0
16.0,-190.0,140.0,0.0
16.0,-175.0,131.0,0.0
15.0,-169.0,130.0,0.0
14.0,-161.0,126.0,0.0
14.0,-147.0,119.0,0.0
13.0,-136.0,112.0,0.0
15.0,-149.0,126.0,0.0
13.0,-121.0,105.0,0.0
13.0,-125.0,110.0,0.0
13.0,-115.0,104.0,0.0
12.0,-102.0,94.0,0.0
11.0,-99.0,93.0,0.0
11.0,-92.0,88.0,0.0
11.0,-90.0,88.0,0.0
10.0,-80.0,80.0,0.0
10.0,-79.0,81.0,0.0
216.0,-1641.0,1720.0,0.0
3377.0,-25056.0,26825.0,1.0
3422.0,-24769.0,27103.0,1.0
3460.0,-24434.0,27328.0,1.0
220.0,-1515.0,1732.0,0.0
227.0,-1527.0,1784.0,0.0
232.0,-1523.0,1820.0,0.0
3654.0,-23427.0,28618.0,1.0
231.0,-1445.0,1806.0,0.0
3753.0,-22929.0,29289.0,1.0
3795.0,-22637.0,29574.0,1.0
3844.0,-22388.0,29919.0,1.0
3890.0,-22117.0,30239.0,1.0
3948.0,-21911.0,30653.0,1.0
241.0,-1304.0,1868.0,0.0
0.0,0.0,0.0,0.0
2586.0,-13352.0,20034.0,0.0
2599.0,-13089.0,20112.0,0.0
2600.0,-12782.0,20117.0,0.0
2616.0,-12547.0,20231.0,0.0
2613.0,-12226.0,20203.0,0.0
2621.0,-11963.0,20265.0,0.0
2633.0,-11716.0,20351.0,0.0
2637.0,-11441.0,20385.0,0.0
2642.0,-11174.0,20429.0,0.0
2645.0,-10898.0,20453.0,0.0
2654.0,-10651.0,20526.0,0.0
2654.0,-10374.0,20538.0,0.0
2691.0,-10244.0,20843.0,0.0
0.0,0.0,0.0,0.0
2951.0,-10634.0,22889.0,0.0
0.0,0.0,0.0,0.0
4755.0,-16190.0,36939.0,1.0
264.0,-874.0,2056.0,0.0
276.0,-888.0,2155.0,0.0
4660.0,-14514.0,36317.0,1.0
4688.0,-14160.0,36584.0,1.0
0.0,0.0,0.0,0.0
4756.0,-13475.0,37215.0,1.0
4793.0,-13137.0,37561.0,1.0
274.0,-723.0,2145.0,0.0
4845.0,-12395.0,38096.0,1.0
278.0,-684.0,2188.0,0.0
0.0,0.0,0.0,0.0
269.0,-614.0,2124.0,0.0
4812.0,-10583.0,38129.0,1.0
281.0,-593.0,2235.0,0.0
267.0,-539.0,2121.0,0.0
275.0,-530.0,2190.0,0.0
4806.0,-8871.0,38418.0,1.0
0.0,0.0,0.0,0.0
282.0,-471.0,2266.0,0.0
4694.0,-7434.0,37814.0,1.0
278.0,-415.0,2244.0,0.0
4674.0,-6585.0,37861.0,1.0
271.0,-359.0,2206.0,0.0
4639.0,-5725.0,37805.0,1.0
272.0,-312.0,2224.0,0.0
279.0,-294.0,2280.0,0.0
4570.0,-4437.0,37605.0,1.0
256.0,-226.0,2115.0,0.0
272.0,-216.0,2249.0,0.0
2505.0,-1765.0,20819.0,0.0
3.0,-2.0,19.0,0.0
4.0,-2.0,32.0,0.0
2299.0,-1002.0,19330.0,0.0
3.0,-1.0,30.0,0.0
4.0,-1.0,32.0,0.0
5.0,-1.0,42.0,0.0
6.0,0.0,47.0,0.0
5.0,0.0,43.0,0.0
4.0,0.0,36.0,0.0
7.0,1.0,59.0,0.0
5.0,1.0,46.0,0.0
7.0,2.0,54.0,0.0
8.0,4.0,69.0,0.0
7.0,4.0,63.0,0.0
6.0,4.0,54.0,0.0
9.0,6.0,75.0,0.0
6.0,5.0,54.0,0.0
9.0,9.0,83.0,0.0
8.0,9.0,74.0,0.0
10.0,12.0,93.0,0.0
8.0,11.0,78.0,0.0
9.0,14.0,91.0,0.0
11.0,16.0,97.0,0.0
10.0,15.0,88.0,0.0
9.0,16.0,91.0,0.0
9.0,18.0,91.0,0.0
10.0,21.0,101.0,0.0
11.0,25.0,112.0,0.0
11.0,25.0,108.0,0.0
10.0,23.0,94.0,0.0
10.0,25.0,101.0,0.0
12.0,32.0,118.0,0.0
11.0,32.0,114.0,0.0
11.0,35.0,120.0,0.0
11.0,34.0,115.0,0.0
11.0,36.0,116.0,0.0
11.0,39.0,120.0,0.0
13.0,44.0,130.0,0.0
11.0,40.0,114.0,0.0
12.0,46.0,126.0,0.0
11.0,42.0,110.0,0.0
11.0,44.0,116.0,0.0
9.0,40.0,101.0,0.0
10.0,45.0,109.0,0.0
9.0,47.0,110.0,0.0
9.0,49.0,111.0,0.0
9.0,45.0,99.0,0.0
9.0,47.0,100.0,0.0
8.0,50.0,104.0,0.0
7.0,46.0,95.0,0.0
8.0,49.0,96.0,0.0
8.0,50.0,96.0,0.0
8.0,52.0,98.0,0.0
8.0,57.0,103.0,0.0
8.0,58.0,104.0,0.0
7.0,58.0,101.0,0.0
7.0,57.0,96.0,0.0
6.0,54.0,89.0,0.0
6.0,61.0,98.0,0.0
7.0,60.0,95.0,0.0
7.0,62.0,95.0,0.0
7.0,67.0,101.0,0.0
6.0,68.0,99.0,0.0
6.0,72.0,103.0,0.0
6.0,75.0,106.0,0.0
6.0,70.0,95.0,0.0
5.0,76.0,102.0,0.0
5.0,79.0,102.0,0.0
5.0,85.0,108.0,0.0
5.0,85.0,106.0,0.0
5.0,85.0,103.0,0.0
5.0,90.0,107.0,0.0
4.0,90.0,105.0,0.0
5.0,90.0,103.0,0.0
4.0,98.0,109.0,0.0
4.0,100.0,110.0,0.0
4.0,104.0,111.0,0.0
3.0,104.0,109.0,0.0
4.0,108.0,110.0,0.0
3.0,113.0,114.0,0.0
3.0,118.0,116.0,0.0
2.0,121.0,116.0,0.0
1.0,-296.0,93.0,0.0
2.0,-288.0,93.0,0.0
2.0,-291.0,98.0,0.0
3.0,-284.0,99.0,0.0
4.0,-284.0,102.0,0.0
4.0,-282.0,104.0,0.0
5.0,-278.0,107.0,0.0
6.0,-284.0,112.0,0.0
6.0,-287.0,117.0,0.0
6.0,-282.0,119.0,0.0
7.0,-283.0,122.0,0.0
7.0,-284.0,127.0,0.0
9.0,-280.0,129.0,0.0
9.0,-276.0,131.0,0.0
9.0,-269.0,130.0,0.0
10.0,-272.0,136.0,0.0
10.0,-274.0,140.0,0.0
11.0,-277.0,145.0,0.0
12.0,-276.0,149.0,0.0
13.0,-283.0,157.0,0.0
14.0,-291.0,165.0,0.0
14.0,-279.0,163.0,0.0
15.0,-274.0,164.0,0.0
14.0,-264.0,161.0,0.0
14.0,-248.0,155.0,0.0
13.0,-232.0,149.0,0.0
14.0,-230.0,151.0,0.0
15.0,-238.0,160.0,0.0
14.0,-213.0,147.0,0.0
14.0,-208.0,147.0,0.0
13.0,-190.0,137.0,0.0
14.0,-195.0,143.0,0.0
14.0,-178.0,134.0,0.0
13.0,-170.0,131.0,0.0
13.0,-164.0,129.0,0.0
13.0,-150.0,122.0,0.0
13.0,-149.0,123.0,0.0
11.0,-129.0,109.0,0.0
13.0,-145.0,126.0,0.0
12.0,-129.0,114.0,0.0
11.0,-117.0,105.0,0.0
12.0,-123.0,113.0,0.0
10.0,-102.0,96.0,0.0
10.0,-99.0,96.0,0.0
10.0,-95.0,93.0,0.0
8.0,-75.0,75.0,0.0
2897.0,-25525.0,26209.0,1.0
2951.0,-25326.0,26574.0,1.0
191.0,-1597.0,1713.0,0.0
193.0,-1580.0,1732.0,0.0
3074.0,-24412.0,27348.0,1.0
3130.0,-24223.0,27738.0,1.0
206.0,-1554.0,1819.0,0.0
207.0,-1525.0,1825.0,0.0
210.0,-1510.0,1848.0,0.0
3305.0,-23119.0,28922.0,1.0
3347.0,-22837.0,29215.0,1.0
3394.0,-22586.0,29551.0,1.0
3437.0,-22308.0,29855.0,1.0
220.0,-1393.0,1908.0,0.0
217.0,-1340.0,1877.0,0.0
220.0,-1329.0,1906.0,0.0
3605.0,-21185.0,31089.0,1.0
0.0,0.0,0.0,0.0
2319.0,-12963.0,19944.0,0.0
227.0,-1236.0,1948.0,0.0
2323.0,-12348.0,19937.0,0.0
2326.0,-12052.0,19941.0,0.0
2330.0,-11769.0,19961.0,0.0
2337.0,-11504.0,20007.0,0.0
2339.0,-11222.0,20018.0,0.0
2346.0,-10965.0,20070.0,0.0
2349.0,-10692.0,20089.0,0.0
2349.0,-10413.0,20089.0,0.0
2356.0,-10164.0,20145.0,0.0
2362.0,-9919.0,20203.0,0.0
2443.0,-9979.0,20900.0,0.0
2576.0,-10233.0,22048.0,0.0
4281.0,-16530.0,36656.0,1.0
239.0,-895.0,2045.0,0.0
0.0,0.0,0.0,0.0
4245.0,-15008.0,36420.0,1.0
0.0,0.0,0.0,0.0
0.0,0.0,0.0,0.0
4278.0,-13775.0,36810.0,1.0
4317.0,-13457.0,37192.0,1.0
4334.0,-13071.0,37397.0,1.0
4370.0,-12735.0,37758.0,1.0
252.0,-707.0,2177.0,0.0
0.0,0.0,0.0,0.0
0.0,0.0,0.0,0.0
0.0,0.0,0.0,0.0
4337.0,-10487.0,37795.0,1.0
0.0,0.0,0.0,0.0
250.0,-554.0,2184.0,0.0
251.0,-533.0,2202.0,0.0
249.0,-506.0,2197.0,0.0
4327.0,-8369.0,38138.0,1.0
0.0,0.0,0.0,0.0
0.0,0.0,0.0,0.0
4220.0,-6946.0,37488.0,1.0
4248.0,-6587.0,37850.0,1.0
256.0,-373.0,2288.0,0.0
252.0,-343.0,2264.0,0.0
251.0,-316.0,2253.0,0.0
253.0,-295.0,2283.0,0.0
253.0,-271.0,2292.0,0.0
246.0,-240.0,2240.0,0.0
250.0,-218.0,2274.0,0.0
2270.0,-1767.0,20780.0,0.0
2113.0,-1438.0,19414.0,0.0
2088.0,-1215.0,19273.0,0.0
2086.0,-1007.0,19328.0,0.0
7.0,-3.0,66.0,0.0
3.0,-1.0,24.0,0.0
6.0,-1.0,54.0,0.0
5.0,0.0,49.0,0.0
4.0,0.0,40.0,0.0
5.0,0.0,48.0,0.0
6.0,0.0,60.0,0.0
5.0,1.0,45.0,0.0
7.0,2.0,66.0,0.0
9.0,4.0,86.0,0.0
9.0,5.0,82.0,0.0
8.0,4.0,70.0,0.0
7.0,6.0,74.0,0.0
8.0,8.0,85.0,0.0
9.0,8.0,84.0,0.0
9.0,11.0,98.0,0.0
8.0,9.0,76.0,0.0
10.0,13.0,96.0,0.0
10.0,15.0,97.0,0.0
10.0,16.0,97.0,0.0
9.0,17.0,99.0,0.0
10.0,19.0,103.0,0.0
9.0,20.0,104.0,0.0
12.0,28.0,134.0,0.0
10.0,24.0,108.0,0.0
11.0,27.0,116.0,0.0
11.0,29.0,121.0,0.0
11.0,30.0,119.0,0.0
11.0,33.0,124.0,0.0
11.0,37.0,132.0,0.0
10.0,35.0,119.0,0.0
12.0,41.0,134.0,0.0
11.0,40.0,130.0,0.0
11.0,43.0,131.0,0.0
10.0,41.0,123.0,0.0
11.0,45.0,131.0,0.0
11.0,49.0,136.0,0.0
10.0,49.0,129.0,0.0
9.0,47.0,122.0,0.0
11.0,53.0,132.0,0.0
9.0,48.0,116.0,0.0
9.0,51.0,119.0,0.0
8.0,49.0,111.0,0.0
8.0,55.0,121.0,0.0
8.0,54.0,115.0,0.0
8.0,55.0,114.0,0.0
8.0,54.0,110.0,0.0
7.0,54.0,108.0,0.0
7.0,54.0,104.0,0.0
8.0,61.0,115.0,0.0
8.0,61.0,111.0,0.0
7.0,59.0,106.0,0.0
7.0,62.0,109.0,0.0
7.0,64.0,107.0,0.0
6.0,65.0,107.0,0.0
6.0,68.0,108.0,0.0
6.0,69.0,108.0,0.0
6.0,69.0,106.0,0.0
5.0,69.0,105.0,0.0
5.0,70.0,102.0,0.0
5.0,77.0,109.0,0.0
6.0,80.0,112.0,0.0
5.0,81.0,110.0,0.0
5.0,85.0,113.0,0.0
5.0,87.0,113.0,0.0
5.0,87.0,111.0,0.0
4.0,90.0,113.0,0.0
4.0,97.0,118.0,0.0
4.0,95.0,114.0,0.0
4.0,95.0,112.0,0.0
4.0,103.0,117.0,0.0
3.0,106.0,119.0,0.0
3.0,109.0,120.0,0.0
3.0,112.0,120.0,0.0
2.0,117.0,122.0,0.0
3.0,117.0,120.0,0.0
2.0,123.0,125.0,0.0
2.0,126.0,124.0,0.0
2.0,127.0,123.0,0.0
0.0,-302.0,94.0,0.0
0.0,-294.0,96.0,0.0
0.0,-293.0,98.0,0.0
1.0,-288.0,101.0,0.0
1.0,-288.0,104.0,0.0
2.0,-277.0,103.0,0.0
2.0,-284.0,110.0,0.0
2.0,-283.0,112.0,0.0
3.0,-273.0,112.0,0.0
4.0,-286.0,121.0,0.0
5.0,-278.0,121.0,0.0
5.0,-276.0,124.0,0.0
5.0,-277.0,128.0,0.0
6.0,-281.0,134.0,0.0
7.0,-275.0,134.0,0.0
7.0,-283.0,142.0,0.0
8.0,-271.0,139.0,0.0
8.0,-280.0,147.0,0.0
9.0,-277.0,150.0,0.0
10.0,-286.0,158.0,0.0
10.0,-288.0,164.0,0.0
11.0,-298.0,174.0,0.0
11.0,-279.0,167.0,0.0
11.0,-266.0,163.0,0.0
11.0,-247.0,155.0,0.0
11.0,-244.0,157.0,0.0
12.0,-238.0,157.0,0.0
11.0,-229.0,154.0,0.0
11.0,-221.0,152.0,0.0
12.0,-214.0,151.0,0.0
12.0,-203.0,147.0,0.0
11.0,-188.0,138.0,0.0
12.0,-183.0,138.0,0.0
11.0,-171.0,132.0,0.0
10.0,-160.0,127.0,0.0
12.0,-166.0,134.0,0.0
11.0,-152.0,126.0,0.0
11.0,-143.0,121.0,0.0
11.0,-136.0,118.0,0.0
11.0,-137.0,121.0,0.0
11.0,-133.0,120.0,0.0
9.0,-109.0,101.0,0.0
10.0,-123.0,116.0,0.0
9.0,-107.0,103.0,0.0
10.0,-99.0,98.0,0.0
8.0,-91.0,91.0,0.0
161.0,-1634.0,1681.0,0.0
164.0,-1613.0,1695.0,0.0
2619.0,-25083.0,26943.0,1.0
2649.0,-24689.0,27103.0,1.0
2689.0,-24374.0,27348.0,1.0
176.0,-1556.0,1785.0,0.0
2767.0,-23761.0,27855.0,1.0
2797.0,-23391.0,28034.0,1.0
2854.0,-23235.0,28469.0,1.0
2898.0,-22979.0,28788.0,1.0
183.0,-1411.0,1808.0,0.0
189.0,-1419.0,1860.0,0.0
191.0,-1403.0,1880.0,0.0
192.0,-1364.0,1871.0,0.0
3121.0,-21728.0,30481.0,1.0
3163.0,-21462.0,30811.0,1.0
195.0,-1285.0,1889.0,0.0
198.0,-1275.0,1919.0,0.0
0.0,0.0,0.0,0.0
203.0,-1243.0,1962.0,0.0
204.0,-1212.0,1959.0,0.0
199.0,-1156.0,1914.0,0.0
2190.0,-12385.0,21031.0,0.0
2205.0,-12147.0,21150.0,0.0
2208.0,-11846.0,21155.0,0.0
2215.0,-11568.0,21198.0,0.0
2224.0,-11305.0,21264.0,0.0
2220.0,-10981.0,21208.0,0.0
2235.0,-10755.0,21338.0,0.0
2242.0,-10498.0,21405.0,0.0
2309.0,-10509.0,22033.0,0.0
2395.0,-10595.0,22850.0,0.0
3812.0,-16392.0,36385.0,1.0
0.0,0.0,0.0,0.0
218.0,-883.0,2082.0,0.0
0.0,0.0,0.0,0.0
0.0,0.0,0.0,0.0
227.0,-839.0,2175.0,0.0
3823.0,-13686.0,36597.0,1.0
226.0,-782.0,2167.0,0.0
3876.0,-12983.0,37169.0,1.0
227.0,-733.0,2177.0,0.0
3906.0,-12209.0,37570.0,1.0
0.0,0.0,0.0,0.0
224.0,-649.0,2157.0,0.0
233.0,-650.0,2250.0,0.0
0.0,0.0,0.0,0.0
3899.0,-10046.0,37816.0,1.0
224.0,-553.0,2182.0,0.0
223.0,-526.0,2175.0,0.0
3919.0,-8835.0,38264.0,1.0
3894.0,-8363.0,38111.0,1.0
0.0,0.0,0.0,0.0
228.0,-442.0,2244.0,0.0
0.0,0.0,0.0,0.0
231.0,-398.0,2284.0,0.0
226.0,-365.0,2241.0,0.0
227.0,-344.0,2263.0,0.0
231.0,-325.0,2314.0,0.0
227.0,-295.0,2272.0,0.0
219.0,-262.0,2207.0,0.0
229.0,-248.0,2312.0,0.0
220.0,-215.0,2230.0,0.0
2039.0,-1771.0,20765.0,0.0
1902.0,-1446.0,19447.0,0.0
1878.0,-1222.0,19282.0,0.0
1879.0,-1016.0,19376.0,0.0
2032.0,-874.0,21060.0,0.0
5.0,-2.0,51.0,0.0
1753.0,-360.0,18347.0,0.0
2.0,0.0,25.0,0.0
3.0,0.0,33.0,0.0
5.0,0.0,53.0,0.0
5.0,0.0,51.0,0.0
7.0,2.0,71.0,0.0
5.0,2.0,58.0,0.0
7.0,3.0,76.0,0.0
6.0,4.0,63.0,0.0
8.0,7.0,91.0,0.0
7.0,7.0,86.0,0.0
6.0,7.0,74.0,0.0
8.0,10.0,92.0,0.0
9.0,12.0,102.0,0.0
8.0,12.0,92.0,0.0
9.0,14.0,100.0,0.0
8.0,14.0,96.0,0.0
10.0,18.0,113.0,0.0
9.0,20.0,113.0,0.0
9.0,20.0,110.0,0.0
9.0,21.0,107.0,0.0
10.0,25.0,123.0,0.0
10.0,28.0,128.0,0.0
9.0,27.0,113.0,0.0
9.0,29.0,118.0,0.0
10.0,32.0,126.0,0.0
10.0,34.0,129.0,0.0
10.0,35.0,129.0,0.0
10.0,39.0,132.0,0.0
10.0,39.0,130.0,0.0
9.0,40.0,128.0,0.0
10.0,44.0,134.0,0.0
9.0,44.0,130.0,0.0
9.0,44.0,126.0,0.0
9.0,45.0,125.0,0.0
9.0,50.0,132.0,0.0
8.0,51.0,132.0,0.0
8.0,48.0,121.0,0.0
8.0,50.0,122.0,0.0
8.0,53.0,127.0,0.0
8.0,54.0,123.0,0.0
8.0,58.0,128.0,0.0
8.0,57.0,121.0,0.0
6.0,56.0,117.0,0.0
6.0,55.0,113.0,0.0
6.0,59.0,118.0,0.0
7.0,57.0,110.0,0.0
6.0,64.0,122.0,0.0
6.0,57.0,103.0,0.0
6.0,64.0,113.0,0.0
6.0,66.0,114.0,0.0
5.0,62.0,105.0,0.0
5.0,62.0,104.0,0.0
5.0,66.0,106.0,0.0
5.0,69.0,109.0,0.0
5.0,77.0,118.0,0.0
4.0,70.0,105.0,0.0
4.0,75.0,109.0,0.0
4.0,76.0,108.0,0.0
3.0,75.0,105.0,0.0
4.0,82.0,113.0,0.0
4.0,90.0,120.0,0.0
3.0,84.0,110.0,0.0
3.0,88.0,112.0,0.0
3.0,94.0,118.0,0.0
3.0,95.0,116.0,0.0
2.0,96.0,114.0,0.0
3.0,100.0,116.0,0.0
2.0,103.0,118.0,0.0
1.0,104.0,116.0,0.0
1.0,110.0,121.0,0.0
1.0,108.0,116.0,0.0
1.0,114.0,120.0,0.0
0.0,110.0,114.0,0.0
1.0,121.0,122.0,0.0
0.0,124.0,122.0,0.0
0.0,120.0,116.0,0.0
-4.0,-311.0,98.0,0.0
-2.0,-301.0,98.0,0.0
-2.0,-298.0,101.0,0.0
-2.0,-306.0,106.0,0.0
0.0,-288.0,105.0,0.0
-1.0,-293.0,110.0,0.0
0.0,-286.0,110.0,0.0
0.0,-295.0,118.0,0.0
1.0,-291.0,119.0,0.0
1.0,-281.0,118.0,0.0
1.0,-287.0,125.0,0.0
2.0,-285.0,128.0,0.0
3.0,-280.0,130.0,0.0
3.0,-286.0,136.0,0.0
3.0,-277.0,135.0,0.0
5.0,-281.0,141.0,0.0
4.0,-284.0,146.0,0.0
6.0,-280.0,148.0,0.0
6.0,-288.0,157.0,0.0
7.0,-298.0,166.0,0.0
7.0,-297.0,170.0,0.0
8.0,-291.0,170.0,0.0
8.0,-281.0,168.0,0.0
9.0,-277.0,170.0,0.0
9.0,-255.0,161.0,0.0
9.0,-247.0,160.0,0.0
9.0,-238.0,157.0,0.0
10.0,-234.0,158.0,0.0
9.0,-222.0,154.0,0.0
9.0,-212.0,150.0,0.0
9.0,-198.0,144.0,0.0
9.0,-185.0,137.0,0.0
10.0,-187.0,141.0,0.0
9.0,-171.0,133.0,0.0
9.0,-176.0,139.0,0.0
9.0,-154.0,125.0,0.0
9.0,-155.0,128.0,0.0
9.0,-146.0,124.0,0.0
10.0,-146.0,127.0,0.0
9.0,-131.0,116.0,0.0
8.0,-120.0,108.0,0.0
8.0,-118.0,109.0,0.0
10.0,-126.0,119.0,0.0
8.0,-103.0,100.0,0.0
9.0,-106.0,105.0,0.0
8.0,-92.0,93.0,0.0
141.0,-1679.0,1730.0,0.0
2186.0,-25268.0,26599.0,1.0
141.0,-1579.0,1699.0,0.0
145.0,-1586.0,1745.0,0.0
2307.0,-24380.0,27396.0,1.0
2338.0,-23990.0,27553.0,1.0
154.0,-1534.0,1802.0,0.0
0.0,0.0,0.0,0.0
161.0,-1511.0,1855.0,0.0
162.0,-1483.0,1862.0,0.0
2542.0,-22632.0,29033.0,1.0
162.0,-1401.0,1838.0,0.0
171.0,-1435.0,1925.0,0.0
2679.0,-21965.0,30154.0,1.0
173.0,-1383.0,1943.0,0.0
176.0,-1365.0,1962.0,0.0
173.0,-1307.0,1924.0,0.0
177.0,-1302.0,1962.0,0.0
177.0,-1263.0,1949.0,0.0
180.0,-1254.0,1982.0,0.0
2919.0,-19792.0,32030.0,1.0
184.0,-1210.0,2006.0,0.0
183.0,-1175.0,1999.0,0.0
183.0,-1145.0,1998.0,0.0
2087.0,-12696.0,22696.0,0.0
0.0,0.0,0.0,0.0
2098.0,-12073.0,22731.0,0.0
2098.0,-11744.0,22704.0,0.0
2106.0,-11461.0,22760.0,0.0
2100.0,-11107.0,22668.0,0.0
2118.0,-10893.0,22858.0,0.0
2130.0,-10639.0,22963.0,0.0
0.0,0.0,0.0,0.0
0.0,0.0,0.0,0.0
3352.0,-15315.0,36104.0,1.0
192.0,-851.0,2069.0,0.0
0.0,0.0,0.0,0.0
0.0,0.0,0.0,0.0
3378.0,-13611.0,36422.0,1.0
198.0,-770.0,2134.0,0.0
0.0,0.0,0.0,0.0
3457.0,-12588.0,37365.0,1.0
3447.0,-12114.0,37294.0,1.0
0.0,0.0,0.0,0.0
3424.0,-11176.0,37144.0,1.0
3384.0,-10629.0,36773.0,1.0
205.0,-618.0,2231.0,0.0
0.0,0.0,0.0,0.0
202.0,-558.0,2201.0,0.0
3483.0,-9244.0,38137.0,1.0
202.0,-511.0,2219.0,0.0
3452.0,-8334.0,37977.0,1.0
202.0,-464.0,2229.0,0.0
3406.0,-7412.0,37672.0,1.0
194.0,-399.0,2153.0,0.0
0.0,0.0,0.0,0.0
3369.0,-6128.0,37603.0,1.0
3354.0,-5703.0,37564.0,1.0
205.0,-325.0,2310.0,0.0
204.0,-298.0,2300.0,0.0
205.0,-275.0,2324.0,0.0
198.0,-242.0,2254.0,0.0
200.0,-221.0,2291.0,0.0
1804.0,-1769.0,20686.0,0.0
1686.0,-1448.0,19425.0,0.0
1666.0,-1227.0,19282.0,0.0
1665.0,-1020.0,19367.0,0.0
5.0,-2.0,59.0,0.0
1588.0,-576.0,18654.0,0.0
1554.0,-367.0,18356.0,0.0
5.0,-1.0,60.0,0.0
5.0,0.0,59.0,0.0
5.0,0.0,61.0,0.0
5.0,1.0,50.0,0.0
7.0,2.0,82.0,0.0
7.0,4.0,83.0,0.0
5.0,3.0,63.0,0.0
5.0,3.0,61.0,0.0
7.0,6.0,85.0,0.0
6.0,7.0,79.0,0.0
7.0,9.0,93.0,0.0
7.0,9.0,88.0,0.0
9.0,12.0,108.0,0.0
8.0,13.0,101.0,0.0
9.0,16.0,114.0,0.0
9.0,19.0,127.0,0.0
9.0,20.0,121.0,0.0
7.0,18.0,109.0,0.0
9.0,20.0,113.0,0.0
9.0,23.0,118.0,0.0
9.0,26.0,129.0,0.0
10.0,30.0,135.0,0.0
9.0,30.0,128.0,0.0
9.0,32.0,134.0,0.0
8.0,30.0,116.0,0.0
8.0,32.0,120.0,0.0
9.0,38.0,137.0,0.0
8.0,38.0,131.0,0.0
8.0,41.0,137.0,0.0
9.0,45.0,145.0,0.0
9.0,45.0,140.0,0.0
9.0,50.0,148.0,0.0
9.0,50.0,144.0,0.0
8.0,51.0,141.0,0.0
8.0,51.0,136.0,0.0
8.0,56.0,146.0,0.0
8.0,54.0,137.0,0.0
7.0,53.0,129.0,0.0
7.0,53.0,126.0,0.0
7.0,57.0,130.0,0.0
6.0,59.0,130.0,0.0
6.0,58.0,125.0,0.0
6.0,60.0,125.0,0.0
6.0,60.0,124.0,0.0
6.0,58.0,115.0,0.0
5.0,61.0,117.0,0.0
5.0,64.0,120.0,0.0
5.0,68.0,126.0,0.0
4.0,65.0,116.0,0.0
5.0,64.0,113.0,0.0
5.0,70.0,118.0,0.0
4.0,72.0,120.0,0.0
4.0,74.0,120.0,0.0
4.0,77.0,121.0,0.0
4.0,72.0,111.0,0.0
3.0,75.0,113.0,0.0
3.0,80.0,117.0,0.0
3.0,79.0,115.0,0.0
3.0,84.0,118.0,0.0
2.0,84.0,115.0,0.0
3.0,90.0,122.0,0.0
2.0,95.0,125.0,0.0
3.0,95.0,123.0,0.0
2.0,93.0,117.0,0.0
1.0,100.0,123.0,0.0
1.0,102.0,121.0,0.0
1.0,104.0,123.0,0.0
1.0,108.0,124.0,0.0
0.0,109.0,122.0,0.0
0.0,109.0,120.0,0.0
0.0,114.0,122.0,0.0
0.0,120.0,127.0,0.0
0.0,124.0,128.0,0.0
0.0,127.0,129.0,0.0
-1.0,123.0,122.0,0.0
-1.0,129.0,125.0,0.0
-7.0,-312.0,99.0,0.0
-6.0,-303.0,99.0,0.0
-5.0,-290.0,98.0,0.0
-5.0,-293.0,103.0,0.0
-4.0,-286.0,104.0,0.0
-3.0,-286.0,107.0,0.0
-2.0,-277.0,107.0,0.0
-2.0,-277.0,111.0,0.0
-1.0,-279.0,114.0,0.0
-1.0,-273.0,116.0,0.0
-1.0,-276.0,121.0,0.0
0.0,-274.0,122.0,0.0
0.0,-273.0,127.0,0.0
1.0,-274.0,130.0,0.0
1.0,-270.0,132.0,0.0
1.0,-276.0,139.0,0.0
2.0,-267.0,138.0,0.0
3.0,-264.0,141.0,0.0
3.0,-270.0,147.0,0.0
3.0,-287.0,160.0,0.0
4.0,-286.0,163.0,0.0
5.0,-276.0,162.0,0.0
5.0,-278.0,167.0,0.0
5.0,-256.0,158.0,0.0
5.0,-246.0,155.0,0.0
5.0,-241.0,157.0,0.0
6.0,-232.0,153.0,0.0
6.0,-226.0,152.0,0.0
6.0,-216.0,149.0,0.0
6.0,-194.0,138.0,0.0
6.0,-196.0,142.0,0.0
6.0,-179.0,133.0,0.0
7.0,-182.0,137.0,0.0
6.0,-158.0,123.0,0.0
7.0,-157.0,125.0,0.0
7.0,-159.0,129.0,0.0
7.0,-150.0,124.0,0.0
7.0,-138.0,117.0,0.0
7.0,-149.0,130.0,0.0
7.0,-136.0,120.0,0.0
7.0,-121.0,111.0,0.0
7.0,-115.0,107.0,0.0
6.0,-116.0,110.0,0.0
6.0,-106.0,102.0,0.0
6.0,-98.0,98.0,0.0
6.0,-90.0,91.0,0.0
116.0,-1678.0,1731.0,0.0
1796.0,-25141.0,26504.0,1.0
122.0,-1641.0,1768.0,0.0
1885.0,-24673.0,27165.0,1.0
1921.0,-24328.0,27375.0,1.0
127.0,-1555.0,1788.0,0.0
1987.0,-23596.0,27739.0,1.0
2016.0,-23216.0,27900.0,1.0
130.0,-1451.0,1784.0,0.0
136.0,-1469.0,1845.0,0.0
0.0,0.0,0.0,0.0
2195.0,-22383.0,29403.0,1.0
2242.0,-22197.0,29825.0,1.0
2279.0,-21913.0,30120.0,1.0
141.0,-1322.0,1860.0,0.0
147.0,-1331.0,1917.0,0.0
149.0,-1313.0,1935.0,0.0
150.0,-1281.0,1932.0,0.0
2444.0,-20358.0,31435.0,1.0
150.0,-1213.0,1920.0,0.0
154.0,-1211.0,1963.0,0.0
154.0,-1182.0,1963.0,0.0
153.0,-1138.0,1937.0,0.0
159.0,-1152.0,2011.0,0.0
158.0,-1110.0,1988.0,0.0
158.0,-1080.0,1985.0,0.0
2760.0,-18308.0,34502.0,1.0
2786.0,-17955.0,34743.0,1.0
162.0,-1015.0,2018.0,0.0
2843.0,-17293.0,35325.0,1.0
0.0,0.0,0.0,0.0
2883.0,-16529.0,35709.0,1.0
170.0,-943.0,2099.0,0.0
169.0,-915.0,2096.0,0.0
2909.0,-15231.0,35932.0,1.0
170.0,-863.0,2100.0,0.0
0.0,0.0,0.0,0.0
174.0,-830.0,2152.0,0.0
0.0,0.0,0.0,0.0
170.0,-756.0,2094.0,0.0
176.0,-754.0,2164.0,0.0
0.0,0.0,0.0,0.0
3015.0,-12102.0,37276.0,1.0
0.0,0.0,0.0,0.0
2969.0,-11061.0,36774.0,1.0
2951.0,-10579.0,36611.0,1.0
0.0,0.0,0.0,0.0
0.0,0.0,0.0,0.0
3030.0,-9592.0,37775.0,1.0
3041.0,-9209.0,37996.0,1.0
3021.0,-8735.0,37832.0,1.0
3010.0,-8295.0,37795.0,1.0
181.0,-473.0,2274.0,0.0
2949.0,-7324.0,37219.0,1.0
172.0,-405.0,2183.0,0.0
0.0,0.0,0.0,0.0
180.0,-376.0,2306.0,0.0
0.0,0.0,0.0,0.0
174.0,-315.0,2242.0,0.0
2893.0,-4838.0,37289.0,1.0
2876.0,-4419.0,37226.0,1.0
2850.0,-3991.0,37055.0,1.0
173.0,-219.0,2258.0,0.0
1571.0,-1767.0,20609.0,0.0
1476.0,-1456.0,19463.0,0.0
1455.0,-1232.0,19287.0,0.0
1455.0,-1027.0,19388.0,0.0
1569.0,-884.0,21029.0,0.0
1384.0,-582.0,18656.0,0.0
5.0,-1.0,61.0,0.0
3.0,0.0,41.0,0.0
3.0,0.0,49.0,0.0
3.0,0.0,41.0,0.0
3.0,1.0,45.0,0.0
5.0,2.0,76.0,0.0
5.0,2.0,72.0,0.0
5.0,3.0,63.0,0.0
5.0,4.0,73.0,0.0
5.0,5.0,71.0,0.0
5.0,6.0,77.0,0.0
5.0,7.0,70.0,0.0
6.0,9.0,88.0,0.0
5.0,10.0,83.0,0.0
5.0,11.0,87.0,0.0
5.0,12.0,83.0,0.0
6.0,16.0,103.0,0.0
6.0,16.0,100.0,0.0
6.0,16.0,94.0,0.0
6.0,18.0,99.0,0.0
7.0,21.0,110.0,0.0
7.0,25.0,120.0,0.0
6.0,23.0,104.0,0.0
6.0,25.0,108.0,0.0
6.0,28.0,113.0,0.0
7.0,31.0,122.0,0.0
7.0,34.0,129.0,0.0
7.0,35.0,129.0,0.0
7.0,37.0,128.0,0.0
7.0,38.0,126.0,0.0
7.0,41.0,132.0,0.0
7.0,44.0,136.0,0.0
6.0,41.0,125.0,0.0
7.0,45.0,131.0,0.0
6.0,46.0,128.0,0.0
6.0,47.0,127.0,0.0
6.0,48.0,124.0,0.0
5.0,48.0,121.0,0.0
5.0,53.0,128.0,0.0
5.0,53.0,124.0,0.0
5.0,55.0,127.0,0.0
4.0,52.0,116.0,0.0
5.0,55.0,119.0,0.0
5.0,61.0,127.0,0.0
4.0,57.0,117.0,0.0
4.0,53.0,106.0,0.0
4.0,57.0,111.0,0.0
3.0,58.0,110.0,0.0
3.0,59.0,108.0,0.0
3.0,63.0,113.0,0.0
2.0,62.0,107.0,0.0
3.0,64.0,109.0,0.0
3.0,61.0,100.0,0.0
2.0,70.0,113.0,0.0
2.0,67.0,106.0,0.0
3.0,71.0,110.0,0.0
2.0,74.0,112.0,0.0
1.0,74.0,110.0,0.0
1.0,69.0,99.0,0.0
2.0,76.0,107.0,0.0
1.0,76.0,105.0,0.0
0.0,80.0,107.0,0.0
0.0,81.0,107.0,0.0
1.0,85.0,109.0,0.0
0.0,88.0,111.0,0.0
0.0,92.0,113.0,0.0
0.0,90.0,108.0,0.0
0.0,98.0,115.0,0.0
0.0,95.0,109.0,0.0
0.0,99.0,111.0,0.0
0.0,108.0,119.0,0.0
0.0,102.0,109.0,0.0
-1.0,108.0,114.0,0.0
-2.0,112.0,115.0,0.0
-2.0,117.0,120.0,0.0
-2.0,122.0,121.0,0.0
-3.0,121.0,117.0,0.0
-9.0,-309.0,98.0,0.0
-9.0,-320.0,105.0,0.0
-8.0,-302.0,103.0,0.0
-7.0,-291.0,103.0,0.0
-7.0,-298.0,108.0,0.0
-6.0,-293.0,110.0,0.0
-6.0,-287.0,112.0,0.0
-5.0,-288.0,115.0,0.0
-5.0,-277.0,115.0,0.0
-4.0,-280.0,119.0,0.0
-4.0,-277.0,122.0,0.0
-2.0,-279.0,126.0,0.0
-2.0,-276.0,128.0,0.0
-2.0,-268.0,128.0,0.0
-1.0,-273.0,134.0,0.0
-1.0,-273.0,138.0,0.0
0.0,-274.0,142.0,0.0
0.0,-277.0,147.0,0.0
0.0,-279.0,152.0,0.0
0.0,-294.0,164.0,0.0
1.0,-292.0,168.0,0.0
2.0,-289.0,170.0,0.0
2.0,-284.0,171.0,0.0
2.0,-257.0,159.0,0.0
2.0,-260.0,164.0,0.0
2.0,-241.0,156.0,0.0
3.0,-226.0,150.0,0.0
3.0,-228.0,155.0,0.0
3.0,-216.0,150.0,0.0
4.0,-214.0,153.0,0.0
4.0,-186.0,135.0,0.0
4.0,-188.0,140.0,0.0
4.0,-181.0,137.0,0.0
5.0,-169.0,130.0,0.0
5.0,-157.0,125.0,0.0
4.0,-157.0,128.0,0.0
5.0,-150.0,125.0,0.0
5.0,-137.0,117.0,0.0
5.0,-143.0,123.0,0.0
5.0,-126.0,111.0,0.0
5.0,-119.0,107.0,0.0
5.0,-127.0,118.0,0.0
5.0,-117.0,111.0,0.0
5.0,-108.0,105.0,0.0
4.0,-92.0,91.0,0.0
824.0,-15871.0,16044.0,0.0
844.0,-15592.0,16107.0,0.0
864.0,-15329.0,16182.0,0.0
882.0,-15031.0,16215.0,0.0
901.0,-14778.0,16292.0,0.0
100.0,-1593.0,1796.0,0.0
103.0,-1561.0,1797.0,0.0
1605.0,-23591.0,27770.0,1.0
106.0,-1510.0,1817.0,0.0
1677.0,-22989.0,28280.0,1.0
110.0,-1461.0,1838.0,0.0
110.0,-1414.0,1819.0,0.0
1812.0,-22474.0,29559.0,1.0
1842.0,-22124.0,29762.0,1.0
1883.0,-21886.0,30118.0,1.0
1912.0,-21539.0,30325.0,1.0
122.0,-1338.0,1928.0,0.0
1977.0,-20922.0,30851.0,1.0
124.0,-1273.0,1922.0,0.0
128.0,-1271.0,1966.0,0.0
2058.0,-19879.0,31470.0,1.0
134.0,-1249.0,2027.0,0.0
131.0,-1191.0,1980.0,0.0
136.0,-1197.0,2040.0,0.0
132.0,-1132.0,1978.0,0.0
135.0,-1116.0,2001.0,0.0
0.0,0.0,0.0,0.0
0.0,0.0,0.0,0.0
137.0,-1042.0,2019.0,0.0
139.0,-1024.0,2039.0,0.0
2408.0,-17216.0,35195.0,1.0
143.0,-990.0,2084.0,0.0
2457.0,-16527.0,35732.0,1.0
2481.0,-16183.0,36007.0,1.0
2492.0,-15754.0,36098.0,1.0
2476.0,-15168.0,35810.0,1.0
2446.0,-14519.0,35341.0,1.0
0.0,0.0,0.0,0.0
145.0,-806.0,2093.0,0.0
2509.0,-13496.0,36157.0,1.0
152.0,-788.0,2185.0,0.0
0.0,0.0,0.0,0.0
2566.0,-12439.0,36960.0,1.0
0.0,0.0,0.0,0.0
2543.0,-11462.0,36673.0,1.0
2516.0,-10920.0,36318.0,1.0
2524.0,-10535.0,36469.0,1.0
151.0,-608.0,2199.0,0.0
154.0,-591.0,2229.0,0.0
0.0,0.0,0.0,0.0
148.0,-523.0,2163.0,0.0
156.0,-527.0,2284.0,0.0
2571.0,-8245.0,37565.0,1.0
2553.0,-7787.0,37413.0,1.0
2529.0,-7314.0,37159.0,1.0
2503.0,-6848.0,36904.0,1.0
153.0,-393.0,2256.0,0.0
149.0,-363.0,2223.0,0.0
2512.0,-5692.0,37432.0,1.0
2493.0,-5259.0,37308.0,1.0
152.0,-297.0,2286.0,0.0
153.0,-274.0,2304.0,0.0
153.0,-250.0,2320.0,0.0
1354.0,-2001.0,20650.0,0.0
1340.0,-1765.0,20536.0,0.0
1263.0,-1460.0,19467.0,0.0
1245.0,-1237.0,19303.0,0.0
1242.0,-1030.0,19364.0,0.0
1339.0,-890.0,21021.0,0.0
3.0,-1.0,40.0,0.0
1153.0,-378.0,18355.0,0.0
4.0,-1.0,62.0,0.0
3.0,0.0,47.0,0.0
3.0,0.0,61.0,0.0
5.0,1.0,81.0,0.0
3.0,1.0,54.0,0.0
3.0,2.0,58.0,0.0
4.0,3.0,67.0,0.0
4.0,4.0,69.0,0.0
5.0,5.0,79.0,0.0
3.0,5.0,62.0,0.0
5.0,8.0,88.0,0.0
5.0,10.0,97.0,0.0
4.0,9.0,78.0,0.0
6.0,13.0,108.0,0.0
6.0,14.0,105.0,0.0
6.0,15.0,101.0,0.0
5.0,17.0,108.0,0.0
6.0,20.0,120.0,0.0
5.0,18.0,101.0,0.0
6.0,23.0,119.0,0.0
6.0,25.0,120.0,0.0
5.0,23.0,109.0,0.0
6.0,29.0,125.0,0.0
6.0,29.0,123.0,0.0
6.0,34.0,133.0,0.0
7.0,36.0,137.0,0.0
6.0,36.0,132.0,0.0
6.0,37.0,129.0,0.0
5.0,40.0,133.0,0.0
5.0,40.0,129.0,0.0
5.0,44.0,136.0,0.0
5.0,45.0,133.0,0.0
6.0,48.0,140.0,0.0
5.0,49.0,134.0,0.0
4.0,48.0,131.0,0.0
5.0,54.0,138.0,0.0
5.0,54.0,134.0,0.0
3.0,51.0,124.0,0.0
4.0,59.0,140.0,0.0
4.0,57.0,130.0,0.0
4.0,53.0,118.0,0.0
3.0,58.0,125.0,0.0
3.0,61.0,129.0,0.0
3.0,57.0,115.0,0.0
2.0,59.0,118.0,0.0
2.0,63.0,123.0,0.0
2.0,65.0,121.0,0.0
2.0,66.0,123.0,0.0
2.0,64.0,115.0,0.0
2.0,67.0,119.0,0.0
1.0,63.0,107.0,0.0
1.0,70.0,116.0,0.0
1.0,72.0,117.0,0.0
1.0,72.0,114.0,0.0
1.0,76.0,117.0,0.0
0.0,76.0,114.0,0.0
0.0,78.0,114.0,0.0
1.0,83.0,121.0,0.0
0.0,81.0,114.0,0.0
0.0,82.0,113.0,0.0
0.0,88.0,119.0,0.0
0.0,87.0,114.0,0.0
0.0,90.0,116.0,0.0
0.0,96.0,122.0,0.0
0.0,91.0,112.0,0.0
-1.0,96.0,115.0,0.0
-1.0,97.0,114.0,0.0
-1.0,103.0,119.0,0.0
-2.0,107.0,120.0,0.0
-1.0,107.0,118.0,0.0
-3.0,113.0,123.0,0.0
-3.0,118.0,124.0,0.0
-3.0,118.0,122.0,0.0
-4.0,124.0,126.0,0.0
-4.0,127.0,126.0,0.0
-4.0,133.0,129.0,0.0
-12.0,-312.0,99.0,0.0
-11.0,-294.0,97.0,0.0
-10.0,-294.0,101.0,0.0
-10.0,-290.0,103.0,0.0
-9.0,-283.0,103.0,0.0
-9.0,-281.0,106.0,0.0
-8.0,-274.0,107.0,0.0
-7.0,-278.0,112.0,0.0
-7.0,-270.0,111.0,0.0
-6.0,-263.0,113.0,0.0
-6.0,-276.0,121.0,0.0
-5.0,-265.0,120.0,0.0
-5.0,-270.0,126.0,0.0
-5.0,-266.0,128.0,0.0
-3.0,-258.0,127.0,0.0
-3.0,-261.0,131.0,0.0
-3.0,-258.0,133.0,0.0
-3.0,-263.0,140.0,0.0
-3.0,-279.0,153.0,0.0
-2.0,-280.0,158.0,0.0
-2.0,-279.0,160.0,0.0
-1.0,-279.0,164.0,0.0
0.0,-272.0,164.0,0.0
0.0,-249.0,154.0,0.0
0.0,-235.0,149.0,0.0
0.0,-229.0,148.0,0.0
0.0,-236.0,157.0,0.0
1.0,-214.0,146.0,0.0
1.0,-205.0,143.0,0.0
1.0,-193.0,137.0,0.0
2.0,-194.0,141.0,0.0
2.0,-177.0,132.0,0.0
2.0,-160.0,122.0,0.0
3.0,-164.0,128.0,0.0
3.0,-150.0,119.0,0.0
3.0,-148.0,121.0,0.0
3.0,-139.0,115.0,0.0
3.0,-137.0,117.0,0.0
3.0,-138.0,120.0,0.0
3.0,-117.0,103.0,0.0
2.0,-110.0,100.0,0.0
3.0,-103.0,96.0,0.0
3.0,-102.0,97.0,0.0
3.0,-90.0,87.0,0.0
2.0,-86.0,86.0,0.0
591.0,-15859.0,16053.0,0.0
612.0,-15569.0,16104.0,0.0
633.0,-15310.0,16183.0,0.0
652.0,-15027.0,16232.0,0.0
670.0,-14751.0,16284.0,0.0
690.0,-14502.0,16359.0,0.0
708.0,-14235.0,16413.0,0.0
725.0,-13974.0,16469.0,0.0
741.0,-13710.0,16517.0,0.0
758.0,-13473.0,16593.0,0.0
774.0,-13223.0,16651.0,0.0
789.0,-12970.0,16699.0,0.0
803.0,-12713.0,16740.0,0.0
818.0,-12469.0,16794.0,0.0
833.0,-12247.0,16873.0,0.0
845.0,-12008.0,16924.0,0.0
858.0,-11772.0,16979.0,0.0
871.0,-11538.0,17033.0,0.0
881.0,-11275.0,17038.0,0.0
895.0,-11065.0,17121.0,0.0
