//X,Y,Z,Classification
1865.0,23124.0,30782.0,0.0
1413.0,17734.0,24142.0,0.0
1115.0,14160.0,19716.0,0.0
1346.0,17300.0,24642.0,0.0
1072.0,13955.0,20339.0,0.0
1054.0,13884.0,20709.0,0.0
1043.0,13920.0,21252.0,0.0
1013.0,13690.0,21401.0,0.0
1183.0,16184.0,25907.0,0.0
1158.0,16055.0,26327.0,0.0
1130.0,15887.0,26693.0,0.0
1084.0,15433.0,26578.0,0.0
1050.0,15155.0,26758.0,0.0
957.0,14000.0,25351.0,0.0
934.0,13869.0,25766.0,0.0
912.0,13743.0,26203.0,0.0
875.0,13360.0,26155.0,0.0
806.0,12497.0,25130.0,0.0
784.0,12337.0,25495.0,0.0
763.0,12194.0,25908.0,0.0
785.0,12746.0,27856.0,0.0
765.0,12614.0,28373.0,0.0
745.0,12475.0,28895.0,0.0
710.0,12102.0,28885.0,0.0
754.0,13077.0,32180.0,0.0
690.0,12171.0,30905.0,0.0
677.0,12155.0,31871.0,0.0
648.0,11836.0,32070.0,0.0
612.0,11392.0,31924.0,0.0
578.0,10990.0,31881.0,0.0
547.0,10582.0,31809.0,0.0
515.0,10168.0,31702.0,0.0
483.0,9738.0,31529.0,0.0
454.0,9361.0,31513.0,0.0
366.0,7728.0,27082.0,0.0
399.0,8605.0,31441.0,0.0
329.0,7271.0,27738.0,0.0
284.0,6445.0,25722.0,0.0
276.0,6443.0,26942.0,0.0
254.0,6084.0,26712.0,0.0
236.0,5826.0,26921.0,0.0
216.0,5520.0,26913.0,0.0
198.0,5206.0,26856.0,0.0
179.0,4887.0,26754.0,0.0
162.0,4575.0,26673.0,0.0
144.0,4266.0,26589.0,0.0
128.0,3959.0,26503.0,0.0
111.0,3650.0,26383.0,0.0
97.0,3352.0,26323.0,0.0
82.0,3059.0,26285.0,0.0
68.0,2758.0,26165.0,0.0
55.0,2471.0,26145.0,0.0
42.0,2176.0,26013.0,0.0
30.0,1886.0,25928.0,0.0
18.0,1595.0,25768.0,0.0
7.0,1307.0,25596.0,0.0
-2.0,1023.0,25406.0,0.0
-11.0,751.0,25536.0,0.0
-20.0,469.0,25219.0,0.0
-30.0,198.0,25354.0,0.0
-38.0,-75.0,25276.0,0.0
-46.0,-345.0,25083.0,0.0
-53.0,-620.0,25203.0,0.0
-60.0,-893.0,25237.0,0.0
-66.0,-1162.0,25155.0,0.0
-72.0,-1432.0,25089.0,0.0
-77.0,-1698.0,25008.0,0.0
-82.0,-1966.0,24957.0,0.0
-86.0,-2229.0,24863.0,0.0
-90.0,-2493.0,24800.0,0.0
-93.0,-2758.0,24736.0,0.0
-96.0,-3020.0,24669.0,0.0
-99.0,-3280.0,24585.0,0.0
-100.0,-3544.0,24537.0,0.0
-101.0,-3798.0,24428.0,0.0
-102.0,-4065.0,24405.0,0.0
-103.0,-4322.0,24323.0,0.0
-102.0,-4575.0,24223.0,0.0
-102.0,-4837.0,24174.0,0.0
-101.0,-5096.0,24110.0,0.0
-100.0,-5354.0,24045.0,0.0
-98.0,-5610.0,23974.0,0.0
-95.0,-5869.0,23911.0,0.0
-93.0,-6128.0,23856.0,0.0
-89.0,-6382.0,23776.0,0.0
-85.0,-6634.0,23685.0,0.0
-81.0,-6908.0,23676.0,0.0
-77.0,-7163.0,23599.0,0.0
-71.0,-7422.0,23534.0,0.0
-66.0,-7679.0,23464.0,0.0
-60.0,-7940.0,23401.0,0.0
-54.0,-8202.0,23343.0,0.0
-46.0,-8467.0,23287.0,0.0
-39.0,-8724.0,23213.0,0.0
-31.0,-8997.0,23175.0,0.0
-22.0,-9255.0,23098.0,0.0
-14.0,-9530.0,23058.0,0.0
-4.0,-9790.0,22981.0,0.0
5.0,-10048.0,22896.0,0.0
15.0,-10323.0,22850.0,0.0
26.0,-10600.0,22805.0,0.0
38.0,-10887.0,22773.0,0.0
50.0,-11160.0,22713.0,0.0
63.0,-11435.0,22652.0,0.0
76.0,-11715.0,22597.0,0.0
90.0,-11995.0,22536.0,0.0
104.0,-12286.0,22495.0,0.0
119.0,-12559.0,22416.0,0.0
135.0,-12839.0,22346.0,0.0
151.0,-13139.0,22307.0,0.0
168.0,-13441.0,22268.0,0.0
184.0,-13704.0,22159.0,0.0
203.0,-14015.0,22123.0,0.0
221.0,-14327.0,22086.0,0.0
241.0,-14641.0,22045.0,0.0
261.0,-14953.0,21996.0,0.0
282.0,-15276.0,21957.0,0.0
303.0,-15551.0,21846.0,0.0
326.0,-15887.0,21814.0,0.0
349.0,-16206.0,21756.0,0.0
371.0,-16527.0,21693.0,0.0
397.0,-16857.0,21639.0,0.0
422.0,-17221.0,21621.0,0.0
448.0,-17535.0,21533.0,0.0
475.0,-17895.0,21497.0,0.0
503.0,-18219.0,21413.0,0.0
532.0,-18577.0,21362.0,0.0
562.0,-18926.0,21294.0,0.0
593.0,-19301.0,21250.0,0.0
622.0,-19627.0,21145.0,0.0
651.0,-19858.0,20938.0,0.0
689.0,-20371.0,21019.0,0.0
723.0,-20748.0,20951.0,0.0
731.0,-20375.0,20135.0,0.0
3.0,-86.0,84.0,0.0
3.0,-84.0,80.0,0.0
3.0,-95.0,87.0,0.0
3.0,-102.0,94.0,0.0
4.0,-119.0,105.0,0.0
3.0,-101.0,87.0,0.0
5.0,-116.0,99.0,0.0
5.0,-122.0,101.0,0.0
5.0,-130.0,106.0,0.0
5.0,-120.0,96.0,0.0
6.0,-137.0,107.0,0.0
5.0,-133.0,100.0,0.0
6.0,-141.0,106.0,0.0
7.0,-154.0,112.0,0.0
7.0,-139.0,99.0,0.0
7.0,-144.0,100.0,0.0
8.0,-164.0,111.0,0.0
8.0,-162.0,107.0,0.0
9.0,-178.0,115.0,0.0
9.0,-173.0,110.0,0.0
10.0,-179.0,110.0,0.0
11.0,-185.0,111.0,0.0
11.0,-190.0,112.0,0.0
12.0,-200.0,115.0,0.0
13.0,-212.0,118.0,0.0
12.0,-206.0,112.0,0.0
13.0,-213.0,113.0,0.0
14.0,-211.0,109.0,0.0
15.0,-222.0,112.0,0.0
16.0,-242.0,119.0,0.0
16.0,-242.0,116.0,0.0
17.0,-243.0,112.0,0.0
18.0,-252.0,114.0,0.0
19.0,-263.0,115.0,0.0
18.0,-260.0,110.0,0.0
20.0,-269.0,111.0,0.0
20.0,-271.0,108.0,0.0
21.0,-269.0,104.0,0.0
23.0,-298.0,112.0,0.0
25.0,-319.0,116.0,0.0
26.0,-316.0,111.0,0.0
26.0,-320.0,108.0,0.0
27.0,-320.0,105.0,0.0
27.0,-325.0,102.0,0.0
1446.0,13563.0,13346.0,0.0
1399.0,13216.0,13284.0,0.0
1376.0,13087.0,13437.0,0.0
1371.0,13138.0,13780.0,0.0
1368.0,13210.0,14155.0,0.0
1355.0,13175.0,14423.0,0.0
1321.0,12927.0,14458.0,0.0
1305.0,12861.0,14697.0,0.0
1477.0,14671.0,17132.0,0.0
1649.0,16489.0,19677.0,0.0
1598.0,16088.0,19622.0,0.0
1362.0,13811.0,17217.0,0.0
1236.0,12626.0,16091.0,0.0
1209.0,12445.0,16214.0,0.0
1188.0,12317.0,16410.0,0.0
1442.0,15045.0,20498.0,0.0
1346.0,14143.0,19709.0,0.0
1328.0,14039.0,20014.0,0.0
1384.0,14730.0,21485.0,0.0
1294.0,13858.0,20686.0,0.0
1286.0,13868.0,21192.0,0.0
1259.0,13665.0,21380.0,0.0
1617.0,17654.0,28286.0,0.0
1412.0,15515.0,25465.0,0.0
1381.0,15262.0,25665.0,0.0
1353.0,15047.0,25936.0,0.0
1331.0,14885.0,26304.0,0.0
1315.0,14793.0,26811.0,0.0
1287.0,14555.0,27064.0,0.0
1207.0,13720.0,26183.0,0.0
1168.0,13355.0,26167.0,0.0
1128.0,12949.0,26063.0,0.0
1083.0,12493.0,25841.0,0.0
1051.0,12180.0,25903.0,0.0
1093.0,12721.0,27827.0,0.0
1079.0,12605.0,28380.0,0.0
1072.0,12560.0,29121.0,0.0
1124.0,13208.0,31555.0,0.0
1079.0,12708.0,31303.0,0.0
1034.0,12211.0,31037.0,0.0
1019.0,12051.0,31629.0,0.0
995.0,11785.0,31963.0,0.0
960.0,11369.0,31891.0,0.0
923.0,10944.0,31779.0,0.0
892.0,10561.0,31778.0,0.0
857.0,10122.0,31594.0,0.0
826.0,9744.0,31584.0,0.0
795.0,9338.0,31468.0,0.0
660.0,7725.0,27102.0,0.0
739.0,8597.0,31445.0,0.0
635.0,7334.0,28012.0,0.0
604.0,6916.0,27632.0,0.0
568.0,6446.0,26988.0,0.0
544.0,6094.0,26791.0,0.0
527.0,5824.0,26946.0,0.0
506.0,5506.0,26875.0,0.0
487.0,5198.0,26841.0,0.0
467.0,4877.0,26730.0,0.0
448.0,4569.0,26667.0,0.0
430.0,4258.0,26573.0,0.0
412.0,3951.0,26489.0,0.0
396.0,3648.0,26408.0,0.0
380.0,3349.0,26343.0,0.0
364.0,3053.0,26277.0,0.0
349.0,2755.0,26173.0,0.0
335.0,2461.0,26083.0,0.0
321.0,2168.0,25970.0,0.0
309.0,1884.0,25948.0,0.0
293.0,1582.0,25619.0,0.0
282.0,1298.0,25469.0,0.0
270.0,1017.0,25358.0,0.0
261.0,743.0,25356.0,0.0
250.0,466.0,25174.0,0.0
242.0,195.0,25340.0,0.0
233.0,-77.0,25176.0,0.0
224.0,-347.0,25077.0,0.0
219.0,-621.0,25192.0,0.0
212.0,-894.0,25199.0,0.0
206.0,-1163.0,25141.0,0.0
200.0,-1432.0,25077.0,0.0
194.0,-1699.0,25009.0,0.0
189.0,-1965.0,24933.0,0.0
184.0,-2227.0,24840.0,0.0
180.0,-2492.0,24777.0,0.0
177.0,-2753.0,24701.0,0.0
173.0,-3012.0,24607.0,0.0
171.0,-3280.0,24583.0,0.0
169.0,-3536.0,24486.0,0.0
168.0,-3801.0,24450.0,0.0
166.0,-4058.0,24370.0,0.0
166.0,-4323.0,24337.0,0.0
166.0,-4577.0,24243.0,0.0
166.0,-4836.0,24177.0,0.0
167.0,-5095.0,24118.0,0.0
168.0,-5353.0,24047.0,0.0
169.0,-5601.0,23942.0,0.0
172.0,-5866.0,23913.0,0.0
175.0,-6122.0,23845.0,0.0
179.0,-6382.0,23784.0,0.0
182.0,-6641.0,23725.0,0.0
186.0,-6900.0,23663.0,0.0
191.0,-7160.0,23605.0,0.0
196.0,-7418.0,23534.0,0.0
202.0,-7669.0,23447.0,0.0
208.0,-7943.0,23424.0,0.0
215.0,-8205.0,23364.0,0.0
222.0,-8453.0,23265.0,0.0
230.0,-8720.0,23215.0,0.0
239.0,-8994.0,23180.0,0.0
247.0,-9265.0,23137.0,0.0
256.0,-9519.0,23048.0,0.0
266.0,-9780.0,22974.0,0.0
277.0,-10069.0,22961.0,0.0
288.0,-10332.0,22886.0,0.0
299.0,-10595.0,22810.0,0.0
311.0,-10874.0,22765.0,0.0
325.0,-11160.0,22729.0,0.0
337.0,-11423.0,22643.0,0.0
351.0,-11714.0,22610.0,0.0
365.0,-11985.0,22535.0,0.0
380.0,-12280.0,22501.0,0.0
396.0,-12558.0,22433.0,0.0
412.0,-12853.0,22388.0,0.0
429.0,-13129.0,22308.0,0.0
446.0,-13420.0,22249.0,0.0
465.0,-13734.0,22226.0,0.0
483.0,-14014.0,22141.0,0.0
503.0,-14315.0,22086.0,0.0
524.0,-14620.0,22032.0,0.0
545.0,-14949.0,22006.0,0.0
567.0,-15239.0,21922.0,0.0
589.0,-15554.0,21868.0,0.0
613.0,-15878.0,21822.0,0.0
638.0,-16217.0,21789.0,0.0
660.0,-16483.0,21656.0,0.0
682.0,-16733.0,21498.0,0.0
711.0,-17122.0,21516.0,0.0
737.0,-17431.0,21425.0,0.0
765.0,-17768.0,21363.0,0.0
796.0,-18151.0,21352.0,0.0
825.0,-18449.0,21234.0,0.0
857.0,-18840.0,21217.0,0.0
875.0,-18888.0,20814.0,0.0
865.0,-18376.0,19816.0,0.0
960.0,-20012.0,21119.0,0.0
994.0,-20379.0,21046.0,0.0
1030.0,-20738.0,20960.0,0.0
1065.0,-21091.0,20862.0,0.0
4.0,-82.0,80.0,0.0
4.0,-88.0,83.0,0.0
3.0,-83.0,77.0,0.0
5.0,-104.0,95.0,0.0
5.0,-104.0,91.0,0.0
5.0,-112.0,97.0,0.0
5.0,-108.0,93.0,0.0
5.0,-100.0,84.0,0.0
6.0,-121.0,99.0,0.0
6.0,-119.0,95.0,0.0
7.0,-120.0,94.0,0.0
7.0,-138.0,105.0,0.0
7.0,-128.0,95.0,0.0
7.0,-134.0,97.0,0.0
9.0,-150.0,106.0,0.0
8.0,-148.0,102.0,0.0
9.0,-150.0,102.0,0.0
9.0,-153.0,101.0,0.0
10.0,-157.0,102.0,0.0
10.0,-160.0,101.0,0.0
12.0,-183.0,113.0,0.0
12.0,-173.0,103.0,0.0
13.0,-188.0,110.0,0.0
12.0,-176.0,101.0,0.0
14.0,-194.0,108.0,0.0
15.0,-207.0,113.0,0.0
15.0,-212.0,112.0,0.0
17.0,-223.0,115.0,0.0
17.0,-221.0,112.0,0.0
17.0,-226.0,110.0,0.0
18.0,-237.0,112.0,0.0
18.0,-237.0,110.0,0.0
19.0,-242.0,109.0,0.0
21.0,-257.0,113.0,0.0
21.0,-249.0,106.0,0.0
21.0,-259.0,106.0,0.0
21.0,-250.0,100.0,0.0
22.0,-258.0,100.0,0.0
24.0,-284.0,106.0,0.0
28.0,-309.0,112.0,0.0
28.0,-312.0,110.0,0.0
29.0,-318.0,107.0,0.0
29.0,-318.0,104.0,0.0
29.0,-312.0,98.0,0.0
1579.0,13229.0,13027.0,0.0
1565.0,13174.0,13250.0,0.0
1546.0,13070.0,13428.0,0.0
1539.0,13075.0,13724.0,0.0
1524.0,13005.0,13944.0,0.0
1510.0,12944.0,14179.0,0.0
1490.0,12834.0,14364.0,0.0
1472.0,12735.0,14564.0,0.0
1454.0,12634.0,14763.0,0.0
1444.0,12606.0,15053.0,0.0
1432.0,12542.0,15308.0,0.0
1417.0,12459.0,15543.0,0.0
1406.0,12409.0,15826.0,0.0
1394.0,12357.0,16113.0,0.0
1389.0,12347.0,16460.0,0.0
1374.0,12260.0,16716.0,0.0
1570.0,14054.0,19599.0,0.0
1685.0,15127.0,21581.0,0.0
1633.0,14696.0,21452.0,0.0
1540.0,13900.0,20765.0,0.0
1525.0,13794.0,21095.0,0.0
1505.0,13645.0,21362.0,0.0
1668.0,15149.0,24290.0,0.0
1746.0,15886.0,26092.0,0.0
1719.0,15659.0,26354.0,0.0
1687.0,15381.0,26532.0,0.0
1688.0,15401.0,27237.0,0.0
1743.0,15913.0,28862.0,0.0
1713.0,15646.0,29115.0,0.0
1504.0,13733.0,26230.0,0.0
1467.0,13379.0,26238.0,0.0
1419.0,12931.0,26049.0,0.0
1372.0,12490.0,25854.0,0.0
1341.0,12186.0,25935.0,0.0
1402.0,12707.0,27817.0,0.0
1394.0,12591.0,28371.0,0.0
1396.0,12565.0,29158.0,0.0
1461.0,13096.0,31315.0,0.0
1383.0,12340.0,30421.0,0.0
1378.0,12224.0,31095.0,0.0
1365.0,12035.0,31613.0,0.0
1346.0,11782.0,31980.0,0.0
1310.0,11367.0,31913.0,0.0
1274.0,10962.0,31860.0,0.0
1238.0,10548.0,31767.0,0.0
1205.0,10150.0,31708.0,0.0
1170.0,9741.0,31599.0,0.0
1140.0,9359.0,31568.0,0.0
956.0,7735.0,27162.0,0.0
1079.0,8588.0,31444.0,0.0
940.0,7349.0,28094.0,0.0
891.0,6826.0,27296.0,0.0
859.0,6440.0,26988.0,0.0
824.0,6025.0,26514.0,0.0
818.0,5820.0,26954.0,0.0
797.0,5509.0,26922.0,0.0
775.0,5188.0,26820.0,0.0
755.0,4872.0,26732.0,0.0
735.0,4563.0,26665.0,0.0
716.0,4255.0,26583.0,0.0
697.0,3944.0,26472.0,0.0
681.0,3649.0,26444.0,0.0
663.0,3346.0,26349.0,0.0
646.0,3041.0,26213.0,0.0
631.0,2753.0,26187.0,0.0
616.0,2462.0,26129.0,0.0
601.0,2165.0,25986.0,0.0
589.0,1881.0,25950.0,0.0
576.0,1597.0,25898.0,0.0
564.0,1313.0,25833.0,0.0
547.0,1022.0,25529.0,0.0
539.0,748.0,25618.0,0.0
523.0,465.0,25295.0,0.0
520.0,194.0,25515.0,0.0
508.0,-79.0,25320.0,0.0
503.0,-354.0,25397.0,0.0
494.0,-625.0,25307.0,0.0
486.0,-896.0,25244.0,0.0
479.0,-1165.0,25153.0,0.0
472.0,-1434.0,25088.0,0.0
467.0,-1701.0,25014.0,0.0
461.0,-1965.0,24929.0,0.0
456.0,-2230.0,24868.0,0.0
450.0,-2488.0,24740.0,0.0
446.0,-2751.0,24675.0,0.0
443.0,-3016.0,24632.0,0.0
441.0,-3277.0,24573.0,0.0
439.0,-3539.0,24511.0,0.0
438.0,-3801.0,24463.0,0.0
436.0,-4062.0,24399.0,0.0
435.0,-4321.0,24333.0,0.0
435.0,-4579.0,24258.0,0.0
435.0,-4832.0,24169.0,0.0
435.0,-5089.0,24098.0,0.0
437.0,-5344.0,24021.0,0.0
438.0,-5605.0,23970.0,0.0
441.0,-5864.0,23911.0,0.0
444.0,-6122.0,23856.0,0.0
448.0,-6381.0,23793.0,0.0
452.0,-6643.0,23747.0,0.0
455.0,-6896.0,23659.0,0.0
460.0,-7148.0,23575.0,0.0
466.0,-7416.0,23542.0,0.0
471.0,-7671.0,23464.0,0.0
478.0,-7930.0,23401.0,0.0
484.0,-8190.0,23336.0,0.0
492.0,-8453.0,23279.0,0.0
500.0,-8713.0,23211.0,0.0
509.0,-8985.0,23176.0,0.0
518.0,-9248.0,23111.0,0.0
528.0,-9511.0,23043.0,0.0
538.0,-9778.0,22984.0,0.0
548.0,-10044.0,22920.0,0.0
560.0,-10308.0,22848.0,0.0
572.0,-10592.0,22819.0,0.0
585.0,-10864.0,22758.0,0.0
598.0,-11137.0,22699.0,0.0
611.0,-11423.0,22660.0,0.0
625.0,-11685.0,22572.0,0.0
641.0,-11978.0,22538.0,0.0
657.0,-12275.0,22507.0,0.0
674.0,-12558.0,22448.0,0.0
689.0,-12817.0,22342.0,0.0
708.0,-13113.0,22298.0,0.0
725.0,-13381.0,22202.0,0.0
744.0,-13678.0,22152.0,0.0
762.0,-13960.0,22073.0,0.0
783.0,-14270.0,22032.0,0.0
804.0,-14566.0,21966.0,0.0
827.0,-14879.0,21922.0,0.0
850.0,-15220.0,21912.0,0.0
874.0,-15522.0,21839.0,0.0
899.0,-15853.0,21805.0,0.0
924.0,-16167.0,21739.0,0.0
950.0,-16487.0,21678.0,0.0
956.0,-16477.0,21187.0,0.0
1004.0,-17137.0,21551.0,0.0
1002.0,-16948.0,20848.0,0.0
1025.0,-17181.0,20675.0,0.0
1049.0,-17430.0,20520.0,0.0
1074.0,-17691.0,20378.0,0.0
1154.0,-18821.0,21215.0,0.0
1150.0,-18566.0,20476.0,0.0
1147.0,-18350.0,19805.0,0.0
1200.0,-18989.0,20057.0,0.0
1237.0,-19382.0,20035.0,0.0
1269.0,-19683.0,19912.0,0.0
1307.0,-20062.0,19862.0,0.0
5.0,-96.0,92.0,0.0
5.0,-85.0,81.0,0.0
6.0,-104.0,96.0,0.0
6.0,-97.0,88.0,0.0
8.0,-119.0,106.0,0.0
6.0,-98.0,86.0,0.0
8.0,-120.0,102.0,0.0
8.0,-119.0,99.0,0.0
9.0,-133.0,108.0,0.0
9.0,-134.0,107.0,0.0
9.0,-129.0,100.0,0.0
10.0,-151.0,115.0,0.0
9.0,-132.0,98.0,0.0
10.0,-135.0,99.0,0.0
11.0,-147.0,104.0,0.0
12.0,-152.0,105.0,0.0
11.0,-152.0,103.0,0.0
12.0,-161.0,106.0,0.0
13.0,-164.0,107.0,0.0
13.0,-173.0,110.0,0.0
13.0,-170.0,105.0,0.0
14.0,-183.0,110.0,0.0
15.0,-183.0,108.0,0.0
16.0,-199.0,115.0,0.0
17.0,-201.0,112.0,0.0
17.0,-209.0,114.0,0.0
18.0,-218.0,116.0,0.0
20.0,-229.0,119.0,0.0
19.0,-220.0,110.0,0.0
21.0,-239.0,118.0,0.0
21.0,-239.0,115.0,0.0
21.0,-240.0,111.0,0.0
23.0,-256.0,116.0,0.0
23.0,-254.0,111.0,0.0
22.0,-245.0,105.0,0.0
24.0,-256.0,106.0,0.0
25.0,-266.0,107.0,0.0
27.0,-275.0,107.0,0.0
28.0,-288.0,108.0,0.0
30.0,-312.0,113.0,0.0
32.0,-316.0,112.0,0.0
31.0,-312.0,106.0,0.0
32.0,-314.0,103.0,0.0
32.0,-317.0,100.0,0.0
1919.0,13240.0,13049.0,0.0
1904.0,13152.0,13240.0,0.0
1897.0,13117.0,13490.0,0.0
1895.0,13116.0,13779.0,0.0
1871.0,12971.0,13921.0,0.0
1936.0,13429.0,14725.0,0.0
1860.0,12909.0,14461.0,0.0
1849.0,12835.0,14693.0,0.0
1804.0,12529.0,14655.0,0.0
1749.0,12149.0,14523.0,0.0
1709.0,11865.0,14496.0,0.0
1694.0,11754.0,14678.0,0.0
1790.0,12412.0,15845.0,0.0
1781.0,12339.0,16105.0,0.0
1775.0,12284.0,16394.0,0.0
1766.0,12212.0,16668.0,0.0
1760.0,12141.0,16949.0,0.0
1753.0,12074.0,17244.0,0.0
1749.0,12020.0,17565.0,0.0
1742.0,11942.0,17860.0,0.0
1737.0,11873.0,18175.0,0.0
1731.0,11797.0,18489.0,0.0
1728.0,11727.0,18824.0,0.0
1722.0,11648.0,19154.0,0.0
1720.0,11581.0,19514.0,0.0
1715.0,11493.0,19847.0,0.0
1711.0,11406.0,20194.0,0.0
1708.0,11323.0,20560.0,0.0
1706.0,11237.0,20936.0,0.0
1705.0,11158.0,21338.0,0.0
1702.0,11062.0,21719.0,0.0
1700.0,10962.0,22109.0,0.0
1698.0,10860.0,22507.0,0.0
1700.0,10776.0,22962.0,0.0
1702.0,10686.0,23423.0,0.0
1704.0,10587.0,23884.0,0.0
1705.0,10477.0,24341.0,0.0
1707.0,10369.0,24823.0,0.0
1708.0,10245.0,25288.0,0.0
1712.0,10133.0,25809.0,0.0
1717.0,10018.0,26348.0,0.0
1913.0,10992.0,29876.0,0.0
2011.0,11366.0,31951.0,0.0
1974.0,10968.0,31919.0,0.0
1925.0,10501.0,31668.0,0.0
1891.0,10113.0,31634.0,0.0
1854.0,9705.0,31528.0,0.0
1821.0,9319.0,31476.0,0.0
1551.0,7746.0,27240.0,0.0
1764.0,8590.0,31495.0,0.0
1555.0,7367.0,28208.0,0.0
1492.0,6863.0,27487.0,0.0
1443.0,6430.0,26984.0,0.0
1402.0,6039.0,26613.0,0.0
1399.0,5809.0,26944.0,0.0
1377.0,5497.0,26903.0,0.0
1298.0,4966.0,25715.0,0.0
1313.0,4802.0,26393.0,0.0
1306.0,4542.0,26584.0,0.0
1245.0,4104.0,25689.0,0.0
1222.0,3798.0,25538.0,0.0
1248.0,3636.0,26403.0,0.0
1229.0,3335.0,26312.0,0.0
1152.0,2889.0,24950.0,0.0
1140.0,2619.0,24965.0,0.0
1132.0,2358.0,25079.0,0.0
1161.0,2162.0,25996.0,0.0
1144.0,1871.0,25875.0,0.0
1131.0,1588.0,25843.0,0.0
1113.0,1300.0,25657.0,0.0
1072.0,994.0,24923.0,0.0
1023.0,698.0,24005.0,0.0
1036.0,449.0,24502.0,0.0
1044.0,187.0,24863.0,0.0
1027.0,-79.0,24650.0,0.0
1019.0,-344.0,24590.0,0.0
1016.0,-611.0,24666.0,0.0
1002.0,-870.0,24460.0,0.0
996.0,-1133.0,24448.0,0.0
988.0,-1393.0,24355.0,0.0
985.0,-1657.0,24372.0,0.0
1001.0,-1960.0,24867.0,0.0
997.0,-2225.0,24811.0,0.0
992.0,-2489.0,24759.0,0.0
987.0,-2752.0,24697.0,0.0
986.0,-3019.0,24676.0,0.0
981.0,-3273.0,24554.0,0.0
979.0,-3536.0,24505.0,0.0
971.0,-3777.0,24324.0,0.0
976.0,-4057.0,24388.0,0.0
968.0,-4287.0,24161.0,0.0
973.0,-4572.0,24239.0,0.0
973.0,-4830.0,24180.0,0.0
973.0,-5082.0,24089.0,0.0
975.0,-5343.0,24038.0,0.0
976.0,-5601.0,23978.0,0.0
972.0,-5818.0,23748.0,0.0
979.0,-6105.0,23807.0,0.0
983.0,-6363.0,23747.0,0.0
987.0,-6621.0,23689.0,0.0
992.0,-6880.0,23630.0,0.0
998.0,-7141.0,23580.0,0.0
994.0,-7333.0,23303.0,0.0
1009.0,-7655.0,23441.0,0.0
1012.0,-7885.0,23293.0,0.0
1024.0,-8184.0,23343.0,0.0
1032.0,-8445.0,23283.0,0.0
1041.0,-8707.0,23222.0,0.0
1049.0,-8966.0,23151.0,0.0
1054.0,-9190.0,22990.0,0.0
1069.0,-9490.0,23020.0,0.0
1080.0,-9764.0,22980.0,0.0
1092.0,-10035.0,22927.0,0.0
1102.0,-10286.0,22828.0,0.0
1117.0,-10566.0,22792.0,0.0
1130.0,-10838.0,22732.0,0.0
1137.0,-11039.0,22527.0,0.0
1161.0,-11407.0,22657.0,0.0
1176.0,-11677.0,22584.0,0.0
1191.0,-11949.0,22514.0,0.0
1210.0,-12244.0,22480.0,0.0
1207.0,-12326.0,22060.0,0.0
1243.0,-12784.0,22313.0,0.0
1262.0,-13070.0,22255.0,0.0
1269.0,-13228.0,21978.0,0.0
1282.0,-13441.0,21795.0,0.0
1285.0,-13541.0,21438.0,0.0
1302.0,-13788.0,21318.0,0.0
1327.0,-14109.0,21305.0,0.0
1345.0,-14347.0,21165.0,0.0
1369.0,-14646.0,21115.0,0.0
1391.0,-14911.0,21010.0,0.0
1416.0,-15223.0,20967.0,0.0
1442.0,-15517.0,20894.0,0.0
1468.0,-15814.0,20821.0,0.0
1494.0,-16108.0,20740.0,0.0
1524.0,-16436.0,20699.0,0.0
1538.0,-16592.0,20438.0,0.0
1519.0,-16373.0,19731.0,0.0
1542.0,-16607.0,19579.0,0.0
1574.0,-16937.0,19539.0,0.0
1603.0,-17216.0,19432.0,0.0
1636.0,-17540.0,19374.0,0.0
1668.0,-17852.0,19296.0,0.0
1702.0,-18165.0,19215.0,0.0
1738.0,-18509.0,19160.0,0.0
1777.0,-18866.0,19113.0,0.0
1811.0,-19166.0,19004.0,0.0
1852.0,-19527.0,18948.0,0.0
1891.0,-19871.0,18870.0,0.0
8.0,-94.0,87.0,0.0
9.0,-105.0,95.0,0.0
9.0,-102.0,91.0,0.0
10.0,-102.0,90.0,0.0
10.0,-115.0,98.0,0.0
10.0,-115.0,96.0,0.0
11.0,-120.0,97.0,0.0
13.0,-132.0,105.0,0.0
12.0,-131.0,102.0,0.0
12.0,-128.0,98.0,0.0
14.0,-140.0,104.0,0.0
14.0,-138.0,100.0,0.0
14.0,-145.0,104.0,0.0
14.0,-145.0,101.0,0.0
14.0,-146.0,99.0,0.0
15.0,-153.0,102.0,0.0
17.0,-169.0,110.0,0.0
16.0,-163.0,104.0,0.0
18.0,-178.0,110.0,0.0
19.0,-186.0,113.0,0.0
20.0,-188.0,111.0,0.0
20.0,-199.0,114.0,0.0
21.0,-196.0,109.0,0.0
23.0,-215.0,118.0,0.0
22.0,-211.0,112.0,0.0
23.0,-215.0,112.0,0.0
24.0,-219.0,110.0,0.0
26.0,-238.0,117.0,0.0
25.0,-229.0,110.0,0.0
28.0,-249.0,116.0,0.0
29.0,-255.0,116.0,0.0
29.0,-256.0,112.0,0.0
29.0,-260.0,111.0,0.0
30.0,-263.0,109.0,0.0
31.0,-271.0,109.0,0.0
31.0,-270.0,105.0,0.0
34.0,-283.0,107.0,0.0
36.0,-307.0,112.0,0.0
38.0,-311.0,109.0,0.0
38.0,-315.0,107.0,0.0
37.0,-307.0,100.0,0.0
37.0,-305.0,97.0,0.0
2089.0,13240.0,13052.0,0.0
2075.0,13151.0,13243.0,0.0
2070.0,13118.0,13494.0,0.0
2068.0,13100.0,13766.0,0.0
2047.0,12961.0,13914.0,0.0
2093.0,13244.0,14526.0,0.0
2042.0,12912.0,14469.0,0.0
2032.0,12835.0,14696.0,0.0
2316.0,14616.0,17100.0,0.0
2256.0,14215.0,16997.0,0.0
1880.0,11819.0,14444.0,0.0
1869.0,11730.0,14653.0,0.0
2121.0,13279.0,16957.0,0.0
2132.0,13318.0,17388.0,0.0
2135.0,13302.0,17758.0,0.0
2144.0,13313.0,18176.0,0.0
2153.0,13334.0,18620.0,0.0
2163.0,13343.0,19062.0,0.0
2163.0,13294.0,19432.0,0.0
2160.0,13217.0,19773.0,0.0
2159.0,13150.0,20137.0,0.0
2189.0,13261.0,20793.0,0.0
2177.0,13119.0,21065.0,0.0
2144.0,12851.0,21138.0,0.0
2085.0,12414.0,20924.0,0.0
1969.0,11646.0,20118.0,0.0
1985.0,11655.0,20643.0,0.0
1963.0,11436.0,20776.0,0.0
1960.0,11326.0,21110.0,0.0
2386.0,13674.0,26156.0,0.0
2345.0,13312.0,26146.0,0.0
2284.0,12839.0,25905.0,0.0
2013.0,11202.0,23226.0,0.0
2349.0,12931.0,27564.0,0.0
2321.0,12622.0,27678.0,0.0
2105.0,11310.0,25528.0,0.0
2017.0,10698.0,24865.0,0.0
2018.0,10550.0,25269.0,0.0
1989.0,10248.0,25307.0,0.0
2010.0,10195.0,25979.0,0.0
2008.0,10016.0,26355.0,0.0
2264.0,11096.0,30171.0,0.0
2366.0,11384.0,32017.0,0.0
2315.0,10920.0,31793.0,0.0
2276.0,10514.0,31721.0,0.0
2235.0,10098.0,31605.0,0.0
2197.0,9695.0,31509.0,0.0
2162.0,9306.0,31445.0,0.0
1847.0,7743.0,27241.0,0.0
2106.0,8586.0,31495.0,0.0
1862.0,7366.0,28214.0,0.0
1782.0,6826.0,27351.0,0.0
1736.0,6428.0,26991.0,0.0
1704.0,6086.0,26833.0,0.0
1687.0,5795.0,26897.0,0.0
1664.0,5482.0,26843.0,0.0
1556.0,4901.0,25392.0,0.0
1533.0,4601.0,25304.0,0.0
1500.0,4278.0,25056.0,0.0
1475.0,3976.0,24902.0,0.0
1462.0,3705.0,24928.0,0.0
1452.0,3444.0,25019.0,0.0
1436.0,3167.0,24997.0,0.0
1420.0,2888.0,24950.0,0.0
1404.0,2609.0,24886.0,0.0
1387.0,2331.0,24802.0,0.0
1374.0,2060.0,24791.0,0.0
1359.0,1784.0,24693.0,0.0
1345.0,1514.0,24651.0,0.0
1335.0,1247.0,24634.0,0.0
1322.0,979.0,24577.0,0.0
1283.0,697.0,24004.0,0.0
1294.0,444.0,24348.0,0.0
1293.0,184.0,24496.0,0.0
1280.0,-79.0,24362.0,0.0
1268.0,-340.0,24248.0,0.0
1259.0,-600.0,24184.0,0.0
1253.0,-860.0,24165.0,0.0
1228.0,-1103.0,23782.0,0.0
1240.0,-1377.0,24085.0,0.0
1258.0,-1666.0,24516.0,0.0
1270.0,-1955.0,24812.0,0.0
1267.0,-2222.0,24786.0,0.0
1264.0,-2489.0,24767.0,0.0
1257.0,-2748.0,24662.0,0.0
1254.0,-3012.0,24627.0,0.0
1250.0,-3272.0,24552.0,0.0
1247.0,-3530.0,24478.0,0.0
1234.0,-3756.0,24196.0,0.0
1241.0,-4044.0,24316.0,0.0
1211.0,-4198.0,23670.0,0.0
1243.0,-4569.0,24240.0,0.0
1242.0,-4828.0,24179.0,0.0
1242.0,-5081.0,24089.0,0.0
1242.0,-5334.0,24010.0,0.0
1246.0,-5601.0,23984.0,0.0
1228.0,-5759.0,23521.0,0.0
1248.0,-6103.0,23814.0,0.0
1253.0,-6364.0,23763.0,0.0
1257.0,-6622.0,23703.0,0.0
1261.0,-6878.0,23637.0,0.0
1267.0,-7142.0,23595.0,0.0
1236.0,-7185.0,22845.0,0.0
1247.0,-7467.0,22878.0,0.0
1249.0,-7686.0,22718.0,0.0
1258.0,-7953.0,22698.0,0.0
1296.0,-8400.0,23171.0,0.0
1296.0,-8600.0,22948.0,0.0
1303.0,-8846.0,22854.0,0.0
1290.0,-8950.0,22402.0,0.0
1311.0,-9282.0,22526.0,0.0
1313.0,-9477.0,22315.0,0.0
1324.0,-9730.0,22242.0,0.0
1336.0,-9991.0,22185.0,0.0
1345.0,-10219.0,22054.0,0.0
1366.0,-10535.0,22109.0,0.0
1376.0,-10768.0,21985.0,0.0
1388.0,-11022.0,21902.0,0.0
1405.0,-11295.0,21858.0,0.0
1422.0,-11575.0,21819.0,0.0
1438.0,-11839.0,21748.0,0.0
1456.0,-12110.0,21688.0,0.0
1473.0,-12372.0,21606.0,0.0
1491.0,-12637.0,21530.0,0.0
1511.0,-12927.0,21491.0,0.0
1529.0,-13185.0,21392.0,0.0
1551.0,-13479.0,21352.0,0.0
1574.0,-13772.0,21305.0,0.0
1598.0,-14069.0,21259.0,0.0
1619.0,-14331.0,21154.0,0.0
1642.0,-14620.0,21089.0,0.0
1667.0,-14907.0,21016.0,0.0
1691.0,-15203.0,20950.0,0.0
1717.0,-15491.0,20871.0,0.0
1755.0,-15889.0,20933.0,0.0
1809.0,-16428.0,21167.0,0.0
1806.0,-16445.0,20722.0,0.0
1801.0,-16430.0,20252.0,0.0
1789.0,-16352.0,19718.0,0.0
1808.0,-16549.0,19523.0,0.0
1841.0,-16875.0,19478.0,0.0
1876.0,-17211.0,19439.0,0.0
1909.0,-17513.0,19355.0,0.0
1943.0,-17829.0,19283.0,0.0
1981.0,-18179.0,19242.0,0.0
2016.0,-18489.0,19152.0,0.0
2055.0,-18830.0,19089.0,0.0
2094.0,-19167.0,19016.0,0.0
2134.0,-19510.0,18944.0,0.0
2173.0,-19841.0,18855.0,0.0
2217.0,-20201.0,18786.0,0.0
2264.0,-20584.0,18732.0,0.0
9.0,-92.0,82.0,0.0
9.0,-90.0,78.0,0.0
11.0,-107.0,91.0,0.0
11.0,-102.0,85.0,0.0
13.0,-120.0,98.0,0.0
12.0,-115.0,93.0,0.0
12.0,-113.0,89.0,0.0
14.0,-129.0,99.0,0.0
14.0,-132.0,99.0,0.0
14.0,-129.0,94.0,0.0
14.0,-132.0,94.0,0.0
16.0,-141.0,99.0,0.0
16.0,-141.0,95.0,0.0
16.0,-150.0,100.0,0.0
17.0,-150.0,98.0,0.0
18.0,-154.0,97.0,0.0
20.0,-171.0,106.0,0.0
19.0,-172.0,103.0,0.0
21.0,-190.0,112.0,0.0
22.0,-191.0,110.0,0.0
22.0,-192.0,108.0,0.0
23.0,-194.0,106.0,0.0
24.0,-207.0,111.0,0.0
25.0,-211.0,110.0,0.0
24.0,-205.0,104.0,0.0
28.0,-228.0,112.0,0.0
28.0,-231.0,111.0,0.0
29.0,-239.0,111.0,0.0
28.0,-229.0,104.0,0.0
30.0,-249.0,109.0,0.0
31.0,-252.0,107.0,0.0
31.0,-253.0,105.0,0.0
31.0,-252.0,101.0,0.0
32.0,-257.0,100.0,0.0
35.0,-268.0,101.0,0.0
37.0,-293.0,106.0,0.0
39.0,-305.0,108.0,0.0
39.0,-300.0,103.0,0.0
39.0,-297.0,97.0,0.0
38.0,-292.0,93.0,0.0
2258.0,13232.0,13048.0,0.0
2243.0,13135.0,13230.0,0.0
2237.0,13080.0,13458.0,0.0
2237.0,13065.0,13732.0,0.0
2216.0,12918.0,13870.0,0.0
2715.0,15800.0,17331.0,0.0
2225.0,12919.0,14478.0,0.0
2214.0,12827.0,14689.0,0.0
2526.0,14595.0,17079.0,0.0
2481.0,14296.0,17096.0,0.0
2057.0,11821.0,14449.0,0.0
2048.0,11734.0,14661.0,0.0
2294.0,13094.0,16724.0,0.0
2106.0,11981.0,15645.0,0.0
2097.0,11878.0,15861.0,0.0
2094.0,11809.0,16126.0,0.0
2140.0,12011.0,16777.0,0.0
2161.0,12066.0,17242.0,0.0
2389.0,13273.0,19406.0,0.0
2390.0,13199.0,19750.0,0.0
2395.0,13149.0,20141.0,0.0
2431.0,13262.0,20797.0,0.0
2422.0,13119.0,21071.0,0.0
2387.0,12837.0,21121.0,0.0
2323.0,12395.0,20897.0,0.0
2221.0,11754.0,20311.0,0.0
2217.0,11632.0,20610.0,0.0
2198.0,11432.0,20772.0,0.0
2203.0,11343.0,21147.0,0.0
2199.0,11208.0,21446.0,0.0
2638.0,13299.0,26128.0,0.0
2569.0,12805.0,25843.0,0.0
2281.0,11235.0,23301.0,0.0
2659.0,12929.0,27571.0,0.0
2610.0,12520.0,27465.0,0.0
2390.0,11309.0,25533.0,0.0
2333.0,10877.0,25288.0,0.0
2325.0,10672.0,25569.0,0.0
2856.0,12891.0,31846.0,0.0
2305.0,10226.0,26065.0,0.0
2301.0,10025.0,26386.0,0.0
2578.0,11016.0,29963.0,0.0
2705.0,11327.0,31866.0,0.0
2666.0,10927.0,31823.0,0.0
2622.0,10507.0,31708.0,0.0
2579.0,10088.0,31582.0,0.0
2542.0,9697.0,31528.0,0.0
2507.0,9314.0,31482.0,0.0
2144.0,7743.0,27252.0,0.0
2448.0,8577.0,31471.0,0.0
2175.0,7383.0,28287.0,0.0
1873.0,6150.0,24652.0,0.0
1848.0,5855.0,24593.0,0.0
1822.0,5553.0,24496.0,0.0
1798.0,5265.0,24442.0,0.0
1775.0,4977.0,24379.0,0.0
1754.0,4695.0,24331.0,0.0
1733.0,4413.0,24272.0,0.0
1712.0,4133.0,24216.0,0.0
1692.0,3857.0,24161.0,0.0
1673.0,3580.0,24096.0,0.0
1654.0,3306.0,24031.0,0.0
1637.0,3036.0,23977.0,0.0
1623.0,2771.0,23953.0,0.0
1616.0,2520.0,24043.0,0.0
1586.0,2232.0,23769.0,0.0
1614.0,2023.0,24362.0,0.0
1614.0,1771.0,24519.0,0.0
1631.0,1532.0,24954.0,0.0
1613.0,1256.0,24813.0,0.0
1587.0,978.0,24555.0,0.0
1545.0,698.0,24045.0,0.0
1558.0,444.0,24367.0,0.0
1515.0,178.0,23806.0,0.0
1521.0,-78.0,24004.0,0.0
1522.0,-337.0,24097.0,0.0
1524.0,-600.0,24222.0,0.0
1513.0,-858.0,24139.0,0.0
1482.0,-1099.0,23713.0,0.0
1498.0,-1372.0,24019.0,0.0
1494.0,-1631.0,24007.0,0.0
1488.0,-1885.0,23943.0,0.0
1479.0,-2136.0,23847.0,0.0
1476.0,-2391.0,23796.0,0.0
1472.0,-2646.0,23761.0,0.0
1466.0,-2894.0,23672.0,0.0
1464.0,-3149.0,23639.0,0.0
1461.0,-3397.0,23564.0,0.0
1465.0,-3664.0,23611.0,0.0
1472.0,-3937.0,23689.0,0.0
1457.0,-4150.0,23411.0,0.0
1459.0,-4404.0,23375.0,0.0
1457.0,-4649.0,23297.0,0.0
1460.0,-4905.0,23268.0,0.0
1459.0,-5147.0,23180.0,0.0
1463.0,-5404.0,23156.0,0.0
1466.0,-5655.0,23105.0,0.0
1468.0,-5900.0,23034.0,0.0
1472.0,-6155.0,22996.0,0.0
1478.0,-6408.0,22951.0,0.0
1483.0,-6658.0,22893.0,0.0
1487.0,-6906.0,22823.0,0.0
1491.0,-7147.0,22736.0,0.0
1512.0,-7467.0,22890.0,0.0
1506.0,-7657.0,22641.0,0.0
1511.0,-7897.0,22549.0,0.0
1524.0,-8180.0,22576.0,0.0
1530.0,-8413.0,22463.0,0.0
1539.0,-8663.0,22392.0,0.0
1552.0,-8937.0,22383.0,0.0
1561.0,-9182.0,22293.0,0.0
1573.0,-9442.0,22243.0,0.0
1585.0,-9706.0,22199.0,0.0
1599.0,-9972.0,22154.0,0.0
1613.0,-10234.0,22099.0,0.0
1626.0,-10493.0,22034.0,0.0
1638.0,-10741.0,21940.0,0.0
1656.0,-11028.0,21927.0,0.0
1670.0,-11279.0,21838.0,0.0
1687.0,-11547.0,21777.0,0.0
1706.0,-11830.0,21742.0,0.0
1721.0,-12084.0,21652.0,0.0
1739.0,-12345.0,21570.0,0.0
1759.0,-12622.0,21514.0,0.0
2168.0,-15723.0,26150.0,1.0
2185.0,-16001.0,25976.0,1.0
2205.0,-16291.0,25821.0,1.0
2210.0,-16469.0,25490.0,1.0
2224.0,-16707.0,25256.0,1.0
2232.0,-16891.0,24948.0,1.0
2251.0,-17155.0,24760.0,1.0
2269.0,-17404.0,24550.0,1.0
2283.0,-17623.0,24300.0,1.0
2302.0,-17866.0,24085.0,1.0
2131.0,-16628.0,21919.0,0.0
2106.0,-16511.0,21285.0,0.0
2088.0,-16439.0,20727.0,0.0
2080.0,-16437.0,20272.0,0.0
2059.0,-16340.0,19714.0,0.0
2081.0,-16567.0,19555.0,0.0
2114.0,-16871.0,19484.0,0.0
2144.0,-17154.0,19385.0,0.0
2185.0,-17519.0,19373.0,0.0
2219.0,-17819.0,19283.0,0.0
2255.0,-18134.0,19205.0,0.0
2294.0,-18473.0,19146.0,0.0
2333.0,-18805.0,19075.0,0.0
2373.0,-19134.0,18994.0,0.0
2415.0,-19481.0,18927.0,0.0
2460.0,-19846.0,18870.0,0.0
2503.0,-20194.0,18790.0,0.0
9.0,-82.0,75.0,0.0
11.0,-96.0,85.0,0.0
12.0,-104.0,91.0,0.0
10.0,-91.0,77.0,0.0
13.0,-110.0,92.0,0.0
13.0,-108.0,88.0,0.0
14.0,-117.0,94.0,0.0
15.0,-126.0,99.0,0.0
15.0,-119.0,91.0,0.0
16.0,-132.0,99.0,0.0
17.0,-137.0,100.0,0.0
15.0,-127.0,91.0,0.0
17.0,-140.0,98.0,0.0
18.0,-146.0,99.0,0.0
18.0,-154.0,102.0,0.0
18.0,-147.0,95.0,0.0
21.0,-168.0,107.0,0.0
21.0,-165.0,102.0,0.0
21.0,-171.0,103.0,0.0
22.0,-174.0,102.0,0.0
23.0,-183.0,106.0,0.0
24.0,-190.0,106.0,0.0
26.0,-202.0,111.0,0.0
25.0,-194.0,104.0,0.0
28.0,-216.0,113.0,0.0
28.0,-219.0,111.0,0.0
30.0,-230.0,113.0,0.0
30.0,-231.0,111.0,0.0
31.0,-240.0,112.0,0.0
32.0,-244.0,111.0,0.0
33.0,-245.0,108.0,0.0
33.0,-245.0,104.0,0.0
34.0,-251.0,104.0,0.0
35.0,-259.0,104.0,0.0
37.0,-267.0,104.0,0.0
37.0,-272.0,103.0,0.0
40.0,-289.0,105.0,0.0
40.0,-290.0,102.0,0.0
42.0,-299.0,102.0,0.0
42.0,-293.0,96.0,0.0
42.0,-296.0,94.0,0.0
0.0,0.0,0.0,0.0
-22964.0,46689.0,38164.0,0.0
-23168.0,46221.0,38622.0,0.0
-23319.0,45647.0,38991.0,0.0
-23111.0,44383.0,38755.0,0.0
0.0,0.0,0.0,0.0
-22728.0,41995.0,38321.0,0.0
-22533.0,40832.0,38089.0,0.0
-22352.0,39716.0,37875.0,0.0
-19190.0,33433.0,32595.0,0.0
-19263.0,32898.0,32792.0,0.0
-19193.0,32128.0,32743.0,0.0
-19260.0,31595.0,32925.0,0.0
-19002.0,30543.0,32549.0,0.0
-18632.0,29340.0,31976.0,0.0
-18633.0,28740.0,32035.0,0.0
-18517.0,27969.0,31889.0,0.0
-18625.0,27543.0,32127.0,0.0
-18543.0,26844.0,32036.0,0.0
-18016.0,25524.0,31170.0,0.0
-18085.0,25068.0,31331.0,0.0
-17977.0,24375.0,31185.0,0.0
-18039.0,23920.0,31333.0,0.0
-17953.0,23273.0,31218.0,0.0
-20101.0,25468.0,34990.0,0.0
-17456.0,21609.0,30417.0,0.0
-17529.0,21196.0,30573.0,0.0
-17401.0,20545.0,30375.0,0.0
0.0,0.0,0.0,0.0
-17300.0,19454.0,30247.0,0.0
-17586.0,19288.0,30766.0,0.0
-17777.0,19011.0,31121.0,0.0
-17701.0,18446.0,31003.0,0.0
-19234.0,19524.0,33704.0,0.0
-19182.0,18958.0,33628.0,0.0
-19156.0,18423.0,33595.0,0.0
-19103.0,17869.0,33512.0,0.0
-19027.0,17301.0,33388.0,0.0
-18951.0,16740.0,33260.0,0.0
-18883.0,16195.0,33145.0,0.0
0.0,0.0,0.0,0.0
-18783.0,15153.0,32973.0,0.0
-18748.0,14653.0,32909.0,0.0
0.0,0.0,0.0,0.0
0.0,0.0,0.0,0.0
-18465.0,13057.0,32401.0,0.0
0.0,0.0,0.0,0.0
-18452.0,12148.0,32361.0,0.0
-18464.0,11710.0,32369.0,0.0
0.0,0.0,0.0,0.0
-18214.0,10679.0,31905.0,0.0
-18251.0,10268.0,31953.0,0.0
-18156.0,9786.0,31769.0,0.0
-18132.0,9349.0,31709.0,0.0
-18070.0,8896.0,31580.0,0.0
-18331.0,8600.0,32013.0,0.0
-14215.0,6341.0,24805.0,0.0
-14208.0,6012.0,24773.0,0.0
-14166.0,5671.0,24678.0,0.0
-14155.0,5345.0,24638.0,0.0
-14095.0,5005.0,24510.0,0.0
-14072.0,4681.0,24445.0,0.0
-14026.0,4351.0,24339.0,0.0
-14014.0,4035.0,24292.0,0.0
-13963.0,3711.0,24176.0,0.0
-13975.0,3406.0,24166.0,0.0
-13955.0,3095.0,24103.0,0.0
-13911.0,2781.0,23995.0,0.0
-13894.0,2475.0,23934.0,0.0
-13881.0,2170.0,23878.0,0.0
-13850.0,1866.0,23790.0,0.0
-13824.0,1565.0,23708.0,0.0
-13815.0,1267.0,23658.0,0.0
-13780.0,969.0,23559.0,0.0
-13786.0,675.0,23530.0,0.0
-13762.0,381.0,23450.0,0.0
-13754.0,89.0,23396.0,0.0
-13754.0,-201.0,23354.0,0.0
-13727.0,-490.0,23263.0,0.0
-13711.0,-778.0,23193.0,0.0
-13795.0,-1072.0,23290.0,0.0
-14363.0,-1417.0,24200.0,0.0
0.0,0.0,0.0,0.0
0.0,0.0,0.0,0.0
-20882.0,-3364.0,34960.0,2.0
-21038.0,-3826.0,35142.0,2.0
0.0,0.0,0.0,0.0
-21320.0,-4759.0,35449.0,2.0
-21451.0,-5231.0,35580.0,2.0
-21508.0,-5689.0,35588.0,2.0
0.0,0.0,0.0,0.0
0.0,0.0,0.0,0.0
0.0,0.0,0.0,0.0
0.0,0.0,0.0,0.0
0.0,0.0,0.0,0.0
-21201.0,-8216.0,34526.0,2.0
0.0,0.0,0.0,0.0
-21435.0,-9182.0,34705.0,2.0
0.0,0.0,0.0,0.0
0.0,0.0,0.0,0.0
-21274.0,-10416.0,34132.0,2.0
0.0,0.0,0.0,0.0
0.0,0.0,0.0,0.0
-21076.0,-11609.0,33487.0,2.0
-21232.0,-12128.0,33619.0,2.0
0.0,0.0,0.0,0.0
0.0,0.0,0.0,0.0
0.0,0.0,0.0,0.0
-21474.0,-14020.0,33520.0,2.0
0.0,0.0,0.0,0.0
-21435.0,-14871.0,33209.0,2.0
0.0,0.0,0.0,0.0
0.0,0.0,0.0,0.0
0.0,0.0,0.0,0.0
0.0,0.0,0.0,0.0
0.0,0.0,0.0,0.0
-20894.0,-17071.0,31580.0,2.0
-20901.0,-17509.0,31453.0,2.0
0.0,0.0,0.0,0.0
-20665.0,-18167.0,30817.0,2.0
-20566.0,-18506.0,30525.0,2.0
-20471.0,-18847.0,30238.0,2.0
-20437.0,-19241.0,30039.0,2.0
-20205.0,-19446.0,29552.0,2.0
0.0,0.0,0.0,0.0
0.0,0.0,0.0,0.0
-19633.0,-20132.0,28271.0,2.0
0.0,0.0,0.0,0.0
-15476.0,-16525.0,22042.0,0.0
-15016.0,-16353.0,21266.0,0.0
-14792.0,-16423.0,20829.0,0.0
-14441.0,-16342.0,20213.0,0.0
-14232.0,-16411.0,19801.0,0.0
-14246.0,-16735.0,19700.0,0.0
-14280.0,-17082.0,19622.0,0.0
-14306.0,-17424.0,19530.0,0.0
-14347.0,-17787.0,19459.0,0.0
-14373.0,-18134.0,19364.0,0.0
-14414.0,-18503.0,19285.0,0.0
-14463.0,-18883.0,19215.0,0.0
-14520.0,-19281.0,19153.0,0.0
-14564.0,-19663.0,19070.0,0.0
-14611.0,-20054.0,18988.0,0.0
-14620.0,-20394.0,18853.0,0.0
-14708.0,-20849.0,18817.0,0.0
-14730.0,-21213.0,18692.0,0.0
-14816.0,-21676.0,18647.0,0.0
-14845.0,-22059.0,18525.0,0.0
-14922.0,-22520.0,18461.0,0.0
-14970.0,-22939.0,18355.0,0.0
-15042.0,-23401.0,18277.0,0.0
-15034.0,-23741.0,18096.0,0.0
-1067.0,-1711.0,1273.0,0.0
-1088.0,-1770.0,1285.0,0.0
-1050.0,-1734.0,1228.0,0.0
-58.0,-100.0,69.0,0.0
-1059.0,-1800.0,1212.0,0.0
-59.0,-103.0,68.0,0.0
-61.0,-107.0,69.0,0.0
-67.0,-119.0,73.0,0.0
-64.0,-115.0,70.0,0.0
-59.0,-107.0,64.0,0.0
-65.0,-122.0,71.0,0.0
-71.0,-135.0,76.0,0.0
-71.0,-136.0,74.0,0.0
-78.0,-153.0,81.0,0.0
-84.0,-165.0,85.0,0.0
-73.0,-147.0,74.0,0.0
-84.0,-171.0,83.0,0.0
-85.0,-175.0,83.0,0.0
-86.0,-178.0,81.0,0.0
-89.0,-185.0,83.0,0.0
-90.0,-194.0,83.0,0.0
-99.0,-215.0,91.0,0.0
-99.0,-215.0,88.0,0.0
-107.0,-238.0,94.0,0.0
-107.0,-241.0,92.0,0.0
-128.0,-291.0,107.0,0.0
-139.0,-318.0,113.0,0.0
-138.0,-323.0,111.0,0.0
-135.0,-319.0,105.0,0.0
-133.0,-317.0,101.0,0.0
-129.0,-312.0,96.0,0.0
-126.0,-309.0,91.0,0.0
-122.0,-304.0,86.0,0.0
-123.0,-310.0,84.0,0.0
-120.0,-304.0,79.0,0.0
-118.0,-305.0,75.0,0.0
-122.0,-319.0,76.0,0.0
-119.0,-314.0,70.0,0.0
-117.0,-313.0,67.0,0.0
-121.0,-328.0,66.0,0.0
118.0,-312.0,62.0,0.0
115.0,-301.0,63.0,0.0
111.0,-286.0,63.0,0.0
112.0,-285.0,67.0,0.0
112.0,-279.0,69.0,0.0
113.0,-279.0,72.0,0.0
110.0,-267.0,71.0,0.0
111.0,-266.0,74.0,0.0
111.0,-263.0,77.0,0.0
113.0,-266.0,81.0,0.0
109.0,-254.0,80.0,0.0
114.0,-261.0,86.0,0.0
115.0,-258.0,88.0,0.0
117.0,-260.0,92.0,0.0
118.0,-259.0,95.0,0.0
118.0,-256.0,97.0,0.0
118.0,-252.0,99.0,0.0
120.0,-254.0,102.0,0.0
124.0,-258.0,107.0,0.0
126.0,-258.0,111.0,0.0
125.0,-254.0,113.0,0.0
125.0,-249.0,114.0,0.0
129.0,-253.0,120.0,0.0
128.0,-250.0,122.0,0.0
128.0,-245.0,123.0,0.0
129.0,-242.0,124.0,0.0
134.0,-250.0,133.0,0.0
141.0,-259.0,141.0,0.0
143.0,-260.0,145.0,0.0
147.0,-262.0,151.0,0.0
141.0,-250.0,148.0,0.0
135.0,-236.0,143.0,0.0
134.0,-230.0,143.0,0.0
121.0,-204.0,130.0,0.0
116.0,-192.0,126.0,0.0
114.0,-188.0,125.0,0.0
106.0,-172.0,118.0,0.0
100.0,-158.0,112.0,0.0
99.0,-156.0,113.0,0.0
97.0,-150.0,112.0,0.0
90.0,-138.0,105.0,0.0
85.0,-128.0,100.0,0.0
80.0,-119.0,95.0,0.0
72.0,-104.0,85.0,0.0
69.0,-100.0,83.0,0.0
70.0,-99.0,85.0,0.0
62.0,-86.0,75.0,0.0
69.0,-94.0,85.0,0.0
15205.0,-20368.0,18801.0,0.0
15144.0,-19957.0,18872.0,0.0
15119.0,-19594.0,18981.0,0.0
15062.0,-19194.0,19050.0,0.0
15012.0,-18806.0,19123.0,0.0
14974.0,-18438.0,19209.0,0.0
14917.0,-18050.0,19268.0,0.0
14902.0,-17715.0,19378.0,0.0
14849.0,-17338.0,19437.0,0.0
14830.0,-17002.0,19536.0,0.0
14781.0,-16636.0,19594.0,0.0
14927.0,-16489.0,19911.0,0.0
15311.0,-16593.0,20545.0,0.0
15580.0,-16562.0,21031.0,1.0
15889.0,-16561.0,21571.0,1.0
15736.0,-16077.0,21484.0,1.0
15629.0,-15646.0,21457.0,1.0
15662.0,-15360.0,21621.0,1.0
15870.0,-15239.0,22022.0,1.0
15848.0,-14895.0,22107.0,1.0
15693.0,-14430.0,22002.0,1.0
15536.0,-13971.0,21892.0,1.0
15397.0,-13535.0,21802.0,1.0
15410.0,-13236.0,21925.0,1.0
15488.0,-12991.0,22140.0,1.0
15527.0,-12712.0,22300.0,1.0
15567.0,-12432.0,22457.0,1.0
15468.0,-12044.0,22414.0,1.0
15448.0,-11720.0,22482.0,1.0
15303.0,-11304.0,22365.0,1.0
15296.0,-10995.0,22447.0,1.0
15274.0,-10675.0,22507.0,1.0
15365.0,-10433.0,22732.0,1.0
15454.0,-10187.0,22954.0,1.0
15451.0,-9879.0,23039.0,1.0
15321.0,-9491.0,22929.0,1.0
15243.0,-9142.0,22898.0,1.0
15219.0,-8826.0,22944.0,1.0
15228.0,-8530.0,23039.0,1.0
15225.0,-8228.0,23116.0,1.0
15375.0,-8005.0,23423.0,1.0
15428.0,-7728.0,23582.0,1.0
15430.0,-7424.0,23664.0,1.0
15286.0,-7052.0,23519.0,1.0
15220.0,-6721.0,23489.0,1.0
15198.0,-6411.0,23529.0,1.0
15296.0,-6149.0,23751.0,1.0
15254.0,-5831.0,23758.0,1.0
15134.0,-5485.0,23637.0,1.0
15187.0,-5204.0,23789.0,1.0
1188.0,-383.0,1868.0,0.0
15311.0,-4638.0,24115.0,1.0
1186.0,-335.0,1873.0,0.0
15133.0,-3982.0,23961.0,1.0
15041.0,-3657.0,23876.0,1.0
15121.0,-3375.0,24063.0,1.0
14.0,-3.0,23.0,0.0
17.0,-4.0,28.0,0.0
12.0,-2.0,20.0,0.0
22.0,-3.0,36.0,0.0
33.0,-4.0,54.0,0.0
29.0,-3.0,48.0,0.0
16.0,-1.0,26.0,0.0
20.0,-1.0,34.0,0.0
23.0,-1.0,38.0,0.0
22.0,-1.0,37.0,0.0
25.0,0.0,41.0,0.0
29.0,0.0,48.0,0.0
29.0,0.0,47.0,0.0
35.0,1.0,58.0,0.0
27.0,1.0,46.0,0.0
22.0,2.0,36.0,0.0
32.0,3.0,54.0,0.0
34.0,4.0,58.0,0.0
34.0,4.0,56.0,0.0
31.0,5.0,53.0,0.0
34.0,7.0,58.0,0.0
34.0,6.0,56.0,0.0
46.0,11.0,77.0,0.0
42.0,11.0,71.0,0.0
46.0,13.0,78.0,0.0
47.0,15.0,80.0,0.0
46.0,15.0,77.0,0.0
48.0,17.0,82.0,0.0
51.0,19.0,86.0,0.0
48.0,19.0,83.0,0.0
51.0,21.0,87.0,0.0
44.0,19.0,76.0,0.0
55.0,25.0,93.0,0.0
57.0,27.0,97.0,0.0
54.0,27.0,92.0,0.0
59.0,32.0,100.0,0.0
61.0,35.0,105.0,0.0
61.0,35.0,103.0,0.0
59.0,36.0,100.0,0.0
62.0,39.0,105.0,0.0
64.0,42.0,110.0,0.0
62.0,43.0,106.0,0.0
62.0,43.0,106.0,0.0
66.0,47.0,112.0,0.0
60.0,44.0,102.0,0.0
58.0,45.0,99.0,0.0
65.0,53.0,112.0,0.0
60.0,50.0,102.0,0.0
56.0,48.0,95.0,0.0
55.0,48.0,94.0,0.0
55.0,49.0,94.0,0.0
60.0,56.0,102.0,0.0
54.0,52.0,94.0,0.0
59.0,57.0,99.0,0.0
64.0,64.0,107.0,0.0
60.0,63.0,103.0,0.0
62.0,66.0,104.0,0.0
63.0,68.0,106.0,0.0
63.0,69.0,106.0,0.0
64.0,74.0,109.0,0.0
66.0,77.0,112.0,0.0
62.0,75.0,106.0,0.0
64.0,79.0,109.0,0.0
67.0,86.0,115.0,0.0
67.0,86.0,113.0,0.0
68.0,90.0,115.0,0.0
69.0,93.0,117.0,0.0
68.0,95.0,116.0,0.0
69.0,98.0,118.0,0.0
69.0,99.0,115.0,0.0
72.0,106.0,121.0,0.0
72.0,108.0,120.0,0.0
73.0,111.0,121.0,0.0
76.0,119.0,127.0,0.0
75.0,119.0,125.0,0.0
75.0,122.0,125.0,0.0
75.0,125.0,124.0,0.0
77.0,132.0,128.0,0.0
79.0,136.0,130.0,0.0
77.0,136.0,127.0,0.0
77.0,139.0,127.0,0.0
78.0,144.0,129.0,0.0
77.0,145.0,127.0,0.0
79.0,152.0,129.0,0.0
78.0,154.0,129.0,0.0
82.0,163.0,133.0,0.0
80.0,162.0,129.0,0.0
80.0,166.0,130.0,0.0
116.0,-312.0,64.0,0.0
114.0,-304.0,66.0,0.0
111.0,-292.0,66.0,0.0
110.0,-286.0,68.0,0.0
109.0,-279.0,70.0,0.0
108.0,-276.0,72.0,0.0
111.0,-278.0,76.0,0.0
111.0,-272.0,77.0,0.0
110.0,-268.0,79.0,0.0
115.0,-277.0,85.0,0.0
112.0,-265.0,85.0,0.0
113.0,-264.0,88.0,0.0
114.0,-262.0,91.0,0.0
114.0,-259.0,93.0,0.0
120.0,-268.0,100.0,0.0
117.0,-260.0,100.0,0.0
117.0,-257.0,102.0,0.0
119.0,-257.0,106.0,0.0
118.0,-253.0,107.0,0.0
123.0,-258.0,113.0,0.0
123.0,-255.0,115.0,0.0
124.0,-253.0,117.0,0.0
125.0,-254.0,121.0,0.0
124.0,-245.0,121.0,0.0
126.0,-248.0,125.0,0.0
128.0,-248.0,129.0,0.0
132.0,-253.0,135.0,0.0
140.0,-263.0,144.0,0.0
145.0,-269.0,152.0,0.0
142.0,-260.0,151.0,0.0
139.0,-251.0,148.0,0.0
130.0,-231.0,141.0,0.0
133.0,-232.0,146.0,0.0
120.0,-207.0,134.0,0.0
125.0,-212.0,140.0,0.0
117.0,-196.0,133.0,0.0
107.0,-177.0,123.0,0.0
105.0,-172.0,123.0,0.0
107.0,-172.0,126.0,0.0
90.0,-143.0,107.0,0.0
93.0,-145.0,111.0,0.0
87.0,-135.0,106.0,0.0
88.0,-133.0,107.0,0.0
81.0,-121.0,100.0,0.0
72.0,-106.0,89.0,0.0
74.0,-107.0,93.0,0.0
63.0,-89.0,79.0,0.0
63.0,-88.0,80.0,0.0
57.0,-78.0,72.0,0.0
55.0,-75.0,71.0,0.0
14724.0,-19492.0,18994.0,0.0
14686.0,-19116.0,19082.0,0.0
14629.0,-18720.0,19143.0,0.0
14588.0,-18347.0,19221.0,0.0
14534.0,-17962.0,19280.0,0.0
14511.0,-17618.0,19377.0,0.0
14485.0,-17274.0,19467.0,0.0
14450.0,-16921.0,19545.0,0.0
14420.0,-16576.0,19626.0,0.0
14658.0,-16536.0,20070.0,0.0
15033.0,-16641.0,20707.0,0.0
15310.0,-16623.0,21212.0,1.0
15461.0,-16460.0,21542.0,1.0
15380.0,-16050.0,21549.0,1.0
15219.0,-15562.0,21441.0,1.0
1178.0,-1179.0,1669.0,0.0
15478.0,-15181.0,22038.0,1.0
15371.0,-14756.0,21997.0,1.0
15268.0,-14342.0,21961.0,1.0
15139.0,-13906.0,21882.0,1.0
15062.0,-13525.0,21877.0,1.0
15091.0,-13241.0,22023.0,1.0
15119.0,-12956.0,22167.0,1.0
15232.0,-12740.0,22434.0,1.0
15185.0,-12390.0,22464.0,1.0
15083.0,-12000.0,22412.0,1.0
15096.0,-11702.0,22527.0,1.0
14963.0,-11295.0,22422.0,1.0
14992.0,-11012.0,22558.0,1.0
14999.0,-10713.0,22661.0,1.0
15087.0,-10470.0,22883.0,1.0
15039.0,-10132.0,22899.0,1.0
14968.0,-9782.0,22879.0,1.0
14847.0,-9403.0,22778.0,1.0
14728.0,-9031.0,22679.0,1.0
14711.0,-8724.0,22735.0,1.0
14740.0,-8444.0,22859.0,1.0
14806.0,-8183.0,23041.0,1.0
1191.0,-634.0,1861.0,0.0
14975.0,-7674.0,23462.0,1.0
14998.0,-7383.0,23573.0,1.0
14925.0,-7046.0,23532.0,1.0
14800.0,-6689.0,23410.0,1.0
14875.0,-6423.0,23600.0,1.0
14910.0,-6137.0,23725.0,1.0
14967.0,-5860.0,23887.0,1.0
14809.0,-5499.0,23703.0,1.0
14794.0,-5195.0,23747.0,1.0
14859.0,-4917.0,23917.0,1.0
14938.0,-4641.0,24110.0,1.0
14934.0,-4337.0,24166.0,1.0
22.0,-7.0,36.0,0.0
15.0,-4.0,25.0,0.0
17.0,-4.0,29.0,0.0
14.0,-3.0,23.0,0.0
22.0,-5.0,37.0,0.0
15.0,-2.0,25.0,0.0
18.0,-2.0,31.0,0.0
11.0,-2.0,20.0,0.0
13.0,-1.0,22.0,0.0
17.0,-2.0,28.0,0.0
24.0,-2.0,41.0,0.0
24.0,-1.0,42.0,0.0
26.0,0.0,45.0,0.0
26.0,0.0,44.0,0.0
24.0,0.0,41.0,0.0
26.0,0.0,43.0,0.0
35.0,1.0,60.0,0.0
25.0,1.0,43.0,0.0
35.0,2.0,60.0,0.0
28.0,3.0,48.0,0.0
37.0,5.0,64.0,0.0
35.0,5.0,61.0,0.0
42.0,7.0,73.0,0.0
33.0,6.0,57.0,0.0
42.0,9.0,71.0,0.0
46.0,11.0,78.0,0.0
51.0,13.0,87.0,0.0
40.0,11.0,70.0,0.0
48.0,15.0,83.0,0.0
51.0,17.0,90.0,0.0
54.0,19.0,94.0,0.0
52.0,19.0,90.0,0.0
62.0,25.0,107.0,0.0
54.0,23.0,94.0,0.0
52.0,23.0,89.0,0.0
57.0,27.0,99.0,0.0
57.0,28.0,100.0,0.0
55.0,29.0,97.0,0.0
68.0,37.0,117.0,0.0
59.0,33.0,102.0,0.0
60.0,36.0,104.0,0.0
60.0,37.0,104.0,0.0
62.0,39.0,107.0,0.0
63.0,42.0,110.0,0.0
64.0,43.0,111.0,0.0
61.0,43.0,107.0,0.0
65.0,49.0,115.0,0.0
58.0,44.0,101.0,0.0
58.0,46.0,101.0,0.0
61.0,49.0,106.0,0.0
59.0,49.0,103.0,0.0
59.0,50.0,103.0,0.0
53.0,48.0,93.0,0.0
57.0,52.0,99.0,0.0
55.0,53.0,97.0,0.0
57.0,55.0,100.0,0.0
60.0,60.0,103.0,0.0
62.0,64.0,108.0,0.0
58.0,62.0,103.0,0.0
58.0,62.0,100.0,0.0
59.0,66.0,104.0,0.0
63.0,72.0,111.0,0.0
61.0,70.0,105.0,0.0
62.0,74.0,108.0,0.0
62.0,75.0,107.0,0.0
62.0,78.0,109.0,0.0
63.0,82.0,110.0,0.0
65.0,86.0,113.0,0.0
64.0,86.0,111.0,0.0
65.0,90.0,113.0,0.0
66.0,94.0,115.0,0.0
67.0,97.0,116.0,0.0
69.0,102.0,120.0,0.0
72.0,108.0,125.0,0.0
69.0,106.0,119.0,0.0
72.0,112.0,124.0,0.0
69.0,111.0,120.0,0.0
72.0,118.0,123.0,0.0
71.0,119.0,122.0,0.0
74.0,127.0,127.0,0.0
75.0,131.0,128.0,0.0
72.0,128.0,122.0,0.0
75.0,135.0,127.0,0.0
78.0,143.0,132.0,0.0
78.0,147.0,133.0,0.0
79.0,151.0,133.0,0.0
77.0,150.0,129.0,0.0
79.0,158.0,133.0,0.0
77.0,158.0,130.0,0.0
76.0,157.0,127.0,0.0
75.0,160.0,126.0,0.0
118.0,-326.0,69.0,0.0
109.0,-300.0,66.0,0.0
113.0,-303.0,70.0,0.0
109.0,-291.0,70.0,0.0
105.0,-276.0,70.0,0.0
108.0,-280.0,74.0,0.0
108.0,-275.0,76.0,0.0
106.0,-268.0,77.0,0.0
110.0,-274.0,82.0,0.0
111.0,-271.0,85.0,0.0
108.0,-261.0,85.0,0.0
113.0,-272.0,91.0,0.0
111.0,-264.0,92.0,0.0
114.0,-265.0,96.0,0.0
113.0,-262.0,98.0,0.0
117.0,-265.0,102.0,0.0
121.0,-270.0,109.0,0.0
120.0,-263.0,109.0,0.0
120.0,-262.0,112.0,0.0
122.0,-263.0,115.0,0.0
120.0,-255.0,116.0,0.0
122.0,-254.0,118.0,0.0
121.0,-250.0,121.0,0.0
126.0,-255.0,126.0,0.0
126.0,-253.0,129.0,0.0
125.0,-247.0,130.0,0.0
134.0,-260.0,140.0,0.0
140.0,-268.0,149.0,0.0
145.0,-275.0,156.0,0.0
146.0,-272.0,159.0,0.0
137.0,-253.0,151.0,0.0
135.0,-245.0,151.0,0.0
130.0,-232.0,147.0,0.0
123.0,-217.0,141.0,0.0
118.0,-206.0,136.0,0.0
110.0,-189.0,129.0,0.0
109.0,-184.0,128.0,0.0
100.0,-165.0,119.0,0.0
97.0,-160.0,117.0,0.0
100.0,-162.0,121.0,0.0
92.0,-147.0,113.0,0.0
82.0,-128.0,101.0,0.0
80.0,-123.0,100.0,0.0
79.0,-120.0,100.0,0.0
70.0,-105.0,89.0,0.0
64.0,-94.0,82.0,0.0
66.0,-96.0,86.0,0.0
14472.0,-20570.0,18763.0,0.0
14440.0,-20191.0,18863.0,0.0
14380.0,-19779.0,18926.0,0.0
14332.0,-19387.0,19001.0,0.0
14318.0,-19043.0,19117.0,0.0
14235.0,-18611.0,19139.0,0.0
14223.0,-18277.0,19254.0,0.0
14189.0,-17917.0,19336.0,0.0
14147.0,-17551.0,19405.0,0.0
14117.0,-17202.0,19487.0,0.0
14088.0,-16855.0,19569.0,0.0
14061.0,-16516.0,19651.0,0.0
14298.0,-16481.0,20102.0,0.0
14631.0,-16548.0,20693.0,0.0
15005.0,-16646.0,21342.0,1.0
15182.0,-16514.0,21716.0,1.0
14931.0,-15920.0,21473.0,1.0
14879.0,-15547.0,21516.0,1.0
15043.0,-15397.0,21869.0,1.0
15090.0,-15123.0,22049.0,1.0
14983.0,-14698.0,22004.0,1.0
14829.0,-14233.0,21886.0,1.0
1141.0,-1071.0,1693.0,0.0
14806.0,-13587.0,22064.0,1.0
14759.0,-13234.0,22097.0,1.0
14784.0,-12946.0,22235.0,1.0
14841.0,-12687.0,22422.0,1.0
14741.0,-12293.0,22368.0,1.0
14757.0,-11999.0,22490.0,1.0
14694.0,-11643.0,22490.0,1.0
14627.0,-11286.0,22479.0,1.0
14665.0,-11011.0,22630.0,1.0
14713.0,-10744.0,22797.0,1.0
14682.0,-10417.0,22837.0,1.0
14621.0,-10072.0,22830.0,1.0
14470.0,-9670.0,22680.0,1.0
14374.0,-9310.0,22613.0,1.0
14397.0,-9028.0,22731.0,1.0
14386.0,-8725.0,22793.0,1.0
14360.0,-8415.0,22833.0,1.0
14377.0,-8130.0,22938.0,1.0
14461.0,-7879.0,23149.0,1.0
14549.0,-7628.0,23366.0,1.0
14599.0,-7355.0,23522.0,1.0
14572.0,-7042.0,23553.0,1.0
14457.0,-6690.0,23439.0,1.0
14517.0,-6419.0,23609.0,1.0
14575.0,-6145.0,23774.0,1.0
1159.0,-465.0,1897.0,0.0
14489.0,-5513.0,23773.0,1.0
14417.0,-5190.0,23721.0,1.0
22.0,-8.0,37.0,0.0
14457.0,-4608.0,23917.0,1.0
19.0,-6.0,32.0,0.0
23.0,-6.0,40.0,0.0
14368.0,-3687.0,23954.0,1.0
14314.0,-3377.0,23923.0,1.0
17.0,-4.0,31.0,0.0
14452.0,-2809.0,24270.0,1.0
15.0,-3.0,27.0,0.0
14790.0,-2256.0,24953.0,1.0
11.0,-2.0,20.0,0.0
13.0,-1.0,22.0,0.0
22.0,-2.0,37.0,0.0
30.0,-2.0,52.0,0.0
28.0,-1.0,49.0,0.0
32.0,-1.0,55.0,0.0
28.0,0.0,48.0,0.0
22.0,0.0,38.0,0.0
34.0,1.0,58.0,0.0
28.0,1.0,50.0,0.0
32.0,2.0,57.0,0.0
31.0,3.0,54.0,0.0
26.0,2.0,47.0,0.0
28.0,3.0,49.0,0.0
36.0,6.0,64.0,0.0
47.0,9.0,84.0,0.0
37.0,8.0,65.0,0.0
35.0,7.0,61.0,0.0
46.0,11.0,80.0,0.0
49.0,13.0,87.0,0.0
43.0,12.0,76.0,0.0
48.0,15.0,86.0,0.0
47.0,16.0,83.0,0.0
53.0,19.0,94.0,0.0
55.0,21.0,98.0,0.0
58.0,24.0,103.0,0.0
57.0,24.0,101.0,0.0
53.0,24.0,95.0,0.0
55.0,27.0,99.0,0.0
59.0,29.0,105.0,0.0
57.0,30.0,102.0,0.0
60.0,33.0,107.0,0.0
58.0,34.0,104.0,0.0
58.0,34.0,102.0,0.0
61.0,38.0,109.0,0.0
61.0,40.0,110.0,0.0
59.0,40.0,107.0,0.0
61.0,44.0,111.0,0.0
57.0,41.0,102.0,0.0
65.0,49.0,117.0,0.0
57.0,44.0,104.0,0.0
59.0,48.0,106.0,0.0
61.0,51.0,110.0,0.0
52.0,44.0,94.0,0.0
62.0,54.0,110.0,0.0
55.0,49.0,98.0,0.0
57.0,53.0,103.0,0.0
53.0,50.0,95.0,0.0
52.0,52.0,93.0,0.0
56.0,57.0,102.0,0.0
56.0,58.0,100.0,0.0
57.0,62.0,103.0,0.0
56.0,62.0,102.0,0.0
58.0,66.0,104.0,0.0
60.0,70.0,108.0,0.0
59.0,70.0,106.0,0.0
63.0,77.0,113.0,0.0
60.0,74.0,107.0,0.0
58.0,75.0,105.0,0.0
63.0,82.0,112.0,0.0
61.0,83.0,110.0,0.0
62.0,86.0,112.0,0.0
62.0,87.0,111.0,0.0
65.0,94.0,116.0,0.0
63.0,93.0,114.0,0.0
65.0,98.0,117.0,0.0
71.0,108.0,125.0,0.0
69.0,109.0,124.0,0.0
68.0,109.0,120.0,0.0
70.0,114.0,123.0,0.0
68.0,115.0,122.0,0.0
71.0,121.0,125.0,0.0
71.0,123.0,124.0,0.0
72.0,127.0,126.0,0.0
74.0,134.0,131.0,0.0
73.0,136.0,128.0,0.0
76.0,142.0,132.0,0.0
74.0,144.0,130.0,0.0
77.0,151.0,134.0,0.0
75.0,151.0,131.0,0.0
76.0,154.0,130.0,0.0
77.0,160.0,133.0,0.0
76.0,162.0,131.0,0.0
76.0,165.0,132.0,0.0
109.0,-310.0,66.0,0.0
108.0,-305.0,69.0,0.0
107.0,-297.0,70.0,0.0
106.0,-291.0,71.0,0.0
104.0,-281.0,73.0,0.0
103.0,-274.0,74.0,0.0
103.0,-273.0,77.0,0.0
105.0,-271.0,80.0,0.0
102.0,-260.0,79.0,0.0
108.0,-274.0,87.0,0.0
107.0,-266.0,87.0,0.0
109.0,-268.0,91.0,0.0
109.0,-264.0,93.0,0.0
110.0,-265.0,97.0,0.0
115.0,-271.0,103.0,0.0
113.0,-262.0,102.0,0.0
113.0,-258.0,104.0,0.0
115.0,-259.0,108.0,0.0
118.0,-263.0,114.0,0.0
120.0,-264.0,117.0,0.0
120.0,-261.0,120.0,0.0
119.0,-256.0,121.0,0.0
121.0,-254.0,124.0,0.0
120.0,-249.0,124.0,0.0
122.0,-249.0,128.0,0.0
126.0,-256.0,136.0,0.0
130.0,-259.0,141.0,0.0
140.0,-275.0,154.0,0.0
141.0,-273.0,157.0,0.0
135.0,-259.0,153.0,0.0
137.0,-258.0,156.0,0.0
123.0,-230.0,142.0,0.0
120.0,-220.0,140.0,0.0
115.0,-209.0,136.0,0.0
114.0,-203.0,136.0,0.0
103.0,-181.0,124.0,0.0
96.0,-167.0,117.0,0.0
96.0,-164.0,118.0,0.0
93.0,-156.0,115.0,0.0
84.0,-140.0,105.0,0.0
92.0,-149.0,115.0,0.0
82.0,-131.0,105.0,0.0
76.0,-120.0,98.0,0.0
