//X,Y,Z,Classification
11608.0,-16981.0,23418.0,1.0
11617.0,-16656.0,23543.0,1.0
11671.0,-16397.0,23760.0,1.0
877.0,-1207.0,1794.0,0.0
875.0,-1179.0,1797.0,0.0
11849.0,-15631.0,24439.0,1.0
865.0,-1117.0,1794.0,0.0
11894.0,-15016.0,24733.0,1.0
888.0,-1097.0,1855.0,0.0
11923.0,-14385.0,24995.0,1.0
11883.0,-14005.0,25007.0,1.0
11794.0,-13572.0,24917.0,1.0
910.0,-1023.0,1932.0,0.0
11778.0,-12901.0,25067.0,1.0
890.0,-951.0,1902.0,0.0
847.0,-882.0,1819.0,0.0
11757.0,-11907.0,25292.0,1.0
11786.0,-11615.0,25444.0,1.0
900.0,-863.0,1953.0,0.0
884.0,-823.0,1924.0,0.0
870.0,-787.0,1900.0,0.0
11612.0,-10179.0,25406.0,1.0
908.0,-771.0,1994.0,0.0
894.0,-735.0,1971.0,0.0
892.0,-709.0,1972.0,0.0
11459.0,-8806.0,25389.0,1.0
913.0,-677.0,2032.0,0.0
11447.0,-8179.0,25515.0,1.0
899.0,-617.0,2010.0,0.0
11420.0,-7545.0,25602.0,1.0
885.0,-560.0,1991.0,0.0
11417.0,-6929.0,25742.0,1.0
13.0,-7.0,31.0,0.0
884.0,-488.0,2005.0,0.0
908.0,-477.0,2064.0,0.0
877.0,-438.0,1999.0,0.0
891.0,-421.0,2036.0,0.0
4.0,-2.0,11.0,0.0
1.0,0.0,3.0,0.0
11.0,-4.0,26.0,0.0
4.0,-2.0,11.0,0.0
8.0,-3.0,19.0,0.0
9.0,-3.0,25.0,0.0
9.0,-3.0,24.0,0.0
4.0,-1.0,12.0,0.0
14.0,-3.0,33.0,0.0
14.0,-3.0,33.0,0.0
8.0,-1.0,21.0,0.0
14.0,-2.0,33.0,0.0
22.0,-3.0,52.0,0.0
18.0,-1.0,45.0,0.0
21.0,-2.0,52.0,0.0
14.0,-1.0,37.0,0.0
21.0,0.0,52.0,0.0
20.0,0.0,48.0,0.0
22.0,0.0,53.0,0.0
26.0,1.0,64.0,0.0
19.0,1.0,46.0,0.0
27.0,3.0,67.0,0.0
27.0,4.0,67.0,0.0
36.0,6.0,89.0,0.0
30.0,6.0,75.0,0.0
27.0,6.0,67.0,0.0
28.0,7.0,72.0,0.0
31.0,9.0,77.0,0.0
36.0,12.0,88.0,0.0
31.0,11.0,77.0,0.0
36.0,14.0,90.0,0.0
35.0,14.0,86.0,0.0
39.0,18.0,98.0,0.0
40.0,19.0,100.0,0.0
38.0,19.0,96.0,0.0
37.0,20.0,92.0,0.0
35.0,20.0,88.0,0.0
46.0,28.0,117.0,0.0
45.0,29.0,112.0,0.0
40.0,27.0,98.0,0.0
41.0,29.0,103.0,0.0
43.0,32.0,109.0,0.0
43.0,33.0,107.0,0.0
45.0,35.0,112.0,0.0
42.0,35.0,106.0,0.0
45.0,39.0,113.0,0.0
45.0,41.0,115.0,0.0
44.0,41.0,110.0,0.0
42.0,40.0,105.0,0.0
42.0,42.0,105.0,0.0
38.0,39.0,97.0,0.0
38.0,41.0,97.0,0.0
41.0,45.0,103.0,0.0
35.0,40.0,90.0,0.0
34.0,41.0,88.0,0.0
34.0,42.0,89.0,0.0
35.0,44.0,90.0,0.0
36.0,47.0,93.0,0.0
35.0,47.0,90.0,0.0
33.0,45.0,84.0,0.0
35.0,48.0,89.0,0.0
32.0,47.0,82.0,0.0
31.0,47.0,81.0,0.0
34.0,52.0,87.0,0.0
37.0,59.0,97.0,0.0
35.0,57.0,91.0,0.0
32.0,54.0,85.0,0.0
36.0,61.0,92.0,0.0
32.0,56.0,84.0,0.0
38.0,68.0,98.0,0.0
36.0,66.0,93.0,0.0
36.0,67.0,93.0,0.0
38.0,72.0,97.0,0.0
36.0,72.0,96.0,0.0
38.0,79.0,102.0,0.0
42.0,85.0,108.0,0.0
39.0,84.0,103.0,0.0
40.0,87.0,104.0,0.0
39.0,87.0,102.0,0.0
42.0,96.0,110.0,0.0
43.0,99.0,110.0,0.0
43.0,102.0,112.0,0.0
43.0,106.0,115.0,0.0
43.0,107.0,112.0,0.0
44.0,113.0,116.0,0.0
46.0,118.0,119.0,0.0
44.0,117.0,115.0,0.0
47.0,129.0,124.0,0.0
43.0,120.0,113.0,0.0
47.0,133.0,122.0,0.0
47.0,135.0,123.0,0.0
46.0,139.0,122.0,0.0
46.0,139.0,119.0,0.0
71.0,-296.0,75.0,0.0
70.0,-286.0,77.0,0.0
72.0,-289.0,81.0,0.0
73.0,-289.0,84.0,0.0
74.0,-287.0,86.0,0.0
74.0,-282.0,88.0,0.0
77.0,-288.0,94.0,0.0
75.0,-281.0,95.0,0.0
77.0,-281.0,98.0,0.0
78.0,-280.0,101.0,0.0
79.0,-281.0,105.0,0.0
80.0,-278.0,108.0,0.0
83.0,-284.0,113.0,0.0
83.0,-279.0,115.0,0.0
83.0,-277.0,118.0,0.0
86.0,-282.0,123.0,0.0
84.0,-270.0,122.0,0.0
87.0,-275.0,128.0,0.0
86.0,-270.0,129.0,0.0
89.0,-275.0,135.0,0.0
87.0,-264.0,133.0,0.0
89.0,-268.0,139.0,0.0
92.0,-271.0,145.0,0.0
88.0,-258.0,141.0,0.0
96.0,-273.0,153.0,0.0
98.0,-275.0,159.0,0.0
97.0,-269.0,159.0,0.0
95.0,-261.0,159.0,0.0
95.0,-255.0,159.0,0.0
91.0,-242.0,154.0,0.0
85.0,-221.0,144.0,0.0
83.0,-212.0,143.0,0.0
74.0,-189.0,130.0,0.0
76.0,-189.0,133.0,0.0
75.0,-185.0,133.0,0.0
70.0,-169.0,125.0,0.0
61.0,-146.0,111.0,0.0
59.0,-138.0,107.0,0.0
67.0,-153.0,121.0,0.0
63.0,-143.0,117.0,0.0
62.0,-137.0,114.0,0.0
57.0,-126.0,106.0,0.0
52.0,-112.0,98.0,0.0
49.0,-104.0,92.0,0.0
49.0,-102.0,93.0,0.0
9909.0,-20254.0,18843.0,0.0
46.0,-94.0,90.0,0.0
49.0,-97.0,95.0,0.0
41.0,-81.0,81.0,0.0
9836.0,-18798.0,19165.0,0.0
9808.0,-18425.0,19222.0,0.0
9775.0,-18048.0,19266.0,0.0
9770.0,-17725.0,19362.0,0.0
9762.0,-17401.0,19453.0,0.0
9743.0,-17059.0,19518.0,0.0
9725.0,-16721.0,19584.0,0.0
9713.0,-16398.0,19660.0,0.0
9950.0,-16490.0,20240.0,0.0
10132.0,-16480.0,20712.0,0.0
40.0,-64.0,82.0,0.0
10695.0,-16745.0,22075.0,0.0
11271.0,-17306.0,23372.0,1.0
848.0,-1277.0,1767.0,0.0
850.0,-1256.0,1782.0,0.0
837.0,-1212.0,1762.0,0.0
11435.0,-16194.0,24138.0,1.0
11516.0,-15970.0,24411.0,1.0
11625.0,-15780.0,24746.0,1.0
855.0,-1136.0,1829.0,0.0
11634.0,-15115.0,24969.0,1.0
860.0,-1092.0,1854.0,0.0
865.0,-1074.0,1872.0,0.0
865.0,-1049.0,1880.0,0.0
11634.0,-13775.0,25356.0,1.0
844.0,-976.0,1850.0,0.0
11555.0,-13023.0,25370.0,1.0
855.0,-940.0,1886.0,0.0
11485.0,-12294.0,25397.0,1.0
11526.0,-12013.0,25575.0,1.0
11547.0,-11710.0,25711.0,1.0
873.0,-861.0,1953.0,0.0
11524.0,-11041.0,25832.0,1.0
11392.0,-10597.0,25622.0,1.0
11364.0,-10253.0,25640.0,1.0
864.0,-756.0,1957.0,0.0
885.0,-749.0,2012.0,0.0
855.0,-700.0,1948.0,0.0
841.0,-665.0,1923.0,0.0
862.0,-658.0,1977.0,0.0
867.0,-638.0,1995.0,0.0
11208.0,-7936.0,25833.0,1.0
875.0,-596.0,2025.0,0.0
11133.0,-7267.0,25804.0,1.0
869.0,-543.0,2021.0,0.0
885.0,-528.0,2064.0,0.0
864.0,-492.0,2021.0,0.0
882.0,-478.0,2068.0,0.0
844.0,-435.0,1985.0,0.0
853.0,-416.0,2012.0,0.0
12.0,-6.0,30.0,0.0
9.0,-5.0,22.0,0.0
15.0,-7.0,38.0,0.0
18.0,-7.0,43.0,0.0
7.0,-3.0,19.0,0.0
13.0,-5.0,33.0,0.0
6.0,-2.0,15.0,0.0
12.0,-3.0,29.0,0.0
4.0,-1.0,11.0,0.0
14.0,-3.0,36.0,0.0
18.0,-3.0,44.0,0.0
16.0,-3.0,41.0,0.0
17.0,-2.0,43.0,0.0
17.0,-2.0,43.0,0.0
21.0,-2.0,52.0,0.0
25.0,-1.0,63.0,0.0
18.0,0.0,47.0,0.0
21.0,0.0,54.0,0.0
27.0,0.0,69.0,0.0
24.0,1.0,63.0,0.0
27.0,2.0,69.0,0.0
25.0,3.0,64.0,0.0
27.0,4.0,70.0,0.0
27.0,5.0,72.0,0.0
23.0,4.0,58.0,0.0
30.0,7.0,77.0,0.0
35.0,10.0,88.0,0.0
32.0,9.0,81.0,0.0
33.0,11.0,86.0,0.0
36.0,13.0,93.0,0.0
33.0,12.0,84.0,0.0
41.0,17.0,104.0,0.0
37.0,17.0,96.0,0.0
35.0,17.0,91.0,0.0
35.0,18.0,90.0,0.0
39.0,22.0,101.0,0.0
43.0,25.0,111.0,0.0
43.0,26.0,110.0,0.0
43.0,29.0,114.0,0.0
43.0,30.0,114.0,0.0
42.0,30.0,108.0,0.0
43.0,33.0,114.0,0.0
45.0,35.0,116.0,0.0
42.0,34.0,111.0,0.0
44.0,38.0,113.0,0.0
45.0,40.0,118.0,0.0
47.0,43.0,121.0,0.0
46.0,44.0,121.0,0.0
44.0,44.0,114.0,0.0
45.0,47.0,119.0,0.0
38.0,41.0,101.0,0.0
39.0,44.0,104.0,0.0
38.0,43.0,99.0,0.0
36.0,43.0,97.0,0.0
36.0,45.0,97.0,0.0
38.0,48.0,100.0,0.0
37.0,48.0,97.0,0.0
35.0,49.0,96.0,0.0
37.0,51.0,99.0,0.0
35.0,51.0,96.0,0.0
35.0,50.0,93.0,0.0
32.0,48.0,86.0,0.0
33.0,51.0,89.0,0.0
35.0,56.0,95.0,0.0
36.0,59.0,97.0,0.0
34.0,57.0,91.0,0.0
36.0,63.0,99.0,0.0
37.0,65.0,100.0,0.0
36.0,66.0,100.0,0.0
36.0,68.0,98.0,0.0
36.0,68.0,97.0,0.0
35.0,69.0,96.0,0.0
35.0,71.0,97.0,0.0
35.0,72.0,95.0,0.0
37.0,76.0,98.0,0.0
39.0,83.0,105.0,0.0
37.0,83.0,103.0,0.0
39.0,90.0,108.0,0.0
39.0,91.0,108.0,0.0
41.0,95.0,110.0,0.0
41.0,99.0,112.0,0.0
43.0,106.0,117.0,0.0
40.0,103.0,111.0,0.0
42.0,107.0,112.0,0.0
42.0,113.0,117.0,0.0
42.0,114.0,116.0,0.0
44.0,121.0,120.0,0.0
44.0,125.0,121.0,0.0
43.0,124.0,118.0,0.0
45.0,131.0,121.0,0.0
45.0,135.0,123.0,0.0
46.0,140.0,124.0,0.0
45.0,143.0,124.0,0.0
63.0,-271.0,70.0,0.0
65.0,-274.0,75.0,0.0
67.0,-278.0,78.0,0.0
67.0,-272.0,80.0,0.0
70.0,-282.0,86.0,0.0
70.0,-278.0,88.0,0.0
71.0,-274.0,90.0,0.0
70.0,-272.0,93.0,0.0
73.0,-277.0,98.0,0.0
74.0,-276.0,100.0,0.0
74.0,-272.0,103.0,0.0
74.0,-267.0,104.0,0.0
77.0,-273.0,111.0,0.0
77.0,-269.0,112.0,0.0
80.0,-274.0,117.0,0.0
79.0,-270.0,119.0,0.0
79.0,-266.0,121.0,0.0
80.0,-264.0,123.0,0.0
83.0,-269.0,129.0,0.0
82.0,-262.0,130.0,0.0
83.0,-260.0,132.0,0.0
83.0,-257.0,134.0,0.0
85.0,-259.0,139.0,0.0
83.0,-250.0,138.0,0.0
88.0,-258.0,146.0,0.0
91.0,-265.0,154.0,0.0
94.0,-267.0,159.0,0.0
91.0,-257.0,157.0,0.0
85.0,-235.0,148.0,0.0
82.0,-225.0,144.0,0.0
82.0,-220.0,144.0,0.0
75.0,-199.0,134.0,0.0
77.0,-200.0,138.0,0.0
67.0,-172.0,122.0,0.0
68.0,-173.0,125.0,0.0
67.0,-169.0,125.0,0.0
59.0,-145.0,109.0,0.0
54.0,-133.0,103.0,0.0
52.0,-124.0,99.0,0.0
52.0,-122.0,99.0,0.0
51.0,-119.0,99.0,0.0
46.0,-103.0,88.0,0.0
41.0,-92.0,80.0,0.0
42.0,-93.0,83.0,0.0
40.0,-87.0,79.0,0.0
35.0,-76.0,70.0,0.0
9548.0,-19786.0,18913.0,0.0
41.0,-83.0,82.0,0.0
9519.0,-19069.0,19079.0,0.0
9498.0,-18708.0,19150.0,0.0
9470.0,-18334.0,19202.0,0.0
9460.0,-17996.0,19285.0,0.0
9443.0,-17653.0,19358.0,0.0
9435.0,-17326.0,19442.0,0.0
9418.0,-16989.0,19511.0,0.0
9404.0,-16659.0,19581.0,0.0
9394.0,-16339.0,19658.0,0.0
9656.0,-16485.0,20305.0,0.0
9829.0,-16469.0,20770.0,0.0
10108.0,-16616.0,21459.0,0.0
10403.0,-16776.0,22190.0,0.0
10949.0,-17314.0,23461.0,1.0
814.0,-1262.0,1753.0,0.0
11119.0,-16896.0,24038.0,1.0
794.0,-1182.0,1725.0,0.0
826.0,-1205.0,1804.0,0.0
825.0,-1179.0,1808.0,0.0
11286.0,-15776.0,24814.0,1.0
837.0,-1145.0,1849.0,0.0
835.0,-1118.0,1853.0,0.0
834.0,-1091.0,1857.0,0.0
11342.0,-14497.0,25329.0,1.0
868.0,-1084.0,1947.0,0.0
11325.0,-13808.0,25483.0,1.0
840.0,-1000.0,1898.0,0.0
820.0,-953.0,1862.0,0.0
816.0,-923.0,1858.0,0.0
818.0,-902.0,1869.0,0.0
822.0,-882.0,1885.0,0.0
833.0,-871.0,1917.0,0.0
849.0,-863.0,1959.0,0.0
825.0,-814.0,1909.0,0.0
838.0,-802.0,1945.0,0.0
821.0,-763.0,1913.0,0.0
824.0,-742.0,1925.0,0.0
824.0,-719.0,1933.0,0.0
844.0,-712.0,1987.0,0.0
11045.0,-9003.0,26034.0,1.0
850.0,-669.0,2012.0,0.0
839.0,-635.0,1990.0,0.0
854.0,-623.0,2031.0,0.0
10911.0,-7652.0,26019.0,1.0
6.0,-3.0,14.0,0.0
10880.0,-7012.0,26090.0,1.0
10883.0,-6705.0,26169.0,1.0
10833.0,-6367.0,26119.0,1.0
846.0,-473.0,2048.0,0.0
10774.0,-5721.0,26114.0,1.0
0.0,0.0,0.0,0.0
12.0,-6.0,31.0,0.0
4.0,-2.0,11.0,0.0
9.0,-4.0,23.0,0.0
10.0,-4.0,26.0,0.0
4.0,-2.0,14.0,0.0
4.0,-2.0,14.0,0.0
4.0,-2.0,14.0,0.0
7.0,-2.0,20.0,0.0
3.0,0.0,8.0,0.0
7.0,-2.0,18.0,0.0
7.0,-2.0,18.0,0.0
7.0,-1.0,19.0,0.0
14.0,-2.0,37.0,0.0
14.0,-2.0,37.0,0.0
16.0,-1.0,41.0,0.0
15.0,0.0,40.0,0.0
18.0,0.0,47.0,0.0
19.0,0.0,48.0,0.0
17.0,0.0,45.0,0.0
20.0,1.0,55.0,0.0
18.0,1.0,47.0,0.0
20.0,2.0,54.0,0.0
22.0,3.0,59.0,0.0
26.0,4.0,70.0,0.0
21.0,4.0,55.0,0.0
29.0,7.0,77.0,0.0
27.0,7.0,71.0,0.0
27.0,8.0,70.0,0.0
31.0,10.0,81.0,0.0
34.0,13.0,88.0,0.0
28.0,12.0,75.0,0.0
26.0,12.0,70.0,0.0
29.0,14.0,78.0,0.0
34.0,18.0,93.0,0.0
33.0,18.0,88.0,0.0
36.0,20.0,96.0,0.0
32.0,19.0,86.0,0.0
39.0,25.0,106.0,0.0
36.0,25.0,98.0,0.0
37.0,26.0,100.0,0.0
36.0,26.0,95.0,0.0
36.0,27.0,95.0,0.0
35.0,29.0,95.0,0.0
39.0,33.0,106.0,0.0
41.0,36.0,110.0,0.0
39.0,35.0,106.0,0.0
32.0,31.0,88.0,0.0
41.0,41.0,113.0,0.0
39.0,40.0,106.0,0.0
36.0,38.0,99.0,0.0
32.0,35.0,86.0,0.0
31.0,36.0,86.0,0.0
32.0,38.0,89.0,0.0
34.0,41.0,93.0,0.0
31.0,39.0,85.0,0.0
32.0,41.0,88.0,0.0
29.0,39.0,83.0,0.0
26.0,36.0,73.0,0.0
30.0,42.0,83.0,0.0
31.0,45.0,86.0,0.0
31.0,47.0,86.0,0.0
30.0,47.0,84.0,0.0
31.0,50.0,87.0,0.0
31.0,51.0,87.0,0.0
30.0,51.0,85.0,0.0
33.0,58.0,93.0,0.0
30.0,53.0,83.0,0.0
30.0,55.0,85.0,0.0
28.0,52.0,80.0,0.0
32.0,62.0,91.0,0.0
30.0,59.0,85.0,0.0
32.0,64.0,89.0,0.0
32.0,66.0,90.0,0.0
32.0,70.0,93.0,0.0
34.0,74.0,95.0,0.0
34.0,77.0,98.0,0.0
34.0,77.0,95.0,0.0
35.0,81.0,99.0,0.0
36.0,85.0,101.0,0.0
36.0,89.0,104.0,0.0
35.0,89.0,101.0,0.0
36.0,93.0,104.0,0.0
38.0,100.0,110.0,0.0
37.0,100.0,106.0,0.0
39.0,104.0,108.0,0.0
39.0,107.0,109.0,0.0
41.0,115.0,115.0,0.0
39.0,114.0,112.0,0.0
41.0,122.0,116.0,0.0
40.0,121.0,113.0,0.0
41.0,128.0,117.0,0.0
42.0,136.0,122.0,0.0
42.0,136.0,119.0,0.0
62.0,-277.0,73.0,0.0
63.0,-276.0,76.0,0.0
65.0,-283.0,80.0,0.0
65.0,-278.0,83.0,0.0
67.0,-281.0,86.0,0.0
68.0,-282.0,90.0,0.0
67.0,-272.0,91.0,0.0
69.0,-276.0,95.0,0.0
70.0,-273.0,98.0,0.0
72.0,-279.0,103.0,0.0
73.0,-277.0,106.0,0.0
73.0,-274.0,108.0,0.0
75.0,-277.0,112.0,0.0
75.0,-275.0,115.0,0.0
75.0,-271.0,117.0,0.0
78.0,-274.0,122.0,0.0
79.0,-271.0,124.0,0.0
79.0,-267.0,125.0,0.0
79.0,-264.0,128.0,0.0
81.0,-269.0,134.0,0.0
79.0,-257.0,132.0,0.0
81.0,-260.0,138.0,0.0
82.0,-260.0,141.0,0.0
81.0,-252.0,140.0,0.0
88.0,-268.0,152.0,0.0
89.0,-270.0,158.0,0.0
91.0,-269.0,161.0,0.0
85.0,-248.0,152.0,0.0
82.0,-235.0,148.0,0.0
80.0,-228.0,147.0,0.0
74.0,-207.0,138.0,0.0
74.0,-202.0,138.0,0.0
71.0,-190.0,132.0,0.0
65.0,-174.0,124.0,0.0
65.0,-169.0,123.0,0.0
66.0,-171.0,128.0,0.0
58.0,-146.0,112.0,0.0
52.0,-132.0,103.0,0.0
55.0,-136.0,109.0,0.0
49.0,-120.0,98.0,0.0
52.0,-125.0,105.0,0.0
50.0,-118.0,101.0,0.0
39.0,-90.0,80.0,0.0
37.0,-84.0,75.0,0.0
38.0,-85.0,78.0,0.0
40.0,-87.0,82.0,0.0
35.0,-75.0,73.0,0.0
9198.0,-19334.0,18985.0,0.0
9199.0,-19012.0,19098.0,0.0
9179.0,-18647.0,19164.0,0.0
9167.0,-18303.0,19244.0,0.0
9154.0,-17960.0,19319.0,0.0
9135.0,-17609.0,19382.0,0.0
9120.0,-17272.0,19453.0,0.0
9111.0,-16946.0,19532.0,0.0
9109.0,-16637.0,19626.0,0.0
9166.0,-16435.0,19844.0,0.0
9336.0,-16433.0,20311.0,0.0
9548.0,-16492.0,20870.0,0.0
9810.0,-16625.0,21543.0,0.0
789.0,-1313.0,1742.0,0.0
10688.0,-17422.0,23682.0,1.0
794.0,-1271.0,1771.0,0.0
796.0,-1247.0,1781.0,0.0
789.0,-1212.0,1773.0,0.0
808.0,-1215.0,1822.0,0.0
800.0,-1178.0,1812.0,0.0
805.0,-1161.0,1832.0,0.0
11033.0,-15552.0,25172.0,1.0
803.0,-1108.0,1840.0,0.0
792.0,-1068.0,1824.0,0.0
816.0,-1076.0,1885.0,0.0
11038.0,-14204.0,25567.0,1.0
822.0,-1033.0,1912.0,0.0
10994.0,-13482.0,25652.0,1.0
11007.0,-13166.0,25772.0,1.0
806.0,-940.0,1896.0,0.0
10973.0,-12467.0,25873.0,1.0
10935.0,-12096.0,25868.0,1.0
10957.0,-11794.0,26007.0,1.0
842.0,-882.0,2007.0,0.0
823.0,-837.0,1968.0,0.0
828.0,-818.0,1987.0,0.0
820.0,-785.0,1972.0,0.0
819.0,-760.0,1977.0,0.0
819.0,-737.0,1985.0,0.0
829.0,-721.0,2012.0,0.0
807.0,-678.0,1968.0,0.0
820.0,-665.0,2005.0,0.0
840.0,-656.0,2058.0,0.0
825.0,-621.0,2028.0,0.0
814.0,-588.0,2004.0,0.0
814.0,-565.0,2013.0,0.0
815.0,-541.0,2019.0,0.0
815.0,-518.0,2027.0,0.0
10561.0,-6406.0,26291.0,1.0
831.0,-479.0,2076.0,0.0
832.0,-456.0,2083.0,0.0
10483.0,-5441.0,26300.0,1.0
6.0,-3.0,16.0,0.0
825.0,-380.0,2082.0,0.0
7.0,-4.0,19.0,0.0
5.0,-2.0,15.0,0.0
1.0,-1.0,6.0,0.0
10.0,-3.0,27.0,0.0
5.0,-2.0,15.0,0.0
4.0,-1.0,13.0,0.0
17.0,-5.0,45.0,0.0
9.0,-2.0,25.0,0.0
11.0,-2.0,30.0,0.0
8.0,-2.0,23.0,0.0
12.0,-2.0,34.0,0.0
14.0,-1.0,40.0,0.0
16.0,-1.0,43.0,0.0
10.0,0.0,27.0,0.0
16.0,0.0,43.0,0.0
13.0,0.0,35.0,0.0
16.0,0.0,44.0,0.0
17.0,0.0,47.0,0.0
16.0,1.0,43.0,0.0
27.0,3.0,73.0,0.0
23.0,3.0,64.0,0.0
21.0,4.0,59.0,0.0
26.0,5.0,70.0,0.0
31.0,7.0,85.0,0.0
26.0,6.0,70.0,0.0
30.0,10.0,82.0,0.0
27.0,9.0,76.0,0.0
27.0,10.0,74.0,0.0
28.0,12.0,78.0,0.0
33.0,15.0,92.0,0.0
33.0,15.0,89.0,0.0
34.0,17.0,95.0,0.0
33.0,19.0,93.0,0.0
35.0,20.0,95.0,0.0
36.0,22.0,100.0,0.0
36.0,23.0,101.0,0.0
38.0,26.0,106.0,0.0
40.0,29.0,112.0,0.0
39.0,30.0,108.0,0.0
42.0,33.0,117.0,0.0
38.0,31.0,104.0,0.0
42.0,37.0,119.0,0.0
39.0,35.0,110.0,0.0
39.0,36.0,110.0,0.0
41.0,40.0,114.0,0.0
38.0,39.0,109.0,0.0
37.0,39.0,104.0,0.0
35.0,39.0,101.0,0.0
35.0,40.0,102.0,0.0
31.0,35.0,87.0,0.0
37.0,46.0,106.0,0.0
34.0,42.0,97.0,0.0
31.0,40.0,89.0,0.0
34.0,46.0,98.0,0.0
31.0,42.0,88.0,0.0
31.0,45.0,90.0,0.0
31.0,46.0,90.0,0.0
33.0,49.0,94.0,0.0
29.0,45.0,84.0,0.0
30.0,49.0,88.0,0.0
29.0,47.0,82.0,0.0
30.0,53.0,89.0,0.0
30.0,53.0,89.0,0.0
32.0,57.0,92.0,0.0
29.0,55.0,86.0,0.0
32.0,61.0,95.0,0.0
29.0,56.0,86.0,0.0
32.0,64.0,95.0,0.0
34.0,68.0,97.0,0.0
31.0,64.0,89.0,0.0
32.0,70.0,95.0,0.0
30.0,66.0,88.0,0.0
33.0,73.0,96.0,0.0
31.0,73.0,93.0,0.0
34.0,80.0,101.0,0.0
32.0,78.0,95.0,0.0
36.0,89.0,106.0,0.0
35.0,87.0,102.0,0.0
35.0,92.0,105.0,0.0
35.0,93.0,105.0,0.0
38.0,103.0,113.0,0.0
36.0,101.0,107.0,0.0
37.0,104.0,109.0,0.0
38.0,112.0,113.0,0.0
38.0,112.0,111.0,0.0
38.0,114.0,112.0,0.0
39.0,121.0,116.0,0.0
40.0,125.0,118.0,0.0
40.0,128.0,118.0,0.0
39.0,129.0,116.0,0.0
39.0,135.0,118.0,0.0
59.0,-275.0,73.0,0.0
59.0,-269.0,74.0,0.0
60.0,-272.0,78.0,0.0
60.0,-267.0,80.0,0.0
64.0,-276.0,86.0,0.0
64.0,-273.0,88.0,0.0
65.0,-274.0,92.0,0.0
63.0,-264.0,92.0,0.0
66.0,-270.0,97.0,0.0
67.0,-268.0,100.0,0.0
67.0,-265.0,101.0,0.0
67.0,-262.0,104.0,0.0
70.0,-268.0,109.0,0.0
70.0,-264.0,112.0,0.0
72.0,-269.0,117.0,0.0
72.0,-264.0,118.0,0.0
73.0,-262.0,121.0,0.0
74.0,-265.0,126.0,0.0
75.0,-263.0,128.0,0.0
75.0,-256.0,129.0,0.0
75.0,-256.0,132.0,0.0
75.0,-250.0,132.0,0.0
78.0,-253.0,138.0,0.0
80.0,-257.0,143.0,0.0
83.0,-263.0,150.0,0.0
84.0,-262.0,155.0,0.0
84.0,-258.0,156.0,0.0
81.0,-245.0,152.0,0.0
74.0,-221.0,140.0,0.0
70.0,-204.0,133.0,0.0
69.0,-200.0,133.0,0.0
67.0,-192.0,131.0,0.0
61.0,-172.0,120.0,0.0
61.0,-167.0,119.0,0.0
54.0,-146.0,107.0,0.0
58.0,-154.0,116.0,0.0
59.0,-155.0,119.0,0.0
49.0,-126.0,99.0,0.0
50.0,-127.0,102.0,0.0
46.0,-116.0,96.0,0.0
43.0,-107.0,90.0,0.0
41.0,-101.0,87.0,0.0
38.0,-91.0,80.0,0.0
40.0,-95.0,86.0,0.0
43.0,-99.0,91.0,0.0
37.0,-84.0,80.0,0.0
39.0,-87.0,85.0,0.0
37.0,-79.0,79.0,0.0
31.0,-69.0,70.0,0.0
8855.0,-18573.0,19159.0,0.0
8833.0,-18207.0,19215.0,0.0
8830.0,-17887.0,19312.0,0.0
8820.0,-17551.0,19388.0,0.0
8803.0,-17206.0,19450.0,0.0
8806.0,-16903.0,19552.0,0.0
8784.0,-16556.0,19598.0,0.0
8900.0,-16469.0,19953.0,0.0
9115.0,-16556.0,20532.0,0.0
9265.0,-16513.0,20964.0,0.0
9531.0,-16665.0,21665.0,0.0
749.0,-1287.0,1714.0,0.0
781.0,-1313.0,1792.0,0.0
763.0,-1259.0,1759.0,0.0
764.0,-1234.0,1768.0,0.0
747.0,-1184.0,1737.0,0.0
782.0,-1214.0,1827.0,0.0
767.0,-1165.0,1797.0,0.0
771.0,-1146.0,1814.0,0.0
795.0,-1156.0,1878.0,0.0
782.0,-1113.0,1855.0,0.0
10771.0,-14977.0,25612.0,1.0
775.0,-1053.0,1851.0,0.0
772.0,-1025.0,1850.0,0.0
794.0,-1029.0,1908.0,0.0
771.0,-975.0,1861.0,0.0
776.0,-958.0,1882.0,0.0
755.0,-909.0,1837.0,0.0
791.0,-927.0,1928.0,0.0
10706.0,-12217.0,26180.0,1.0
789.0,-875.0,1936.0,0.0
792.0,-855.0,1952.0,0.0
781.0,-820.0,1931.0,0.0
793.0,-809.0,1969.0,0.0
782.0,-774.0,1947.0,0.0
10537.0,-10095.0,26264.0,1.0
795.0,-738.0,1991.0,0.0
10538.0,-9458.0,26425.0,1.0
10487.0,-9095.0,26375.0,1.0
800.0,-669.0,2020.0,0.0
804.0,-648.0,2036.0,0.0
10487.0,-8146.0,26603.0,1.0
784.0,-585.0,1996.0,0.0
787.0,-564.0,2010.0,0.0
802.0,-551.0,2053.0,0.0
806.0,-529.0,2070.0,0.0
807.0,-505.0,2077.0,0.0
812.0,-484.0,2095.0,0.0
0.0,0.0,2.0,0.0
15.0,-9.0,41.0,0.0
5.0,-3.0,16.0,0.0
7.0,-4.0,19.0,0.0
8.0,-4.0,23.0,0.0
8.0,-4.0,23.0,0.0
4.0,-2.0,11.0,0.0
8.0,-3.0,22.0,0.0
8.0,-2.0,22.0,0.0
1.0,-1.0,6.0,0.0
5.0,-1.0,17.0,0.0
8.0,-2.0,23.0,0.0
3.0,-1.0,9.0,0.0
3.0,-1.0,9.0,0.0
7.0,-1.0,18.0,0.0
11.0,-2.0,32.0,0.0
11.0,-1.0,32.0,0.0
8.0,0.0,26.0,0.0
13.0,-1.0,37.0,0.0
15.0,0.0,41.0,0.0
15.0,0.0,43.0,0.0
18.0,0.0,51.0,0.0
18.0,1.0,50.0,0.0
21.0,3.0,60.0,0.0
22.0,3.0,61.0,0.0
27.0,5.0,76.0,0.0
29.0,7.0,83.0,0.0
28.0,7.0,79.0,0.0
21.0,5.0,61.0,0.0
25.0,8.0,72.0,0.0
27.0,9.0,77.0,0.0
28.0,10.0,80.0,0.0
32.0,13.0,91.0,0.0
30.0,13.0,85.0,0.0
28.0,13.0,81.0,0.0
30.0,16.0,86.0,0.0
24.0,14.0,70.0,0.0
32.0,20.0,94.0,0.0
29.0,18.0,83.0,0.0
34.0,23.0,98.0,0.0
33.0,23.0,95.0,0.0
31.0,23.0,88.0,0.0
36.0,28.0,105.0,0.0
35.0,28.0,101.0,0.0
36.0,31.0,105.0,0.0
34.0,31.0,100.0,0.0
35.0,32.0,102.0,0.0
32.0,32.0,94.0,0.0
35.0,35.0,102.0,0.0
32.0,34.0,94.0,0.0
32.0,36.0,95.0,0.0
34.0,38.0,98.0,0.0
30.0,35.0,89.0,0.0
30.0,36.0,88.0,0.0
27.0,35.0,81.0,0.0
28.0,37.0,85.0,0.0
27.0,37.0,82.0,0.0
30.0,41.0,87.0,0.0
26.0,36.0,76.0,0.0
27.0,40.0,80.0,0.0
29.0,45.0,87.0,0.0
25.0,39.0,74.0,0.0
25.0,40.0,75.0,0.0
29.0,47.0,86.0,0.0
25.0,43.0,75.0,0.0
26.0,47.0,81.0,0.0
29.0,51.0,87.0,0.0
26.0,50.0,82.0,0.0
26.0,49.0,80.0,0.0
26.0,51.0,80.0,0.0
23.0,45.0,70.0,0.0
29.0,60.0,89.0,0.0
28.0,61.0,88.0,0.0
28.0,62.0,87.0,0.0
27.0,61.0,84.0,0.0
30.0,68.0,90.0,0.0
29.0,68.0,89.0,0.0
30.0,70.0,91.0,0.0
30.0,75.0,94.0,0.0
30.0,75.0,92.0,0.0
31.0,79.0,95.0,0.0
32.0,83.0,98.0,0.0
32.0,86.0,99.0,0.0
34.0,93.0,105.0,0.0
35.0,97.0,108.0,0.0
34.0,98.0,105.0,0.0
34.0,101.0,106.0,0.0
36.0,108.0,111.0,0.0
36.0,112.0,114.0,0.0
35.0,111.0,110.0,0.0
35.0,112.0,108.0,0.0
35.0,118.0,111.0,0.0
37.0,123.0,113.0,0.0
37.0,126.0,114.0,0.0
37.0,130.0,115.0,0.0
58.0,-282.0,76.0,0.0
59.0,-279.0,78.0,0.0
59.0,-278.0,81.0,0.0
59.0,-274.0,82.0,0.0
63.0,-287.0,90.0,0.0
63.0,-281.0,91.0,0.0
64.0,-279.0,94.0,0.0
65.0,-280.0,98.0,0.0
66.0,-280.0,102.0,0.0
66.0,-274.0,102.0,0.0
68.0,-280.0,109.0,0.0
68.0,-277.0,110.0,0.0
68.0,-272.0,112.0,0.0
68.0,-269.0,114.0,0.0
69.0,-267.0,117.0,0.0
72.0,-270.0,122.0,0.0
72.0,-268.0,124.0,0.0
71.0,-263.0,125.0,0.0
74.0,-266.0,131.0,0.0
74.0,-265.0,133.0,0.0
75.0,-261.0,135.0,0.0
75.0,-260.0,138.0,0.0
79.0,-266.0,146.0,0.0
80.0,-269.0,151.0,0.0
83.0,-270.0,156.0,0.0
83.0,-268.0,159.0,0.0
80.0,-255.0,154.0,0.0
74.0,-231.0,143.0,0.0
71.0,-220.0,140.0,0.0
68.0,-205.0,134.0,0.0
66.0,-200.0,134.0,0.0
60.0,-176.0,121.0,0.0
60.0,-174.0,121.0,0.0
59.0,-166.0,120.0,0.0
55.0,-155.0,114.0,0.0
54.0,-150.0,114.0,0.0
51.0,-140.0,108.0,0.0
43.0,-116.0,91.0,0.0
44.0,-118.0,96.0,0.0
37.0,-96.0,80.0,0.0
44.0,-113.0,96.0,0.0
38.0,-97.0,84.0,0.0
41.0,-101.0,90.0,0.0
40.0,-98.0,89.0,0.0
33.0,-78.0,73.0,0.0
8597.0,-19957.0,18875.0,0.0
8584.0,-19592.0,18953.0,0.0
35.0,-80.0,79.0,0.0
8554.0,-18865.0,19095.0,0.0
8546.0,-18526.0,19182.0,0.0
8532.0,-18176.0,19251.0,0.0
8509.0,-17807.0,19295.0,0.0
8524.0,-17526.0,19428.0,0.0
8489.0,-17144.0,19446.0,0.0
8492.0,-16842.0,19547.0,0.0
8473.0,-16499.0,19595.0,0.0
8614.0,-16468.0,20017.0,0.0
8859.0,-16620.0,20679.0,0.0
8969.0,-16511.0,21030.0,0.0
9228.0,-16666.0,21734.0,0.0
10120.0,-17927.0,23939.0,1.0
10135.0,-17603.0,24077.0,1.0
759.0,-1292.0,1812.0,0.0
756.0,-1262.0,1812.0,0.0
756.0,-1237.0,1820.0,0.0
744.0,-1192.0,1799.0,0.0
745.0,-1168.0,1806.0,0.0
10494.0,-16101.0,25538.0,1.0
10555.0,-15845.0,25784.0,1.0
776.0,-1140.0,1905.0,0.0
0.0,0.0,0.0,0.0
745.0,-1046.0,1844.0,0.0
751.0,-1031.0,1866.0,0.0
10478.0,-14020.0,26066.0,1.0
741.0,-969.0,1853.0,0.0
765.0,-976.0,1919.0,0.0
774.0,-962.0,1949.0,0.0
783.0,-948.0,1977.0,0.0
0.0,0.0,0.0,0.0
10435.0,-11963.0,26488.0,1.0
765.0,-852.0,1949.0,0.0
10342.0,-11203.0,26416.0,1.0
10232.0,-10763.0,26216.0,1.0
760.0,-776.0,1956.0,0.0
765.0,-758.0,1976.0,0.0
784.0,-750.0,2028.0,0.0
797.0,-739.0,2069.0,0.0
780.0,-698.0,2031.0,0.0
751.0,-649.0,1960.0,0.0
783.0,-652.0,2050.0,0.0
780.0,-625.0,2048.0,0.0
795.0,-613.0,2091.0,0.0
789.0,-584.0,2084.0,0.0
763.0,-541.0,2019.0,0.0
774.0,-525.0,2055.0,0.0
777.0,-503.0,2070.0,0.0
777.0,-479.0,2076.0,0.0
788.0,-461.0,2108.0,0.0
6.0,-4.0,18.0,0.0
6.0,-4.0,20.0,0.0
789.0,-389.0,2128.0,0.0
6.0,-4.0,18.0,0.0
4.0,-2.0,11.0,0.0
2.0,-2.0,9.0,0.0
779.0,-287.0,2120.0,0.0
5.0,-2.0,17.0,0.0
4.0,-1.0,13.0,0.0
10.0,-3.0,30.0,0.0
6.0,-2.0,19.0,0.0
6.0,-2.0,19.0,0.0
5.0,-1.0,15.0,0.0
12.0,-2.0,34.0,0.0
7.0,-1.0,21.0,0.0
8.0,-1.0,23.0,0.0
10.0,0.0,30.0,0.0
11.0,-1.0,32.0,0.0
16.0,0.0,47.0,0.0
12.0,0.0,36.0,0.0
21.0,1.0,62.0,0.0
16.0,1.0,47.0,0.0
27.0,3.0,77.0,0.0
22.0,3.0,65.0,0.0
23.0,4.0,66.0,0.0
17.0,4.0,50.0,0.0
27.0,7.0,78.0,0.0
27.0,8.0,78.0,0.0
23.0,7.0,67.0,0.0
27.0,9.0,80.0,0.0
21.0,8.0,63.0,0.0
28.0,12.0,81.0,0.0
24.0,11.0,70.0,0.0
29.0,15.0,87.0,0.0
28.0,16.0,84.0,0.0
31.0,18.0,91.0,0.0
30.0,19.0,89.0,0.0
31.0,20.0,93.0,0.0
35.0,24.0,105.0,0.0
36.0,27.0,109.0,0.0
35.0,26.0,105.0,0.0
37.0,30.0,109.0,0.0
31.0,26.0,95.0,0.0
38.0,34.0,114.0,0.0
34.0,31.0,103.0,0.0
39.0,37.0,117.0,0.0
34.0,35.0,105.0,0.0
34.0,35.0,103.0,0.0
37.0,40.0,112.0,0.0
33.0,38.0,100.0,0.0
32.0,37.0,97.0,0.0
33.0,40.0,100.0,0.0
29.0,36.0,89.0,0.0
33.0,42.0,99.0,0.0
30.0,41.0,95.0,0.0
29.0,40.0,89.0,0.0
29.0,42.0,90.0,0.0
29.0,43.0,90.0,0.0
28.0,43.0,87.0,0.0
28.0,45.0,87.0,0.0
29.0,49.0,92.0,0.0
28.0,46.0,86.0,0.0
26.0,45.0,82.0,0.0
26.0,46.0,81.0,0.0
27.0,48.0,83.0,0.0
29.0,54.0,91.0,0.0
28.0,53.0,87.0,0.0
28.0,56.0,90.0,0.0
30.0,59.0,92.0,0.0
28.0,58.0,87.0,0.0
30.0,62.0,93.0,0.0
30.0,65.0,95.0,0.0
28.0,64.0,91.0,0.0
28.0,65.0,89.0,0.0
30.0,70.0,96.0,0.0
30.0,74.0,98.0,0.0
29.0,71.0,92.0,0.0
28.0,72.0,90.0,0.0
29.0,75.0,93.0,0.0
32.0,83.0,100.0,0.0
32.0,86.0,102.0,0.0
32.0,90.0,104.0,0.0
33.0,94.0,105.0,0.0
32.0,94.0,105.0,0.0
33.0,99.0,107.0,0.0
34.0,106.0,112.0,0.0
36.0,109.0,114.0,0.0
34.0,109.0,111.0,0.0
36.0,116.0,115.0,0.0
35.0,116.0,112.0,0.0
35.0,119.0,113.0,0.0
35.0,127.0,117.0,0.0
34.0,123.0,112.0,0.0
37.0,135.0,120.0,0.0
53.0,-270.0,74.0,0.0
53.0,-268.0,76.0,0.0
55.0,-270.0,79.0,0.0
57.0,-274.0,84.0,0.0
56.0,-267.0,85.0,0.0
58.0,-270.0,89.0,0.0
59.0,-270.0,92.0,0.0
58.0,-259.0,91.0,0.0
60.0,-266.0,97.0,0.0
60.0,-264.0,100.0,0.0
61.0,-261.0,102.0,0.0
63.0,-264.0,106.0,0.0
62.0,-260.0,108.0,0.0
65.0,-265.0,114.0,0.0
65.0,-263.0,116.0,0.0
65.0,-258.0,117.0,0.0
66.0,-255.0,120.0,0.0
67.0,-258.0,124.0,0.0
68.0,-255.0,126.0,0.0
70.0,-259.0,131.0,0.0
71.0,-257.0,134.0,0.0
69.0,-246.0,132.0,0.0
74.0,-262.0,145.0,0.0
77.0,-265.0,150.0,0.0
77.0,-262.0,151.0,0.0
75.0,-251.0,149.0,0.0
69.0,-229.0,140.0,0.0
68.0,-224.0,140.0,0.0
65.0,-207.0,133.0,0.0
64.0,-200.0,131.0,0.0
64.0,-199.0,134.0,0.0
57.0,-172.0,118.0,0.0
57.0,-170.0,120.0,0.0
55.0,-163.0,117.0,0.0
50.0,-144.0,106.0,0.0
48.0,-138.0,104.0,0.0
43.0,-123.0,95.0,0.0
45.0,-126.0,100.0,0.0
39.0,-107.0,86.0,0.0
36.0,-97.0,80.0,0.0
36.0,-94.0,80.0,0.0
36.0,-94.0,82.0,0.0
36.0,-93.0,82.0,0.0
37.0,-94.0,86.0,0.0
30.0,-74.0,69.0,0.0
28.0,-69.0,65.0,0.0
28.0,-67.0,65.0,0.0
30.0,-70.0,70.0,0.0
8235.0,-18796.0,19095.0,0.0
8230.0,-18460.0,19182.0,0.0
8223.0,-18122.0,19263.0,0.0
8214.0,-17784.0,19338.0,0.0
8206.0,-17452.0,19413.0,0.0
8177.0,-17079.0,19438.0,0.0
8196.0,-16809.0,19574.0,0.0
8184.0,-16480.0,19637.0,0.0
8309.0,-16423.0,20027.0,0.0
8542.0,-16570.0,20682.0,0.0
8694.0,-16548.0,21143.0,0.0
8937.0,-16687.0,21828.0,0.0
9771.0,-17893.0,23967.0,1.0
720.0,-1293.0,1775.0,0.0
726.0,-1279.0,1797.0,0.0
9975.0,-17203.0,24768.0,1.0
725.0,-1225.0,1809.0,0.0
697.0,-1154.0,1746.0,0.0
724.0,-1173.0,1820.0,0.0
729.0,-1156.0,1841.0,0.0
737.0,-1145.0,1869.0,0.0
727.0,-1104.0,1849.0,0.0
739.0,-1097.0,1887.0,0.0
737.0,-1070.0,1888.0,0.0
743.0,-1053.0,1911.0,0.0
735.0,-1017.0,1895.0,0.0
10264.0,-13851.0,26538.0,1.0
737.0,-971.0,1916.0,0.0
10143.0,-13016.0,26401.0,1.0
746.0,-932.0,1949.0,0.0
735.0,-895.0,1927.0,0.0
747.0,-884.0,1964.0,0.0
749.0,-863.0,1977.0,0.0
744.0,-832.0,1968.0,0.0
748.0,-814.0,1987.0,0.0
731.0,-771.0,1947.0,0.0
731.0,-748.0,1954.0,0.0
10009.0,-9910.0,26789.0,1.0
754.0,-722.0,2026.0,0.0
753.0,-697.0,2028.0,0.0
735.0,-657.0,1987.0,0.0
760.0,-655.0,2061.0,0.0
9951.0,-8257.0,27019.0,1.0
728.0,-580.0,1982.0,0.0
9924.0,-7600.0,27092.0,1.0
9901.0,-7266.0,27102.0,1.0
750.0,-526.0,2060.0,0.0
739.0,-495.0,2037.0,0.0
750.0,-478.0,2070.0,0.0
5.0,-3.0,17.0,0.0
9.0,-6.0,27.0,0.0
5.0,-3.0,14.0,0.0
1.0,-1.0,5.0,0.0
7.0,-3.0,22.0,0.0
1.0,0.0,3.0,0.0
0.0,0.0,0.0,0.0
5.0,-2.0,16.0,0.0
0.0,0.0,2.0,0.0
4.0,-2.0,14.0,0.0
0.0,0.0,0.0,0.0
1.0,-1.0,5.0,0.0
5.0,-1.0,16.0,0.0
2.0,-1.0,9.0,0.0
4.0,0.0,12.0,0.0
2.0,-1.0,10.0,0.0
5.0,0.0,16.0,0.0
9.0,-1.0,28.0,0.0
9.0,0.0,26.0,0.0
13.0,0.0,37.0,0.0
11.0,0.0,33.0,0.0
14.0,0.0,42.0,0.0
16.0,1.0,49.0,0.0
15.0,2.0,46.0,0.0
19.0,3.0,58.0,0.0
17.0,3.0,50.0,0.0
18.0,3.0,56.0,0.0
18.0,4.0,54.0,0.0
20.0,5.0,61.0,0.0
20.0,6.0,61.0,0.0
26.0,9.0,77.0,0.0
24.0,9.0,75.0,0.0
23.0,10.0,72.0,0.0
23.0,11.0,73.0,0.0
26.0,13.0,78.0,0.0
24.0,14.0,74.0,0.0
26.0,15.0,78.0,0.0
29.0,18.0,88.0,0.0
23.0,15.0,73.0,0.0
30.0,21.0,91.0,0.0
27.0,20.0,86.0,0.0
29.0,23.0,90.0,0.0
30.0,25.0,93.0,0.0
26.0,22.0,81.0,0.0
29.0,26.0,89.0,0.0
29.0,28.0,92.0,0.0
33.0,32.0,102.0,0.0
28.0,29.0,88.0,0.0
30.0,33.0,97.0,0.0
27.0,30.0,87.0,0.0
29.0,34.0,90.0,0.0
29.0,35.0,92.0,0.0
26.0,32.0,82.0,0.0
26.0,35.0,86.0,0.0
28.0,37.0,89.0,0.0
25.0,36.0,82.0,0.0
25.0,35.0,79.0,0.0
24.0,34.0,75.0,0.0
24.0,36.0,78.0,0.0
23.0,35.0,73.0,0.0
24.0,39.0,77.0,0.0
24.0,40.0,77.0,0.0
25.0,43.0,81.0,0.0
24.0,43.0,80.0,0.0
23.0,42.0,73.0,0.0
24.0,45.0,77.0,0.0
23.0,44.0,75.0,0.0
24.0,48.0,80.0,0.0
24.0,48.0,78.0,0.0
24.0,52.0,82.0,0.0
24.0,52.0,80.0,0.0
25.0,55.0,82.0,0.0
25.0,55.0,81.0,0.0
26.0,60.0,85.0,0.0
23.0,55.0,77.0,0.0
26.0,63.0,85.0,0.0
25.0,64.0,84.0,0.0
25.0,66.0,86.0,0.0
28.0,73.0,93.0,0.0
26.0,73.0,90.0,0.0
28.0,78.0,95.0,0.0
28.0,81.0,95.0,0.0
29.0,84.0,98.0,0.0
28.0,85.0,96.0,0.0
30.0,89.0,99.0,0.0
31.0,95.0,103.0,0.0
30.0,96.0,101.0,0.0
31.0,102.0,106.0,0.0
32.0,106.0,107.0,0.0
32.0,110.0,109.0,0.0
31.0,109.0,106.0,0.0
32.0,113.0,108.0,0.0
31.0,116.0,108.0,0.0
32.0,120.0,109.0,0.0
33.0,128.0,114.0,0.0
54.0,-290.0,79.0,0.0
55.0,-286.0,81.0,0.0
56.0,-292.0,87.0,0.0
57.0,-293.0,90.0,0.0
58.0,-288.0,92.0,0.0
58.0,-287.0,95.0,0.0
61.0,-291.0,100.0,0.0
59.0,-282.0,100.0,0.0
62.0,-285.0,105.0,0.0
63.0,-285.0,108.0,0.0
63.0,-282.0,110.0,0.0
64.0,-280.0,114.0,0.0
65.0,-284.0,119.0,0.0
66.0,-280.0,121.0,0.0
66.0,-276.0,123.0,0.0
68.0,-281.0,128.0,0.0
68.0,-277.0,131.0,0.0
68.0,-274.0,132.0,0.0
72.0,-280.0,139.0,0.0
72.0,-275.0,140.0,0.0
72.0,-271.0,142.0,0.0
72.0,-268.0,145.0,0.0
74.0,-272.0,151.0,0.0
79.0,-284.0,161.0,0.0
79.0,-279.0,163.0,0.0
76.0,-265.0,158.0,0.0
72.0,-248.0,152.0,0.0
71.0,-239.0,150.0,0.0
67.0,-222.0,143.0,0.0
65.0,-213.0,140.0,0.0
64.0,-205.0,139.0,0.0
61.0,-194.0,134.0,0.0
56.0,-174.0,123.0,0.0
54.0,-168.0,122.0,0.0
54.0,-164.0,122.0,0.0
48.0,-142.0,108.0,0.0
53.0,-157.0,122.0,0.0
45.0,-130.0,103.0,0.0
47.0,-135.0,110.0,0.0
42.0,-120.0,100.0,0.0
45.0,-123.0,105.0,0.0
46.0,-124.0,108.0,0.0
40.0,-107.0,95.0,0.0
36.0,-95.0,87.0,0.0
38.0,-98.0,91.0,0.0
34.0,-88.0,84.0,0.0
34.0,-86.0,83.0,0.0
7952.0,-19129.0,19068.0,0.0
7944.0,-18780.0,19146.0,0.0
7924.0,-18410.0,19196.0,0.0
7920.0,-18077.0,19281.0,0.0
7915.0,-17747.0,19362.0,0.0
7904.0,-17407.0,19428.0,0.0
7878.0,-17039.0,19455.0,0.0
7892.0,-16761.0,19580.0,0.0
7881.0,-16430.0,19640.0,0.0
8030.0,-16432.0,20100.0,0.0
8227.0,-16520.0,20682.0,0.0
8400.0,-16549.0,21209.0,0.0
8631.0,-16679.0,21882.0,0.0
9452.0,-17912.0,24062.0,1.0
690.0,-1282.0,1764.0,0.0
712.0,-1297.0,1828.0,0.0
709.0,-1266.0,1827.0,0.0
9777.0,-17093.0,25287.0,1.0
716.0,-1226.0,1859.0,0.0
724.0,-1215.0,1890.0,0.0
9889.0,-16225.0,25868.0,1.0
0.0,0.0,0.0,0.0
717.0,-1125.0,1889.0,0.0
705.0,-1083.0,1866.0,0.0
712.0,-1069.0,1891.0,0.0
721.0,-1056.0,1921.0,0.0
10004.0,-14310.0,26727.0,1.0
737.0,-1028.0,1975.0,0.0
723.0,-984.0,1945.0,0.0
9867.0,-13098.0,26621.0,1.0
725.0,-937.0,1962.0,0.0
727.0,-916.0,1976.0,0.0
9891.0,-12122.0,26941.0,1.0
714.0,-851.0,1954.0,0.0
0.0,0.0,0.0,0.0
721.0,-811.0,1983.0,0.0
9715.0,-10601.0,26784.0,1.0
9731.0,-10293.0,26908.0,1.0
719.0,-737.0,1997.0,0.0
726.0,-720.0,2021.0,0.0
725.0,-695.0,2025.0,0.0
734.0,-678.0,2054.0,0.0
735.0,-656.0,2065.0,0.0
703.0,-603.0,1980.0,0.0
746.0,-616.0,2107.0,0.0
739.0,-586.0,2092.0,0.0
740.0,-562.0,2100.0,0.0
744.0,-541.0,2118.0,0.0
719.0,-498.0,2051.0,0.0
751.0,-497.0,2150.0,0.0
726.0,-457.0,2084.0,0.0
740.0,-440.0,2127.0,0.0
7.0,-5.0,24.0,0.0
3.0,-2.0,11.0,0.0
2.0,-1.0,7.0,0.0
6.0,-3.0,21.0,0.0
2.0,-2.0,10.0,0.0
12.0,-5.0,37.0,0.0
6.0,-2.0,21.0,0.0
5.0,-2.0,16.0,0.0
8.0,-2.0,26.0,0.0
6.0,-2.0,21.0,0.0
8.0,-2.0,26.0,0.0
11.0,-2.0,36.0,0.0
7.0,-2.0,23.0,0.0
16.0,-2.0,49.0,0.0
15.0,-2.0,48.0,0.0
12.0,-1.0,39.0,0.0
15.0,0.0,47.0,0.0
16.0,0.0,52.0,0.0
14.0,0.0,44.0,0.0
15.0,0.0,46.0,0.0
19.0,2.0,59.0,0.0
18.0,2.0,58.0,0.0
21.0,3.0,66.0,0.0
20.0,4.0,63.0,0.0
21.0,5.0,67.0,0.0
21.0,6.0,67.0,0.0
21.0,6.0,67.0,0.0
22.0,7.0,71.0,0.0
25.0,9.0,79.0,0.0
25.0,10.0,79.0,0.0
28.0,13.0,89.0,0.0
33.0,17.0,103.0,0.0
29.0,15.0,90.0,0.0
30.0,17.0,96.0,0.0
31.0,19.0,101.0,0.0
30.0,19.0,96.0,0.0
29.0,20.0,92.0,0.0
35.0,26.0,112.0,0.0
34.0,26.0,110.0,0.0
38.0,31.0,122.0,0.0
38.0,32.0,121.0,0.0
33.0,30.0,107.0,0.0
35.0,33.0,116.0,0.0
37.0,36.0,120.0,0.0
35.0,36.0,116.0,0.0
35.0,37.0,114.0,0.0
32.0,35.0,103.0,0.0
34.0,40.0,113.0,0.0
33.0,39.0,108.0,0.0
38.0,47.0,124.0,0.0
34.0,43.0,111.0,0.0
30.0,40.0,100.0,0.0
29.0,40.0,97.0,0.0
30.0,43.0,99.0,0.0
29.0,43.0,99.0,0.0
28.0,43.0,94.0,0.0
28.0,45.0,95.0,0.0
29.0,47.0,98.0,0.0
28.0,47.0,94.0,0.0
30.0,51.0,99.0,0.0
28.0,51.0,96.0,0.0
27.0,49.0,90.0,0.0
26.0,48.0,86.0,0.0
30.0,58.0,102.0,0.0
30.0,60.0,102.0,0.0
28.0,58.0,96.0,0.0
29.0,60.0,97.0,0.0
27.0,59.0,94.0,0.0
27.0,61.0,95.0,0.0
30.0,69.0,103.0,0.0
30.0,70.0,102.0,0.0
28.0,68.0,97.0,0.0
30.0,73.0,103.0,0.0
30.0,77.0,105.0,0.0
28.0,72.0,96.0,0.0
28.0,75.0,97.0,0.0
30.0,82.0,105.0,0.0
32.0,90.0,111.0,0.0
31.0,90.0,109.0,0.0
31.0,91.0,109.0,0.0
31.0,94.0,109.0,0.0
31.0,94.0,107.0,0.0
30.0,95.0,105.0,0.0
31.0,98.0,108.0,0.0
31.0,103.0,110.0,0.0
31.0,106.0,111.0,0.0
33.0,114.0,116.0,0.0
33.0,118.0,117.0,0.0
32.0,118.0,115.0,0.0
32.0,117.0,112.0,0.0
32.0,121.0,113.0,0.0
32.0,129.0,118.0,0.0
32.0,128.0,114.0,0.0
51.0,-285.0,79.0,0.0
49.0,-274.0,79.0,0.0
51.0,-277.0,83.0,0.0
52.0,-273.0,85.0,0.0
53.0,-276.0,89.0,0.0
53.0,-274.0,92.0,0.0
55.0,-280.0,97.0,0.0
54.0,-269.0,97.0,0.0
56.0,-273.0,102.0,0.0
56.0,-268.0,103.0,0.0
57.0,-270.0,107.0,0.0
58.0,-270.0,110.0,0.0
60.0,-272.0,114.0,0.0
60.0,-268.0,117.0,0.0
60.0,-265.0,118.0,0.0
63.0,-270.0,124.0,0.0
63.0,-266.0,126.0,0.0
63.0,-261.0,128.0,0.0
65.0,-267.0,133.0,0.0
65.0,-262.0,134.0,0.0
65.0,-256.0,135.0,0.0
68.0,-265.0,144.0,0.0
71.0,-273.0,152.0,0.0
71.0,-266.0,151.0,0.0
72.0,-263.0,155.0,0.0
68.0,-246.0,148.0,0.0
64.0,-228.0,140.0,0.0
61.0,-216.0,137.0,0.0
58.0,-202.0,131.0,0.0
55.0,-186.0,123.0,0.0
56.0,-186.0,127.0,0.0
52.0,-173.0,120.0,0.0
49.0,-160.0,114.0,0.0
46.0,-150.0,108.0,0.0
49.0,-155.0,116.0,0.0
46.0,-144.0,110.0,0.0
38.0,-118.0,92.0,0.0
39.0,-119.0,96.0,0.0
37.0,-111.0,91.0,0.0
39.0,-115.0,96.0,0.0
33.0,-95.0,81.0,0.0
35.0,-99.0,87.0,0.0
35.0,-98.0,87.0,0.0
33.0,-91.0,83.0,0.0
32.0,-87.0,81.0,0.0
34.0,-89.0,86.0,0.0
27.0,-70.0,70.0,0.0
28.0,-71.0,71.0,0.0
7619.0,-18686.0,19116.0,0.0
7623.0,-18368.0,19218.0,0.0
7606.0,-18002.0,19265.0,0.0
7606.0,-17683.0,19356.0,0.0
7605.0,-17366.0,19444.0,0.0
7591.0,-17021.0,19497.0,0.0
7579.0,-16685.0,19553.0,0.0
7590.0,-16402.0,19666.0,0.0
7762.0,-16464.0,20200.0,0.0
7926.0,-16495.0,20712.0,0.0
8119.0,-16575.0,21303.0,0.0
8353.0,-16728.0,22009.0,0.0
682.0,-1340.0,1807.0,0.0
680.0,-1308.0,1806.0,0.0
650.0,-1228.0,1736.0,0.0
672.0,-1242.0,1799.0,0.0
665.0,-1207.0,1790.0,0.0
671.0,-1190.0,1810.0,0.0
671.0,-1164.0,1816.0,0.0
692.0,-1177.0,1882.0,0.0
687.0,-1143.0,1874.0,0.0
666.0,-1084.0,1824.0,0.0
693.0,-1101.0,1903.0,0.0
674.0,-1047.0,1858.0,0.0
692.0,-1051.0,1915.0,0.0
9693.0,-14358.0,26874.0,1.0
694.0,-1003.0,1931.0,0.0
693.0,-977.0,1935.0,0.0
696.0,-956.0,1949.0,0.0
689.0,-922.0,1935.0,0.0
9618.0,-12543.0,27096.0,1.0
708.0,-898.0,2002.0,0.0
700.0,-865.0,1988.0,0.0
706.0,-846.0,2008.0,0.0
696.0,-810.0,1986.0,0.0
706.0,-798.0,2022.0,0.0
730.0,-800.0,2095.0,0.0
697.0,-741.0,2008.0,0.0
711.0,-730.0,2054.0,0.0
702.0,-697.0,2033.0,0.0
708.0,-678.0,2053.0,0.0
711.0,-658.0,2073.0,0.0
23.0,-20.0,68.0,0.0
689.0,-589.0,2019.0,0.0
694.0,-570.0,2036.0,0.0
702.0,-553.0,2067.0,0.0
700.0,-527.0,2067.0,0.0
701.0,-504.0,2073.0,0.0
701.0,-480.0,2080.0,0.0
701.0,-458.0,2085.0,0.0
699.0,-431.0,2083.0,0.0
9114.0,-5314.0,27216.0,1.0
0.0,0.0,0.0,0.0
700.0,-361.0,2104.0,0.0
7.0,-3.0,22.0,0.0
1.0,0.0,3.0,0.0
3.0,-2.0,14.0,0.0
3.0,-1.0,12.0,0.0
2.0,-1.0,7.0,0.0
5.0,-1.0,18.0,0.0
9.0,-2.0,30.0,0.0
3.0,-1.0,11.0,0.0
1.0,-1.0,4.0,0.0
7.0,-1.0,25.0,0.0
7.0,-1.0,25.0,0.0
8.0,0.0,27.0,0.0
10.0,-1.0,34.0,0.0
13.0,-1.0,42.0,0.0
7.0,0.0,23.0,0.0
9.0,0.0,31.0,0.0
13.0,0.0,45.0,0.0
13.0,1.0,45.0,0.0
13.0,1.0,43.0,0.0
9.0,1.0,33.0,0.0
8.0,1.0,26.0,0.0
8.0,2.0,27.0,0.0
8.0,2.0,29.0,0.0
8.0,2.0,29.0,0.0
12.0,4.0,40.0,0.0
11.0,4.0,36.0,0.0
13.0,6.0,46.0,0.0
16.0,7.0,54.0,0.0
18.0,9.0,60.0,0.0
20.0,11.0,67.0,0.0
20.0,12.0,69.0,0.0
17.0,10.0,57.0,0.0
22.0,15.0,73.0,0.0
25.0,18.0,86.0,0.0
25.0,19.0,86.0,0.0
30.0,24.0,99.0,0.0
30.0,24.0,100.0,0.0
31.0,28.0,104.0,0.0
29.0,27.0,98.0,0.0
30.0,30.0,103.0,0.0
31.0,31.0,105.0,0.0
31.0,32.0,105.0,0.0
29.0,33.0,99.0,0.0
30.0,35.0,103.0,0.0
28.0,34.0,97.0,0.0
32.0,38.0,106.0,0.0
29.0,38.0,102.0,0.0
27.0,36.0,93.0,0.0
24.0,35.0,86.0,0.0
24.0,34.0,83.0,0.0
26.0,38.0,89.0,0.0
24.0,37.0,85.0,0.0
25.0,40.0,87.0,0.0
22.0,37.0,79.0,0.0
24.0,40.0,85.0,0.0
26.0,44.0,89.0,0.0
23.0,42.0,83.0,0.0
25.0,46.0,89.0,0.0
22.0,41.0,77.0,0.0
23.0,46.0,84.0,0.0
23.0,48.0,83.0,0.0
23.0,49.0,82.0,0.0
21.0,46.0,77.0,0.0
23.0,52.0,83.0,0.0
23.0,52.0,83.0,0.0
22.0,52.0,81.0,0.0
26.0,62.0,94.0,0.0
25.0,63.0,92.0,0.0
24.0,60.0,86.0,0.0
24.0,63.0,88.0,0.0
26.0,69.0,96.0,0.0
25.0,70.0,94.0,0.0
25.0,70.0,92.0,0.0
25.0,70.0,91.0,0.0
27.0,77.0,96.0,0.0
24.0,71.0,87.0,0.0
25.0,78.0,94.0,0.0
26.0,83.0,96.0,0.0
27.0,85.0,98.0,0.0
27.0,90.0,101.0,0.0
26.0,88.0,98.0,0.0
27.0,96.0,103.0,0.0
28.0,100.0,105.0,0.0
29.0,104.0,107.0,0.0
29.0,107.0,107.0,0.0
29.0,111.0,109.0,0.0
28.0,110.0,106.0,0.0
30.0,123.0,115.0,0.0
29.0,121.0,112.0,0.0
29.0,124.0,112.0,0.0
48.0,-290.0,81.0,0.0
48.0,-282.0,82.0,0.0
49.0,-280.0,84.0,0.0
50.0,-278.0,87.0,0.0
51.0,-281.0,92.0,0.0
51.0,-279.0,94.0,0.0
52.0,-278.0,97.0,0.0
55.0,-283.0,103.0,0.0
55.0,-279.0,104.0,0.0
56.0,-279.0,108.0,0.0
56.0,-277.0,110.0,0.0
59.0,-283.0,117.0,0.0
59.0,-280.0,118.0,0.0
59.0,-276.0,120.0,0.0
61.0,-280.0,126.0,0.0
61.0,-275.0,127.0,0.0
61.0,-271.0,129.0,0.0
63.0,-276.0,136.0,0.0
64.0,-274.0,138.0,0.0
64.0,-269.0,140.0,0.0
63.0,-262.0,138.0,0.0
68.0,-276.0,151.0,0.0
72.0,-287.0,161.0,0.0
71.0,-280.0,161.0,0.0
69.0,-263.0,155.0,0.0
67.0,-257.0,156.0,0.0
60.0,-227.0,140.0,0.0
60.0,-222.0,140.0,0.0
58.0,-210.0,136.0,0.0
59.0,-208.0,138.0,0.0
57.0,-199.0,136.0,0.0
52.0,-181.0,127.0,0.0
52.0,-177.0,126.0,0.0
45.0,-152.0,112.0,0.0
42.0,-138.0,103.0,0.0
44.0,-144.0,110.0,0.0
41.0,-131.0,103.0,0.0
41.0,-131.0,105.0,0.0
40.0,-123.0,101.0,0.0
40.0,-120.0,102.0,0.0
32.0,-93.0,80.0,0.0
29.0,-86.0,76.0,0.0
33.0,-94.0,84.0,0.0
35.0,-100.0,93.0,0.0
29.0,-81.0,76.0,0.0
26.0,-71.0,68.0,0.0
7336.0,-19355.0,18995.0,0.0
7342.0,-19035.0,19106.0,0.0
7329.0,-18670.0,19163.0,0.0
7325.0,-18331.0,19243.0,0.0
7313.0,-17977.0,19300.0,0.0
7307.0,-17641.0,19372.0,0.0
7305.0,-17319.0,19453.0,0.0
7291.0,-16973.0,19501.0,0.0
7289.0,-16658.0,19581.0,0.0
7309.0,-16393.0,19714.0,0.0
7490.0,-16484.0,20285.0,0.0
7632.0,-16482.0,20756.0,0.0
7829.0,-16585.0,21378.0,0.0
8059.0,-16743.0,22092.0,0.0
649.0,-1324.0,1790.0,0.0
663.0,-1324.0,1833.0,0.0
654.0,-1282.0,1818.0,0.0
0.0,0.0,0.0,0.0
652.0,-1225.0,1823.0,0.0
9199.0,-16921.0,25790.0,1.0
656.0,-1182.0,1848.0,0.0
9288.0,-16366.0,26223.0,1.0
675.0,-1164.0,1913.0,0.0
667.0,-1125.0,1898.0,0.0
664.0,-1096.0,1897.0,0.0
674.0,-1088.0,1934.0,0.0
675.0,-1063.0,1942.0,0.0
0.0,0.0,0.0,0.0
9415.0,-14109.0,27207.0,1.0
9395.0,-13734.0,27237.0,1.0
664.0,-946.0,1933.0,0.0
675.0,-937.0,1969.0,0.0
9314.0,-12594.0,27253.0,1.0
668.0,-881.0,1965.0,0.0
9293.0,-11892.0,27357.0,1.0
661.0,-823.0,1955.0,0.0
682.0,-825.0,2023.0,0.0
681.0,-799.0,2024.0,0.0
688.0,-780.0,2049.0,0.0
684.0,-753.0,2045.0,0.0
9162.0,-9754.0,27440.0,1.0
685.0,-705.0,2061.0,0.0
9166.0,-9109.0,27607.0,1.0
680.0,-652.0,2056.0,0.0
680.0,-628.0,2063.0,0.0
9134.0,-8107.0,27733.0,1.0
9104.0,-7758.0,27715.0,1.0
692.0,-565.0,2113.0,0.0
686.0,-536.0,2103.0,0.0
693.0,-517.0,2129.0,0.0
695.0,-495.0,2143.0,0.0
695.0,-470.0,2147.0,0.0
693.0,-444.0,2144.0,0.0
689.0,-418.0,2139.0,0.0
695.0,-397.0,2162.0,0.0
4.0,-3.0,16.0,0.0
5.0,-3.0,19.0,0.0
3.0,-2.0,14.0,0.0
3.0,-2.0,14.0,0.0
3.0,-2.0,14.0,0.0
3.0,-2.0,14.0,0.0
10.0,-3.0,36.0,0.0
7.0,-2.0,23.0,0.0
7.0,-2.0,24.0,0.0
7.0,-2.0,23.0,0.0
8.0,-1.0,27.0,0.0
11.0,-1.0,40.0,0.0
16.0,-2.0,55.0,0.0
14.0,-1.0,46.0,0.0
10.0,-1.0,37.0,0.0
13.0,0.0,44.0,0.0
9.0,0.0,32.0,0.0
10.0,0.0,36.0,0.0
13.0,1.0,45.0,0.0
16.0,2.0,55.0,0.0
22.0,3.0,76.0,0.0
17.0,3.0,60.0,0.0
15.0,3.0,52.0,0.0
18.0,5.0,62.0,0.0
24.0,8.0,82.0,0.0
23.0,8.0,80.0,0.0
24.0,9.0,84.0,0.0
23.0,10.0,78.0,0.0
22.0,11.0,76.0,0.0
23.0,12.0,79.0,0.0
28.0,15.0,94.0,0.0
23.0,14.0,80.0,0.0
27.0,18.0,92.0,0.0
29.0,20.0,99.0,0.0
31.0,23.0,107.0,0.0
29.0,23.0,102.0,0.0
31.0,26.0,110.0,0.0
30.0,27.0,107.0,0.0
31.0,29.0,112.0,0.0
31.0,30.0,109.0,0.0
30.0,30.0,106.0,0.0
32.0,34.0,113.0,0.0
29.0,32.0,102.0,0.0
28.0,33.0,100.0,0.0
27.0,33.0,96.0,0.0
32.0,38.0,111.0,0.0
29.0,37.0,104.0,0.0
29.0,39.0,104.0,0.0
29.0,41.0,107.0,0.0
28.0,41.0,103.0,0.0
28.0,42.0,103.0,0.0
26.0,39.0,92.0,0.0
25.0,40.0,90.0,0.0
25.0,41.0,91.0,0.0
22.0,39.0,82.0,0.0
23.0,42.0,86.0,0.0
22.0,41.0,82.0,0.0
24.0,44.0,86.0,0.0
24.0,47.0,88.0,0.0
22.0,45.0,85.0,0.0
25.0,51.0,92.0,0.0
24.0,51.0,90.0,0.0
27.0,58.0,99.0,0.0
24.0,53.0,89.0,0.0
25.0,56.0,92.0,0.0
22.0,52.0,83.0,0.0
24.0,57.0,89.0,0.0
26.0,64.0,98.0,0.0
24.0,62.0,92.0,0.0
24.0,62.0,89.0,0.0
24.0,66.0,93.0,0.0
23.0,63.0,88.0,0.0
24.0,67.0,91.0,0.0
25.0,73.0,97.0,0.0
25.0,77.0,99.0,0.0
27.0,80.0,101.0,0.0
27.0,85.0,104.0,0.0
27.0,85.0,103.0,0.0
26.0,86.0,100.0,0.0
26.0,88.0,101.0,0.0
28.0,97.0,109.0,0.0
27.0,97.0,107.0,0.0
26.0,93.0,100.0,0.0
27.0,104.0,109.0,0.0
27.0,105.0,107.0,0.0
27.0,109.0,110.0,0.0
28.0,115.0,114.0,0.0
29.0,119.0,115.0,0.0
30.0,126.0,120.0,0.0
28.0,122.0,113.0,0.0
28.0,126.0,114.0,0.0
44.0,-278.0,78.0,0.0
44.0,-272.0,80.0,0.0
45.0,-274.0,84.0,0.0
45.0,-269.0,85.0,0.0
46.0,-271.0,89.0,0.0
47.0,-267.0,91.0,0.0
48.0,-274.0,96.0,0.0
49.0,-271.0,99.0,0.0
49.0,-268.0,101.0,0.0
51.0,-268.0,104.0,0.0
51.0,-266.0,107.0,0.0
53.0,-270.0,111.0,0.0
54.0,-265.0,114.0,0.0
54.0,-261.0,114.0,0.0
56.0,-269.0,122.0,0.0
56.0,-262.0,122.0,0.0
56.0,-259.0,124.0,0.0
58.0,-264.0,130.0,0.0
58.0,-260.0,131.0,0.0
60.0,-265.0,137.0,0.0
57.0,-248.0,132.0,0.0
60.0,-256.0,140.0,0.0
67.0,-278.0,156.0,0.0
64.0,-265.0,153.0,0.0
63.0,-255.0,151.0,0.0
62.0,-248.0,150.0,0.0
57.0,-225.0,140.0,0.0
54.0,-206.0,131.0,0.0
54.0,-202.0,132.0,0.0
53.0,-196.0,131.0,0.0
49.0,-179.0,122.0,0.0
48.0,-172.0,120.0,0.0
47.0,-164.0,118.0,0.0
46.0,-161.0,117.0,0.0
41.0,-141.0,106.0,0.0
36.0,-122.0,94.0,0.0
39.0,-130.0,102.0,0.0
40.0,-130.0,105.0,0.0
36.0,-116.0,95.0,0.0
34.0,-108.0,90.0,0.0
34.0,-105.0,91.0,0.0
30.0,-92.0,82.0,0.0
29.0,-88.0,79.0,0.0
30.0,-91.0,84.0,0.0
27.0,-80.0,75.0,0.0
25.0,-71.0,68.0,0.0
25.0,-69.0,68.0,0.0
27.0,-74.0,75.0,0.0
7017.0,-18594.0,19147.0,0.0
7022.0,-18276.0,19246.0,0.0
7005.0,-17907.0,19285.0,0.0
7001.0,-17573.0,19357.0,0.0
7000.0,-17253.0,19436.0,0.0
7000.0,-16937.0,19519.0,0.0
6997.0,-16620.0,19592.0,0.0
7031.0,-16390.0,19768.0,0.0
7202.0,-16476.0,20333.0,0.0
7336.0,-16465.0,20793.0,0.0
7544.0,-16605.0,21461.0,0.0
7754.0,-16740.0,22147.0,0.0
607.0,-1286.0,1743.0,0.0
624.0,-1296.0,1798.0,0.0
622.0,-1266.0,1797.0,0.0
637.0,-1271.0,1850.0,0.0
646.0,-1261.0,1881.0,0.0
8856.0,-16918.0,25849.0,1.0
636.0,-1189.0,1864.0,0.0
0.0,0.0,0.0,0.0
640.0,-1147.0,1890.0,0.0
611.0,-1071.0,1811.0,0.0
650.0,-1113.0,1931.0,0.0
643.0,-1076.0,1917.0,0.0
9101.0,-14863.0,27187.0,1.0
656.0,-1046.0,1967.0,0.0
639.0,-994.0,1922.0,0.0
649.0,-985.0,1959.0,0.0
661.0,-979.0,2003.0,0.0
646.0,-932.0,1963.0,0.0
663.0,-931.0,2020.0,0.0
660.0,-901.0,2014.0,0.0
8989.0,-11939.0,27512.0,1.0
655.0,-847.0,2014.0,0.0
638.0,-800.0,1967.0,0.0
643.0,-782.0,1988.0,0.0
8845.0,-10430.0,27383.0,1.0
671.0,-768.0,2088.0,0.0
656.0,-725.0,2042.0,0.0
666.0,-712.0,2081.0,0.0
668.0,-689.0,2094.0,0.0
632.0,-628.0,1985.0,0.0
656.0,-629.0,2067.0,0.0
643.0,-592.0,2031.0,0.0
664.0,-588.0,2105.0,0.0
662.0,-562.0,2104.0,0.0
8741.0,-7098.0,27802.0,1.0
645.0,-500.0,2061.0,0.0
645.0,-477.0,2066.0,0.0
654.0,-461.0,2101.0,0.0
660.0,-440.0,2122.0,0.0
0.0,0.0,0.0,0.0
662.0,-393.0,2141.0,0.0
654.0,-364.0,2122.0,0.0
663.0,-345.0,2154.0,0.0
0.0,0.0,0.0,0.0
2.0,-2.0,10.0,0.0
1.0,-1.0,5.0,0.0
14.0,-5.0,47.0,0.0
23.0,-8.0,78.0,0.0
5.0,-2.0,19.0,0.0
0.0,0.0,0.0,0.0
2.0,-1.0,10.0,0.0
1.0,0.0,3.0,0.0
3.0,0.0,11.0,0.0
4.0,0.0,16.0,0.0
2.0,0.0,9.0,0.0
10.0,-1.0,37.0,0.0
9.0,0.0,33.0,0.0
7.0,0.0,29.0,0.0
9.0,0.0,32.0,0.0
10.0,1.0,35.0,0.0
11.0,1.0,41.0,0.0
11.0,1.0,39.0,0.0
12.0,3.0,45.0,0.0
13.0,3.0,49.0,0.0
13.0,4.0,50.0,0.0
16.0,5.0,59.0,0.0
18.0,7.0,65.0,0.0
21.0,8.0,75.0,0.0
20.0,9.0,70.0,0.0
21.0,10.0,76.0,0.0
20.0,10.0,72.0,0.0
22.0,13.0,79.0,0.0
24.0,15.0,87.0,0.0
20.0,14.0,73.0,0.0
26.0,19.0,94.0,0.0
26.0,20.0,92.0,0.0
26.0,21.0,92.0,0.0
24.0,22.0,90.0,0.0
26.0,23.0,93.0,0.0
24.0,24.0,89.0,0.0
27.0,27.0,99.0,0.0
29.0,30.0,106.0,0.0
28.0,30.0,101.0,0.0
26.0,30.0,95.0,0.0
28.0,34.0,105.0,0.0
26.0,32.0,96.0,0.0
27.0,34.0,98.0,0.0
27.0,35.0,99.0,0.0
26.0,36.0,96.0,0.0
22.0,32.0,83.0,0.0
25.0,36.0,91.0,0.0
21.0,33.0,83.0,0.0
24.0,38.0,90.0,0.0
22.0,37.0,85.0,0.0
21.0,37.0,81.0,0.0
20.0,36.0,77.0,0.0
24.0,43.0,89.0,0.0
24.0,44.0,90.0,0.0
21.0,42.0,84.0,0.0
19.0,38.0,74.0,0.0
19.0,39.0,73.0,0.0
23.0,49.0,90.0,0.0
18.0,41.0,72.0,0.0
21.0,48.0,84.0,0.0
20.0,47.0,80.0,0.0
20.0,50.0,82.0,0.0
20.0,50.0,80.0,0.0
20.0,53.0,83.0,0.0
20.0,55.0,83.0,0.0
23.0,61.0,89.0,0.0
21.0,58.0,84.0,0.0
22.0,61.0,87.0,0.0
21.0,62.0,85.0,0.0
21.0,62.0,84.0,0.0
22.0,65.0,86.0,0.0
22.0,68.0,88.0,0.0
24.0,78.0,98.0,0.0
23.0,76.0,94.0,0.0
23.0,79.0,96.0,0.0
23.0,81.0,95.0,0.0
24.0,87.0,100.0,0.0
24.0,88.0,99.0,0.0
23.0,87.0,97.0,0.0
24.0,95.0,103.0,0.0
23.0,94.0,100.0,0.0
26.0,102.0,106.0,0.0
26.0,107.0,108.0,0.0
25.0,104.0,104.0,0.0
25.0,109.0,106.0,0.0
26.0,116.0,110.0,0.0
26.0,120.0,112.0,0.0
25.0,118.0,108.0,0.0
42.0,-277.0,78.0,0.0
42.0,-275.0,81.0,0.0
43.0,-274.0,84.0,0.0
45.0,-281.0,89.0,0.0
45.0,-277.0,92.0,0.0
45.0,-272.0,93.0,0.0
48.0,-282.0,100.0,0.0
48.0,-278.0,102.0,0.0
48.0,-273.0,104.0,0.0
49.0,-275.0,107.0,0.0
50.0,-272.0,110.0,0.0
52.0,-280.0,117.0,0.0
52.0,-273.0,117.0,0.0
54.0,-279.0,123.0,0.0
54.0,-275.0,125.0,0.0
54.0,-269.0,125.0,0.0
55.0,-268.0,129.0,0.0
57.0,-273.0,135.0,0.0
57.0,-267.0,137.0,0.0
57.0,-265.0,138.0,0.0
57.0,-260.0,139.0,0.0
58.0,-261.0,144.0,0.0
63.0,-274.0,155.0,0.0
62.0,-269.0,156.0,0.0
59.0,-252.0,149.0,0.0
59.0,-247.0,151.0,0.0
57.0,-233.0,145.0,0.0
55.0,-221.0,142.0,0.0
53.0,-211.0,138.0,0.0
49.0,-191.0,128.0,0.0
51.0,-195.0,134.0,0.0
46.0,-172.0,120.0,0.0
48.0,-176.0,127.0,0.0
45.0,-161.0,119.0,0.0
42.0,-150.0,114.0,0.0
40.0,-140.0,108.0,0.0
39.0,-135.0,106.0,0.0
40.0,-138.0,111.0,0.0
39.0,-131.0,108.0,0.0
35.0,-114.0,97.0,0.0
30.0,-100.0,87.0,0.0
33.0,-107.0,95.0,0.0
33.0,-105.0,95.0,0.0
29.0,-90.0,83.0,0.0
29.0,-88.0,83.0,0.0
30.0,-88.0,86.0,0.0
25.0,-72.0,72.0,0.0
26.0,-73.0,75.0,0.0
6718.0,-18548.0,19160.0,0.0
6713.0,-18201.0,19225.0,0.0
6716.0,-17882.0,19317.0,0.0
6711.0,-17546.0,19385.0,0.0
6712.0,-17227.0,19466.0,0.0
6707.0,-16898.0,19530.0,0.0
6707.0,-16586.0,19608.0,0.0
6778.0,-16448.0,19893.0,0.0
6918.0,-16471.0,20383.0,0.0
7050.0,-16465.0,20850.0,0.0
7265.0,-16642.0,21566.0,0.0
7444.0,-16720.0,22179.0,0.0
604.0,-1332.0,1809.0,0.0
605.0,-1306.0,1817.0,0.0
606.0,-1282.0,1827.0,0.0
612.0,-1270.0,1852.0,0.0
8479.0,-17205.0,25712.0,1.0
8513.0,-16912.0,25900.0,1.0
610.0,-1187.0,1866.0,0.0
612.0,-1164.0,1876.0,0.0
615.0,-1145.0,1891.0,0.0
611.0,-1113.0,1886.0,0.0
0.0,0.0,0.0,0.0
610.0,-1062.0,1896.0,0.0
635.0,-1079.0,1978.0,0.0
621.0,-1030.0,1942.0,0.0
8781.0,-14202.0,27493.0,1.0
8832.0,-13932.0,27736.0,1.0
644.0,-992.0,2032.0,0.0
633.0,-948.0,2000.0,0.0
639.0,-932.0,2026.0,0.0
643.0,-914.0,2047.0,0.0
650.0,-897.0,2073.0,0.0
627.0,-841.0,2005.0,0.0
8555.0,-11147.0,27416.0,1.0
8573.0,-10839.0,27552.0,1.0
8547.0,-10477.0,27545.0,1.0
635.0,-756.0,2057.0,0.0
8611.0,-9896.0,27906.0,1.0
638.0,-710.0,2078.0,0.0
8615.0,-9241.0,28067.0,1.0
618.0,-639.0,2020.0,0.0
629.0,-627.0,2062.0,0.0
626.0,-601.0,2060.0,0.0
8524.0,-7847.0,28066.0,1.0
629.0,-554.0,2076.0,0.0
630.0,-532.0,2088.0,0.0
637.0,-514.0,2116.0,0.0
635.0,-488.0,2116.0,0.0
8314.0,-6079.0,27729.0,1.0
629.0,-436.0,2105.0,0.0
640.0,-421.0,2151.0,0.0
622.0,-385.0,2095.0,0.0
630.0,-366.0,2125.0,0.0
5.0,-3.0,20.0,0.0
4.0,-2.0,16.0,0.0
5.0,-3.0,19.0,0.0
4.0,-2.0,18.0,0.0
616.0,-240.0,2102.0,0.0
1.0,-1.0,4.0,0.0
8.0,-3.0,29.0,0.0
3.0,-1.0,14.0,0.0
9.0,-3.0,36.0,0.0
6.0,-1.0,25.0,0.0
11.0,-2.0,42.0,0.0
13.0,-2.0,47.0,0.0
13.0,-1.0,46.0,0.0
8.0,-1.0,32.0,0.0
14.0,0.0,49.0,0.0
13.0,0.0,46.0,0.0
14.0,0.0,49.0,0.0
11.0,1.0,44.0,0.0
14.0,2.0,50.0,0.0
13.0,2.0,48.0,0.0
16.0,3.0,57.0,0.0
17.0,5.0,65.0,0.0
16.0,4.0,61.0,0.0
17.0,6.0,65.0,0.0
18.0,7.0,69.0,0.0
20.0,9.0,77.0,0.0
21.0,10.0,80.0,0.0
22.0,11.0,85.0,0.0
21.0,12.0,81.0,0.0
23.0,14.0,86.0,0.0
22.0,14.0,83.0,0.0
23.0,17.0,89.0,0.0
23.0,18.0,89.0,0.0
24.0,19.0,92.0,0.0
27.0,22.0,101.0,0.0
25.0,22.0,93.0,0.0
27.0,26.0,103.0,0.0
28.0,28.0,107.0,0.0
27.0,29.0,104.0,0.0
26.0,27.0,97.0,0.0
30.0,34.0,114.0,0.0
27.0,33.0,104.0,0.0
29.0,35.0,111.0,0.0
28.0,36.0,108.0,0.0
27.0,35.0,103.0,0.0
30.0,42.0,115.0,0.0
26.0,37.0,100.0,0.0
28.0,42.0,108.0,0.0
25.0,38.0,95.0,0.0
24.0,39.0,95.0,0.0
25.0,41.0,97.0,0.0
23.0,40.0,91.0,0.0
23.0,41.0,91.0,0.0
20.0,38.0,83.0,0.0
24.0,44.0,93.0,0.0
23.0,45.0,91.0,0.0
21.0,43.0,86.0,0.0
23.0,46.0,89.0,0.0
23.0,49.0,92.0,0.0
21.0,48.0,87.0,0.0
18.0,44.0,77.0,0.0
22.0,51.0,90.0,0.0
20.0,50.0,85.0,0.0
23.0,56.0,92.0,0.0
21.0,53.0,86.0,0.0
22.0,57.0,90.0,0.0
22.0,59.0,89.0,0.0
21.0,58.0,87.0,0.0
22.0,62.0,91.0,0.0
22.0,64.0,91.0,0.0
22.0,65.0,92.0,0.0
22.0,70.0,95.0,0.0
23.0,72.0,96.0,0.0
22.0,73.0,94.0,0.0
24.0,80.0,101.0,0.0
22.0,76.0,95.0,0.0
25.0,87.0,106.0,0.0
23.0,85.0,101.0,0.0
26.0,97.0,114.0,0.0
24.0,91.0,104.0,0.0
23.0,91.0,102.0,0.0
23.0,93.0,102.0,0.0
