//X,Y,Z,Classification
-10536.0,-16524.0,23320.0,2.0
-10451.0,-16717.0,23026.0,2.0
-10242.0,-16707.0,22464.0,0.0
-9959.0,-16564.0,21745.0,2.0
-9737.0,-16506.0,21159.0,0.0
-9494.0,-16400.0,20532.0,0.0
-9360.0,-16474.0,20147.0,0.0
-9368.0,-16793.0,20062.0,0.0
-9376.0,-17113.0,19975.0,0.0
-9393.0,-17456.0,19909.0,0.0
-9410.0,-17802.0,19841.0,0.0
-9428.0,-18150.0,19771.0,0.0
-9450.0,-18513.0,19708.0,0.0
-9469.0,-18873.0,19637.0,0.0
-9481.0,-19221.0,19548.0,0.0
-9502.0,-19591.0,19475.0,0.0
-9522.0,-19965.0,19401.0,0.0
-9551.0,-20362.0,19341.0,0.0
-9560.0,-20718.0,19236.0,0.0
-9587.0,-21121.0,19168.0,0.0
-9608.0,-21512.0,19083.0,0.0
-9633.0,-21921.0,19007.0,0.0
-9652.0,-22317.0,18912.0,0.0
-9682.0,-22748.0,18839.0,0.0
-37.0,-90.0,73.0,0.0
-39.0,-96.0,75.0,0.0
-33.0,-84.0,65.0,0.0
-42.0,-106.0,80.0,0.0
-42.0,-108.0,79.0,0.0
-47.0,-121.0,88.0,0.0
-44.0,-119.0,83.0,0.0
-51.0,-139.0,95.0,0.0
-49.0,-135.0,91.0,0.0
-53.0,-145.0,95.0,0.0
-48.0,-136.0,86.0,0.0
-53.0,-153.0,95.0,0.0
-57.0,-163.0,100.0,0.0
-57.0,-166.0,99.0,0.0
-57.0,-171.0,99.0,0.0
-59.0,-180.0,101.0,0.0
-58.0,-177.0,97.0,0.0
-61.0,-191.0,101.0,0.0
-58.0,-184.0,95.0,0.0
-60.0,-192.0,97.0,0.0
-66.0,-214.0,105.0,0.0
-64.0,-212.0,101.0,0.0
-63.0,-212.0,98.0,0.0
-65.0,-220.0,99.0,0.0
-63.0,-218.0,96.0,0.0
-67.0,-237.0,101.0,0.0
-70.0,-252.0,104.0,0.0
-68.0,-247.0,99.0,0.0
-71.0,-264.0,101.0,0.0
-82.0,-306.0,115.0,0.0
-86.0,-326.0,118.0,0.0
-85.0,-325.0,113.0,0.0
-84.0,-327.0,111.0,0.0
-82.0,-327.0,106.0,0.0
-81.0,-327.0,103.0,0.0
-79.0,-323.0,97.0,0.0
-78.0,-327.0,95.0,0.0
-77.0,-328.0,91.0,0.0
-76.0,-325.0,87.0,0.0
-75.0,-327.0,83.0,0.0
-5474.0,17829.0,15862.0,0.0
-5530.0,17625.0,16022.0,0.0
-5674.0,17696.0,16436.0,0.0
-5170.0,15774.0,14972.0,0.0
-5196.0,15511.0,15042.0,0.0
-5614.0,16397.0,16249.0,0.0
-5171.0,14772.0,14960.0,0.0
-5467.0,15278.0,15811.0,0.0
-5538.0,15139.0,16011.0,0.0
-5486.0,14663.0,15850.0,0.0
-5534.0,14465.0,15981.0,0.0
-6571.0,16797.0,18969.0,0.0
-6548.0,16364.0,18893.0,0.0
-6528.0,15947.0,18823.0,0.0
-6324.0,15102.0,18226.0,0.0
-6464.0,15086.0,18619.0,0.0
-6216.0,14174.0,17892.0,0.0
-6373.0,14198.0,18333.0,0.0
-6415.0,13959.0,18440.0,0.0
-10878.0,23114.0,31245.0,0.0
-10818.0,22444.0,31051.0,0.0
-10583.0,21434.0,30354.0,0.0
-10566.0,20885.0,30283.0,0.0
-10553.0,20352.0,30222.0,0.0
-10444.0,19646.0,29885.0,0.0
-10571.0,19392.0,30225.0,0.0
-10749.0,19223.0,30708.0,0.0
-10838.0,18886.0,30933.0,0.0
-10845.0,18411.0,30926.0,0.0
-10877.0,17983.0,30989.0,0.0
0.0,0.0,0.0,0.0
0.0,0.0,0.0,0.0
0.0,0.0,0.0,0.0
0.0,0.0,0.0,0.0
0.0,0.0,0.0,0.0
0.0,0.0,0.0,0.0
-10540.0,14300.0,29819.0,0.0
-10684.0,14064.0,30194.0,0.0
-10885.0,13893.0,30730.0,0.0
-10921.0,13506.0,30796.0,0.0
-10915.0,13070.0,30746.0,0.0
-10865.0,12587.0,30568.0,0.0
-10859.0,12162.0,30514.0,0.0
-10948.0,11845.0,30729.0,0.0
-11567.0,12078.0,32426.0,0.0
0.0,0.0,0.0,0.0
0.0,0.0,0.0,0.0
0.0,0.0,0.0,0.0
-11465.0,10278.0,31978.0,0.0
0.0,0.0,0.0,0.0
-11356.0,9364.0,31593.0,0.0
-11316.0,8928.0,31436.0,0.0
-11436.0,8620.0,31728.0,0.0
-11736.0,8434.0,32512.0,0.0
-9102.0,6225.0,25181.0,0.0
-9094.0,5905.0,25120.0,0.0
-9082.0,5587.0,25055.0,0.0
-9061.0,5265.0,24956.0,0.0
-9060.0,4958.0,24918.0,0.0
-9036.0,4641.0,24812.0,0.0
-9026.0,4334.0,24744.0,0.0
-9015.0,4030.0,24678.0,0.0
-9009.0,3730.0,24621.0,0.0
-8990.0,3428.0,24532.0,0.0
-8990.0,3134.0,24490.0,0.0
-8973.0,2837.0,24402.0,0.0
-8974.0,2548.0,24363.0,0.0
-8953.0,2255.0,24265.0,0.0
-8949.0,1968.0,24213.0,0.0
-8936.0,1680.0,24135.0,0.0
-8923.0,1395.0,24055.0,0.0
-8928.0,1115.0,24025.0,0.0
-8910.0,833.0,23934.0,0.0
-8914.0,554.0,23900.0,0.0
-8906.0,276.0,23831.0,0.0
-8896.0,0.0,23759.0,0.0
-8889.0,-274.0,23695.0,0.0
-8890.0,-548.0,23651.0,0.0
-8891.0,-822.0,23606.0,0.0
-8883.0,-1093.0,23537.0,0.0
-9044.0,-1389.0,23915.0,0.0
-9532.0,-1755.0,25153.0,0.0
-9661.0,-2072.0,25439.0,0.0
-9582.0,-2346.0,25176.0,2.0
-9536.0,-2624.0,25004.0,2.0
-9553.0,-2917.0,24992.0,2.0
-9498.0,-3186.0,24794.0,2.0
-9503.0,-3474.0,24749.0,2.0
-9576.0,-3789.0,24883.0,2.0
-9641.0,-4103.0,24992.0,2.0
-9712.0,-4426.0,25120.0,2.0
-9754.0,-4737.0,25168.0,2.0
-9835.0,-5071.0,25315.0,2.0
-9947.0,-5426.0,25541.0,2.0
-10022.0,-5766.0,25670.0,2.0
-10120.0,-6125.0,25854.0,2.0
-10185.0,-6469.0,25955.0,2.0
-10272.0,-6829.0,26105.0,2.0
-10362.0,-7199.0,26265.0,2.0
-10458.0,-7578.0,26438.0,2.0
-10559.0,-7967.0,26620.0,2.0
-20.0,-16.0,53.0,0.0
-10738.0,-8744.0,26921.0,2.0
-10848.0,-9160.0,27122.0,2.0
-10961.0,-9584.0,27324.0,2.0
-11060.0,-10003.0,27492.0,2.0
-11090.0,-10364.0,27484.0,2.0
-11110.0,-10717.0,27452.0,2.0
-11098.0,-11040.0,27337.0,2.0
-11108.0,-11386.0,27277.0,2.0
-11104.0,-11719.0,27181.0,2.0
-11095.0,-12046.0,27073.0,2.0
-11132.0,-12426.0,27076.0,2.0
-11183.0,-12823.0,27108.0,2.0
-11214.0,-13202.0,27093.0,2.0
-11140.0,-13457.0,26823.0,2.0
-11057.0,-13696.0,26530.0,2.0
-10978.0,-13938.0,26248.0,2.0
-10879.0,-14150.0,25918.0,2.0
-10805.0,-14390.0,25648.0,2.0
-10781.0,-14694.0,25496.0,2.0
-10660.0,-14863.0,25114.0,2.0
-10578.0,-15082.0,24826.0,2.0
-10500.0,-15302.0,24547.0,2.0
-10409.0,-15501.0,24239.0,2.0
-10342.0,-15731.0,23984.0,2.0
-10274.0,-15957.0,23730.0,2.0
-10241.0,-16234.0,23553.0,2.0
-10183.0,-16472.0,23320.0,2.0
-10107.0,-16679.0,23045.0,2.0
-9932.0,-16716.0,22547.0,0.0
-9670.0,-16593.0,21852.0,2.0
-9449.0,-16527.0,21254.0,0.0
-9227.0,-16447.0,20659.0,0.0
-9056.0,-16446.0,20180.0,0.0
-9061.0,-16761.0,20093.0,0.0
-9051.0,-17050.0,19971.0,0.0
-9085.0,-17424.0,19944.0,0.0
-9093.0,-17754.0,19859.0,0.0
-9116.0,-18115.0,19803.0,0.0
-9131.0,-18465.0,19731.0,0.0
-9143.0,-18810.0,19646.0,0.0
-9164.0,-19180.0,19581.0,0.0
-9175.0,-19533.0,19493.0,0.0
-9188.0,-19892.0,19406.0,0.0
-9212.0,-20281.0,19342.0,0.0
-9233.0,-20666.0,19267.0,0.0
-9250.0,-21047.0,19181.0,0.0
-9264.0,-21426.0,19086.0,0.0
-9294.0,-21845.0,19023.0,0.0
-9320.0,-22261.0,18947.0,0.0
-9339.0,-22670.0,18859.0,0.0
-32.0,-80.0,64.0,0.0
-34.0,-86.0,69.0,0.0
-34.0,-87.0,67.0,0.0
-35.0,-93.0,71.0,0.0
-41.0,-109.0,80.0,0.0
-45.0,-121.0,88.0,0.0
-41.0,-114.0,80.0,0.0
-49.0,-137.0,94.0,0.0
-46.0,-130.0,87.0,0.0
-51.0,-145.0,95.0,0.0
-48.0,-141.0,90.0,0.0
-46.0,-138.0,86.0,0.0
-47.0,-141.0,86.0,0.0
-55.0,-166.0,99.0,0.0
-53.0,-164.0,95.0,0.0
-51.0,-161.0,91.0,0.0
-55.0,-177.0,98.0,0.0
-54.0,-176.0,95.0,0.0
-56.0,-188.0,98.0,0.0
-56.0,-189.0,96.0,0.0
-58.0,-197.0,97.0,0.0
-59.0,-203.0,98.0,0.0
-60.0,-210.0,98.0,0.0
-57.0,-204.0,93.0,0.0
-61.0,-222.0,98.0,0.0
-59.0,-216.0,92.0,0.0
-62.0,-230.0,96.0,0.0
-63.0,-238.0,95.0,0.0
-64.0,-244.0,96.0,0.0
-72.0,-282.0,106.0,0.0
-83.0,-326.0,120.0,0.0
-83.0,-332.0,117.0,0.0
-80.0,-327.0,112.0,0.0
-81.0,-332.0,109.0,0.0
-78.0,-327.0,104.0,0.0
-78.0,-333.0,101.0,0.0
-77.0,-333.0,97.0,0.0
-75.0,-331.0,93.0,0.0
-74.0,-332.0,90.0,0.0
-74.0,-336.0,87.0,0.0
-4704.0,15918.0,14237.0,0.0
-4792.0,15863.0,14496.0,0.0
-4879.0,15798.0,14752.0,0.0
-4965.0,15721.0,14999.0,0.0
-5013.0,15526.0,15135.0,0.0
-5314.0,16099.0,16036.0,0.0
-5135.0,15215.0,15488.0,0.0
-5324.0,15424.0,16045.0,0.0
-5188.0,14699.0,15625.0,0.0
-5264.0,14582.0,15842.0,0.0
-6318.0,17111.0,19001.0,0.0
-6298.0,16673.0,18925.0,0.0
-6275.0,16239.0,18843.0,0.0
-5895.0,14912.0,17691.0,0.0
-6207.0,15341.0,18610.0,0.0
-5924.0,14306.0,17747.0,0.0
-6162.0,14537.0,18444.0,0.0
-6158.0,14192.0,18418.0,0.0
-6188.0,13926.0,18490.0,0.0
-10503.0,23079.0,31355.0,0.0
-10645.0,22832.0,31747.0,0.0
-10229.0,21412.0,30478.0,0.0
-10159.0,20750.0,30242.0,0.0
0.0,0.0,0.0,0.0
-10305.0,20024.0,30616.0,0.0
-10195.0,19315.0,30261.0,0.0
-10207.0,18848.0,30265.0,0.0
-10458.0,18817.0,30978.0,0.0
-10467.0,18345.0,30974.0,0.0
-11443.0,19526.0,33822.0,0.0
0.0,0.0,0.0,0.0
-11366.0,18367.0,33524.0,0.0
-11325.0,17797.0,33365.0,0.0
0.0,0.0,0.0,0.0
0.0,0.0,0.0,0.0
0.0,0.0,0.0,0.0
-10209.0,14280.0,29937.0,0.0
0.0,0.0,0.0,0.0
-10216.0,13439.0,29888.0,0.0
-10201.0,13001.0,29809.0,0.0
-10196.0,12580.0,29756.0,0.0
-10358.0,12364.0,30191.0,0.0
-10495.0,12109.0,30551.0,0.0
-11100.0,12369.0,32268.0,0.0
-11010.0,11839.0,31967.0,0.0
-11102.0,11508.0,32190.0,0.0
-11093.0,11074.0,32122.0,0.0
-11104.0,10662.0,32107.0,0.0
-11048.0,10192.0,31902.0,0.0
-11019.0,9754.0,31773.0,0.0
-10951.0,9289.0,31533.0,0.0
-10920.0,8860.0,31396.0,0.0
-11072.0,8580.0,31788.0,0.0
-11379.0,8408.0,32623.0,0.0
-8793.0,6182.0,25173.0,0.0
-8786.0,5863.0,25113.0,0.0
-8781.0,5549.0,25060.0,0.0
-8766.0,5232.0,24981.0,0.0
-8749.0,4916.0,24893.0,0.0
-8740.0,4608.0,24827.0,0.0
-8731.0,4303.0,24761.0,0.0
-8720.0,4000.0,24692.0,0.0
-8711.0,3699.0,24624.0,0.0
-8701.0,3400.0,24555.0,0.0
-8686.0,3102.0,24471.0,0.0
-8678.0,2809.0,24406.0,0.0
-8667.0,2517.0,24331.0,0.0
-8662.0,2229.0,24279.0,0.0
-8647.0,1940.0,24192.0,0.0
-8637.0,1655.0,24120.0,0.0
-8640.0,1374.0,24084.0,0.0
-8628.0,1091.0,24006.0,0.0
-8624.0,812.0,23951.0,0.0
-8612.0,533.0,23872.0,0.0
-8608.0,256.0,23812.0,0.0
-8596.0,-17.0,23736.0,0.0
-8591.0,-291.0,23675.0,0.0
-8598.0,-565.0,23647.0,0.0
-8590.0,-836.0,23576.0,0.0
-8592.0,-1107.0,23536.0,0.0
-8767.0,-1406.0,23966.0,0.0
-9240.0,-1772.0,25204.0,0.0
-9341.0,-2083.0,25426.0,0.0
-9226.0,-2346.0,25058.0,2.0
-9280.0,-2649.0,25153.0,2.0
-9214.0,-2917.0,24918.0,2.0
-9154.0,-3182.0,24700.0,2.0
-9178.0,-3475.0,24709.0,2.0
-9252.0,-3790.0,24852.0,2.0
-9315.0,-4103.0,24961.0,2.0
-9366.0,-4415.0,25041.0,2.0
-9435.0,-4739.0,25165.0,2.0
-9503.0,-5066.0,25286.0,2.0
-9585.0,-5405.0,25443.0,2.0
-9657.0,-5743.0,25568.0,2.0
-9731.0,-6086.0,25700.0,2.0
-9832.0,-6452.0,25901.0,2.0
-9905.0,-6805.0,26027.0,2.0
-10040.0,-7206.0,26310.0,2.0
-10131.0,-7583.0,26478.0,2.0
-10228.0,-7971.0,26663.0,2.0
-10294.0,-8339.0,26760.0,2.0
-10407.0,-8752.0,26978.0,2.0
-10501.0,-9156.0,27147.0,2.0
-10598.0,-9568.0,27319.0,2.0
-10701.0,-9993.0,27506.0,2.0
-10767.0,-10389.0,27595.0,2.0
-10756.0,-10711.0,27483.0,2.0
-10732.0,-11021.0,27340.0,2.0
-10744.0,-11369.0,27286.0,2.0
-10715.0,-11672.0,27128.0,2.0
-10740.0,-12037.0,27106.0,2.0
-10704.0,-12333.0,26929.0,2.0
-10743.0,-12717.0,26941.0,2.0
-10716.0,-13022.0,26782.0,2.0
-10721.0,-13368.0,26705.0,2.0
-10678.0,-13654.0,26509.0,2.0
-10605.0,-13898.0,26235.0,2.0
-10529.0,-14136.0,25955.0,2.0
-10419.0,-14322.0,25592.0,2.0
-10329.0,-14533.0,25280.0,2.0
-10275.0,-14790.0,25055.0,2.0
-10198.0,-15009.0,24772.0,2.0
-10142.0,-15259.0,24544.0,2.0
-10062.0,-15469.0,24256.0,2.0
-9997.0,-15699.0,24002.0,2.0
-9955.0,-15962.0,23806.0,2.0
-9894.0,-16195.0,23563.0,2.0
-9846.0,-16445.0,23350.0,2.0
-9764.0,-16639.0,23059.0,2.0
-9622.0,-16721.0,22624.0,0.0
-9364.0,-16592.0,21921.0,2.0
-9124.0,-16480.0,21263.0,0.0
-8914.0,-16409.0,20680.0,0.0
-8743.0,-16398.0,20188.0,0.0
-8742.0,-16704.0,20091.0,0.0
-8695.0,-16919.0,19885.0,0.0
-8763.0,-17362.0,19941.0,0.0
-8763.0,-17676.0,19841.0,0.0
-8786.0,-18039.0,19791.0,0.0
-8791.0,-18367.0,19696.0,0.0
-8808.0,-18727.0,19631.0,0.0
-8824.0,-19087.0,19559.0,0.0
-8842.0,-19455.0,19490.0,0.0
-8864.0,-19834.0,19425.0,0.0
-8878.0,-20204.0,19344.0,0.0
-8898.0,-20589.0,19271.0,0.0
-8911.0,-20962.0,19181.0,0.0
-8928.0,-21352.0,19100.0,0.0
-8948.0,-21752.0,19021.0,0.0
-8973.0,-22168.0,18949.0,0.0
-8990.0,-22574.0,18859.0,0.0
-35.0,-92.0,75.0,0.0
-37.0,-97.0,77.0,0.0
-39.0,-104.0,81.0,0.0
-40.0,-111.0,84.0,0.0
-39.0,-110.0,81.0,0.0
-41.0,-115.0,83.0,0.0
-49.0,-139.0,98.0,0.0
-42.0,-121.0,84.0,0.0
-48.0,-140.0,95.0,0.0
-49.0,-145.0,96.0,0.0
-53.0,-161.0,103.0,0.0
-52.0,-159.0,101.0,0.0
-48.0,-151.0,93.0,0.0
-50.0,-158.0,94.0,0.0
-50.0,-158.0,92.0,0.0
-52.0,-167.0,96.0,0.0
-54.0,-178.0,99.0,0.0
-56.0,-189.0,102.0,0.0
-54.0,-183.0,97.0,0.0
-57.0,-197.0,101.0,0.0
-59.0,-208.0,104.0,0.0
-55.0,-197.0,96.0,0.0
-61.0,-221.0,104.0,0.0
-57.0,-207.0,95.0,0.0
-60.0,-225.0,100.0,0.0
-59.0,-227.0,98.0,0.0
-59.0,-228.0,95.0,0.0
-61.0,-240.0,97.0,0.0
-65.0,-258.0,101.0,0.0
-69.0,-280.0,106.0,0.0
-77.0,-317.0,116.0,0.0
-78.0,-326.0,117.0,0.0
-77.0,-323.0,111.0,0.0
-76.0,-328.0,108.0,0.0
-74.0,-322.0,103.0,0.0
-71.0,-317.0,98.0,0.0
-73.0,-329.0,97.0,0.0
-70.0,-325.0,93.0,0.0
-69.0,-326.0,88.0,0.0
-69.0,-329.0,87.0,0.0
-4512.0,15887.0,14281.0,0.0
-4600.0,15837.0,14547.0,0.0
-4687.0,15778.0,14807.0,0.0
-4777.0,15727.0,15082.0,0.0
-4867.0,15664.0,15348.0,0.0
-4958.0,15601.0,15620.0,0.0
-4935.0,15186.0,15536.0,0.0
-5079.0,15281.0,15976.0,0.0
-5138.0,15108.0,16141.0,0.0
-5096.0,14649.0,15995.0,0.0
-5850.0,16438.0,18345.0,0.0
-6005.0,16487.0,18809.0,0.0
-6004.0,16111.0,18788.0,0.0
-5975.0,15667.0,18679.0,0.0
-5944.0,15227.0,18562.0,0.0
-5922.0,14819.0,18474.0,0.0
-5977.0,14609.0,18627.0,0.0
-5992.0,14302.0,18653.0,0.0
-6007.0,13998.0,18678.0,0.0
-9963.0,22664.0,30945.0,0.0
-10267.0,22796.0,31854.0,0.0
-9788.0,21207.0,30336.0,0.0
-9772.0,20653.0,30249.0,0.0
-9733.0,20063.0,30096.0,0.0
-9734.0,19565.0,30062.0,0.0
-9898.0,19393.0,30535.0,0.0
-9744.0,18605.0,30024.0,0.0
-10048.0,18691.0,30924.0,0.0
-10073.0,18246.0,30961.0,0.0
-11027.0,19446.0,33855.0,0.0
-10970.0,18824.0,33635.0,0.0
0.0,0.0,0.0,0.0
0.0,0.0,0.0,0.0
0.0,0.0,0.0,0.0
0.0,0.0,0.0,0.0
0.0,0.0,0.0,0.0
-9932.0,14341.0,30222.0,0.0
-10131.0,14187.0,30785.0,0.0
-9848.0,13368.0,29888.0,0.0
-9831.0,12927.0,29796.0,0.0
-9912.0,12615.0,30001.0,0.0
-9990.0,12297.0,30193.0,0.0
-10123.0,12043.0,30553.0,0.0
-10442.0,11997.0,31473.0,0.0
0.0,0.0,0.0,0.0
-10678.0,11409.0,32093.0,0.0
-10699.0,11006.0,32109.0,0.0
-10671.0,10557.0,31977.0,0.0
-10646.0,10119.0,31858.0,0.0
-10593.0,9658.0,31650.0,0.0
-10517.0,9186.0,31374.0,0.0
-10556.0,8819.0,31445.0,0.0
-10709.0,8544.0,31851.0,0.0
-10998.0,8364.0,32663.0,0.0
-8487.0,6138.0,25162.0,0.0
-8474.0,5817.0,25085.0,0.0
-8469.0,5505.0,25032.0,0.0
-8458.0,5191.0,24961.0,0.0
-8439.0,4875.0,24863.0,0.0
-8426.0,4566.0,24783.0,0.0
-8427.0,4267.0,24742.0,0.0
-8419.0,3965.0,24677.0,0.0
-8404.0,3663.0,24592.0,0.0
-8398.0,3367.0,24532.0,0.0
-8387.0,3072.0,24459.0,0.0
-8369.0,2776.0,24362.0,0.0
-8368.0,2488.0,24317.0,0.0
-8351.0,2198.0,24224.0,0.0
-8345.0,1913.0,24161.0,0.0
-8352.0,1632.0,24138.0,0.0
-8335.0,1349.0,24043.0,0.0
-8332.0,1069.0,23989.0,0.0
-8330.0,791.0,23939.0,0.0
-8314.0,513.0,23846.0,0.0
-8312.0,238.0,23796.0,0.0
-8303.0,-35.0,23722.0,0.0
-8299.0,-307.0,23665.0,0.0
-8309.0,-580.0,23644.0,0.0
-8297.0,-850.0,23563.0,0.0
-8290.0,-1119.0,23495.0,0.0
-8466.0,-1418.0,23943.0,0.0
-8972.0,-1793.0,25320.0,0.0
-8991.0,-2087.0,25321.0,0.0
-8913.0,-2356.0,25047.0,2.0
-8958.0,-2655.0,25117.0,2.0
-8914.0,-2928.0,24940.0,2.0
-8859.0,-3194.0,24730.0,2.0
-8834.0,-3467.0,24604.0,2.0
-8868.0,-3764.0,24643.0,2.0
-9028.0,-4119.0,25030.0,2.0
-9075.0,-4430.0,25102.0,2.0
-9125.0,-4744.0,25179.0,2.0
-9175.0,-5061.0,25256.0,2.0
-9254.0,-5399.0,25412.0,2.0
-9328.0,-5739.0,25553.0,2.0
-9394.0,-6078.0,25672.0,2.0
-9506.0,-6452.0,25910.0,2.0
-9593.0,-6814.0,26080.0,2.0
-9705.0,-7202.0,26318.0,2.0
-9782.0,-7570.0,26457.0,2.0
-9922.0,-7993.0,26764.0,2.0
-9963.0,-8343.0,26802.0,2.0
-10069.0,-8752.0,27012.0,2.0
-10162.0,-9158.0,27186.0,2.0
-10240.0,-9555.0,27319.0,2.0
-10330.0,-9969.0,27481.0,2.0
-10330.0,-10298.0,27400.0,2.0
-10331.0,-10632.0,27325.0,2.0
-10291.0,-10920.0,27136.0,2.0
-10318.0,-11281.0,27126.0,2.0
-10254.0,-11542.0,26874.0,2.0
-10261.0,-11883.0,26812.0,2.0
-10275.0,-12232.0,26762.0,2.0
-10225.0,-12506.0,26549.0,2.0
-10237.0,-12854.0,26492.0,2.0
-10250.0,-13205.0,26438.0,2.0
-10225.0,-13509.0,26287.0,2.0
-10203.0,-13817.0,26141.0,2.0
-10128.0,-14050.0,25860.0,2.0
-10084.0,-14323.0,25656.0,2.0
-10001.0,-14540.0,25355.0,2.0
-9931.0,-14770.0,25085.0,2.0
-9858.0,-14994.0,24810.0,2.0
-9815.0,-15258.0,24607.0,2.0
-9730.0,-15458.0,24303.0,2.0
-9672.0,-15695.0,24064.0,2.0
-9603.0,-15915.0,23801.0,2.0
-9595.0,-16233.0,23685.0,2.0
-9519.0,-16434.0,23403.0,2.0
-9508.0,-16746.0,23277.0,0.0
-9311.0,-16726.0,22698.0,0.0
-9086.0,-16644.0,22056.0,0.0
-8835.0,-16497.0,21350.0,0.0
-8630.0,-16425.0,20764.0,0.0
-8441.0,-16369.0,20216.0,0.0
-8437.0,-16667.0,20113.0,0.0
-8315.0,-16731.0,19729.0,0.0
-8448.0,-17310.0,19947.0,0.0
-8455.0,-17637.0,19864.0,0.0
-8472.0,-17990.0,19807.0,0.0
-8486.0,-18341.0,19738.0,0.0
-8490.0,-18671.0,19643.0,0.0
-8512.0,-19048.0,19590.0,0.0
-8519.0,-19395.0,19501.0,0.0
-8539.0,-19770.0,19435.0,0.0
-8559.0,-20155.0,19370.0,0.0
-8566.0,-20514.0,19274.0,0.0
-8587.0,-20911.0,19210.0,0.0
-8603.0,-21296.0,19125.0,0.0
-8620.0,-21693.0,19045.0,0.0
-8633.0,-22085.0,18954.0,0.0
-28.0,-76.0,64.0,0.0
-34.0,-92.0,76.0,0.0
-39.0,-105.0,84.0,0.0
-36.0,-101.0,79.0,0.0
-34.0,-96.0,74.0,0.0
-33.0,-95.0,71.0,0.0
-44.0,-130.0,94.0,0.0
-44.0,-128.0,92.0,0.0
-44.0,-130.0,90.0,0.0
-48.0,-147.0,100.0,0.0
-44.0,-137.0,91.0,0.0
-44.0,-138.0,89.0,0.0
-46.0,-145.0,91.0,0.0
-46.0,-150.0,93.0,0.0
-48.0,-157.0,94.0,0.0
-51.0,-168.0,99.0,0.0
-51.0,-173.0,99.0,0.0
-51.0,-175.0,97.0,0.0
-47.0,-164.0,89.0,0.0
-48.0,-172.0,91.0,0.0
-51.0,-185.0,95.0,0.0
-52.0,-192.0,97.0,0.0
-51.0,-188.0,92.0,0.0
-53.0,-201.0,95.0,0.0
-51.0,-197.0,91.0,0.0
-56.0,-219.0,97.0,0.0
-55.0,-218.0,95.0,0.0
-57.0,-230.0,97.0,0.0
-58.0,-237.0,97.0,0.0
-60.0,-250.0,99.0,0.0
-60.0,-253.0,97.0,0.0
-72.0,-309.0,114.0,0.0
-75.0,-326.0,116.0,0.0
-73.0,-322.0,112.0,0.0
-72.0,-326.0,109.0,0.0
-71.0,-322.0,104.0,0.0
-70.0,-326.0,101.0,0.0
-70.0,-330.0,99.0,0.0
-67.0,-323.0,93.0,0.0
-67.0,-326.0,90.0,0.0
-66.0,-330.0,87.0,0.0
-4325.0,15875.0,14342.0,0.0
-4411.0,15824.0,14607.0,0.0
-4497.0,15770.0,14873.0,0.0
-4583.0,15713.0,15141.0,0.0
-4672.0,15656.0,15414.0,0.0
-4760.0,15589.0,15685.0,0.0
-4840.0,15495.0,15930.0,0.0
-4932.0,15430.0,16209.0,0.0
-4879.0,14918.0,16017.0,0.0
-4927.0,14725.0,16155.0,0.0
-5022.0,14663.0,16443.0,0.0
-5741.0,16379.0,18776.0,0.0
-5797.0,16156.0,18932.0,0.0
-5839.0,15899.0,19047.0,0.0
-5536.0,14723.0,18034.0,0.0
-5717.0,14847.0,18598.0,0.0
-5774.0,14643.0,18760.0,0.0
-5775.0,14299.0,18739.0,0.0
-5785.0,13983.0,18746.0,0.0
-5845.0,13786.0,18914.0,0.0
-9384.0,21596.0,30325.0,0.0
-7172.0,16106.0,23150.0,0.0
-7187.0,15740.0,23164.0,0.0
-7163.0,15297.0,23056.0,0.0
-7184.0,14957.0,23095.0,0.0
-7187.0,14583.0,23073.0,0.0
-7190.0,14215.0,23052.0,0.0
-7182.0,13831.0,22996.0,0.0
-7170.0,13443.0,22924.0,0.0
-7163.0,13072.0,22871.0,0.0
0.0,0.0,0.0,0.0
0.0,0.0,0.0,0.0
0.0,0.0,0.0,0.0
0.0,0.0,0.0,0.0
0.0,0.0,0.0,0.0
0.0,0.0,0.0,0.0
0.0,0.0,0.0,0.0
0.0,0.0,0.0,0.0
-9483.0,13300.0,29887.0,0.0
-9471.0,12863.0,29806.0,0.0
-9612.0,12634.0,30205.0,0.0
-9738.0,12380.0,30558.0,0.0
-9760.0,11989.0,30578.0,0.0
-10265.0,12176.0,32114.0,0.0
0.0,0.0,0.0,0.0
-10267.0,11320.0,32020.0,0.0
0.0,0.0,0.0,0.0
-10225.0,10437.0,31790.0,0.0
0.0,0.0,0.0,0.0
0.0,0.0,0.0,0.0
-10147.0,9138.0,31397.0,0.0
-10180.0,8768.0,31450.0,0.0
-10372.0,8529.0,31990.0,0.0
-8673.0,6797.0,26707.0,0.0
-8184.0,6099.0,25159.0,0.0
-8174.0,5780.0,25085.0,0.0
-8175.0,5472.0,25048.0,0.0
-8160.0,5156.0,24961.0,0.0
-8151.0,4846.0,24891.0,0.0
-8140.0,4539.0,24816.0,0.0
-8135.0,4236.0,24757.0,0.0
-8121.0,3932.0,24670.0,0.0
-8106.0,3631.0,24580.0,0.0
-8095.0,3334.0,24502.0,0.0
-8101.0,3046.0,24476.0,0.0
-8092.0,2754.0,24406.0,0.0
-8073.0,2462.0,24306.0,0.0
-8070.0,2176.0,24252.0,0.0
-8059.0,1890.0,24172.0,0.0
-8060.0,1609.0,24130.0,0.0
-8038.0,1325.0,24019.0,0.0
-8044.0,1048.0,23994.0,0.0
-8042.0,771.0,23940.0,0.0
-8031.0,494.0,23858.0,0.0
-8021.0,220.0,23782.0,0.0
-8014.0,-52.0,23714.0,0.0
-8021.0,-325.0,23688.0,0.0
-8014.0,-594.0,23620.0,0.0
-8013.0,-865.0,23567.0,0.0
-8007.0,-1132.0,23500.0,0.0
-8183.0,-1431.0,23968.0,0.0
-8712.0,-1815.0,25461.0,0.0
-8644.0,-2088.0,25208.0,0.0
-8611.0,-2367.0,25058.0,2.0
-8595.0,-2647.0,24955.0,2.0
-8605.0,-2935.0,24931.0,2.0
-8570.0,-3207.0,24775.0,2.0
-8551.0,-3482.0,24664.0,2.0
-8570.0,-3771.0,24662.0,2.0
-8697.0,-4113.0,24969.0,2.0
-8743.0,-4422.0,25044.0,2.0
-8795.0,-4738.0,25133.0,2.0
-8862.0,-5064.0,25264.0,2.0
-8914.0,-5386.0,25350.0,2.0
-9000.0,-5734.0,25532.0,2.0
-9082.0,-6083.0,25701.0,2.0
-9123.0,-6410.0,25753.0,2.0
-9209.0,-6771.0,25928.0,2.0
-9313.0,-7152.0,26155.0,2.0
-9422.0,-7544.0,26391.0,2.0
-9498.0,-7917.0,26537.0,2.0
-9611.0,-8328.0,26781.0,2.0
-9700.0,-8724.0,26954.0,2.0
-9798.0,-9134.0,27153.0,2.0
-9881.0,-9537.0,27307.0,2.0
-9880.0,-9863.0,27228.0,2.0
-9846.0,-10154.0,27057.0,2.0
-9813.0,-10445.0,26888.0,2.0
-9829.0,-10789.0,26854.0,2.0
-9856.0,-11146.0,26847.0,2.0
-9816.0,-11428.0,26657.0,2.0
-9775.0,-11707.0,26466.0,2.0
-9768.0,-12026.0,26364.0,2.0
-9749.0,-12330.0,26229.0,2.0
-9750.0,-12661.0,26150.0,2.0
-9752.0,-12994.0,26072.0,2.0
-9753.0,-13327.0,25988.0,2.0
-9702.0,-13588.0,25766.0,2.0
-9701.0,-13918.0,25675.0,2.0
-9609.0,-14117.0,25345.0,2.0
-9586.0,-14415.0,25198.0,2.0
-9533.0,-14665.0,24968.0,2.0
-9460.0,-14882.0,24687.0,2.0
-9406.0,-15127.0,24459.0,2.0
-9367.0,-15396.0,24268.0,2.0
-9319.0,-15645.0,24052.0,2.0
-9298.0,-15940.0,23903.0,2.0
-9238.0,-16168.0,23657.0,2.0
-9185.0,-16406.0,23426.0,2.0
-9146.0,-16667.0,23233.0,0.0
-9101.0,-16918.0,23025.0,0.0
-8787.0,-16656.0,22137.0,0.0
-8550.0,-16522.0,21448.0,0.0
-8344.0,-16434.0,20839.0,0.0
-8144.0,-16347.0,20252.0,0.0
-8119.0,-16603.0,20099.0,0.0
-8082.0,-16835.0,19915.0,0.0
-8129.0,-17244.0,19937.0,0.0
-8136.0,-17574.0,19859.0,0.0
-8158.0,-17938.0,19815.0,0.0
-8157.0,-18258.0,19715.0,0.0
-8171.0,-18613.0,19650.0,0.0
-8200.0,-19004.0,19614.0,0.0
-8193.0,-19321.0,19496.0,0.0
-8212.0,-19700.0,19437.0,0.0
-8228.0,-20074.0,19364.0,0.0
-8231.0,-20425.0,19264.0,0.0
-8253.0,-20824.0,19202.0,0.0
-8259.0,-21191.0,19105.0,0.0
-8270.0,-21575.0,19016.0,0.0
-8305.0,-22026.0,18979.0,0.0
-8315.0,-22413.0,18880.0,0.0
-34.0,-96.0,79.0,0.0
-32.0,-90.0,72.0,0.0
-36.0,-104.0,82.0,0.0
-37.0,-110.0,84.0,0.0
-36.0,-108.0,81.0,0.0
-39.0,-117.0,86.0,0.0
-39.0,-119.0,86.0,0.0
-44.0,-135.0,94.0,0.0
-44.0,-137.0,94.0,0.0
-41.0,-134.0,89.0,0.0
-41.0,-136.0,88.0,0.0
-41.0,-137.0,87.0,0.0
-46.0,-155.0,96.0,0.0
-48.0,-165.0,99.0,0.0
-52.0,-179.0,105.0,0.0
-49.0,-173.0,99.0,0.0
-50.0,-179.0,101.0,0.0
-51.0,-186.0,102.0,0.0
-50.0,-185.0,98.0,0.0
-54.0,-202.0,105.0,0.0
-48.0,-185.0,94.0,0.0
-50.0,-194.0,95.0,0.0
-52.0,-205.0,98.0,0.0
-54.0,-215.0,99.0,0.0
-55.0,-225.0,102.0,0.0
-55.0,-227.0,99.0,0.0
-54.0,-226.0,96.0,0.0
-55.0,-236.0,97.0,0.0
-56.0,-242.0,96.0,0.0
-57.0,-250.0,97.0,0.0
-66.0,-294.0,110.0,0.0
-71.0,-322.0,117.0,0.0
-70.0,-326.0,114.0,0.0
-69.0,-321.0,108.0,0.0
-66.0,-316.0,102.0,0.0
-66.0,-320.0,100.0,0.0
-65.0,-325.0,98.0,0.0
-65.0,-329.0,95.0,0.0
-64.0,-324.0,90.0,0.0
-63.0,-327.0,88.0,0.0
-4135.0,15854.0,14392.0,0.0
-4220.0,15807.0,14662.0,0.0
-4304.0,15755.0,14930.0,0.0
-4387.0,15693.0,15195.0,0.0
-4473.0,15632.0,15464.0,0.0
-4532.0,15479.0,15647.0,0.0
-4645.0,15497.0,16007.0,0.0
-4627.0,15083.0,15920.0,0.0
-4769.0,15187.0,16382.0,0.0
-4772.0,14848.0,16369.0,0.0
-4781.0,14532.0,16374.0,0.0
-5108.0,15166.0,17466.0,0.0
-5214.0,15119.0,17799.0,0.0
-5313.0,15045.0,18108.0,0.0
-5379.0,14874.0,18304.0,0.0
-5505.0,14862.0,18704.0,0.0
-5329.0,14045.0,18078.0,0.0
-5578.0,14350.0,18894.0,0.0
-5604.0,14071.0,18953.0,0.0
-5625.0,13778.0,18991.0,0.0
-9009.0,21529.0,30372.0,0.0
-6958.0,16217.0,23419.0,0.0
-9002.0,20460.0,30252.0,0.0
-7121.0,15779.0,23896.0,0.0
-7161.0,15466.0,23992.0,0.0
-7198.0,15148.0,24078.0,0.0
-7211.0,14781.0,24084.0,0.0
-7197.0,14366.0,23999.0,0.0
-7219.0,14027.0,24034.0,0.0
-6855.0,12963.0,22787.0,0.0
-7180.0,13207.0,23828.0,0.0
-7183.0,12847.0,23800.0,0.0
0.0,0.0,0.0,0.0
0.0,0.0,0.0,0.0
0.0,0.0,0.0,0.0
0.0,0.0,0.0,0.0
-9065.0,14001.0,29800.0,0.0
-9125.0,13664.0,29950.0,0.0
-9153.0,13280.0,29995.0,0.0
-9127.0,12823.0,29862.0,0.0
-9243.0,12565.0,30192.0,0.0
-9363.0,12307.0,30534.0,0.0
-9415.0,11958.0,30656.0,0.0
-9659.0,11843.0,31398.0,0.0
0.0,0.0,0.0,0.0
0.0,0.0,0.0,0.0
0.0,0.0,0.0,0.0
-9878.0,10414.0,31893.0,0.0
-9858.0,9980.0,31778.0,0.0
-9773.0,9489.0,31452.0,0.0
-9760.0,9074.0,31357.0,0.0
-9821.0,8731.0,31499.0,0.0
-10012.0,8496.0,32058.0,0.0
-8333.0,6736.0,26633.0,0.0
-7874.0,6053.0,25126.0,0.0
-7871.0,5740.0,25071.0,0.0
-7864.0,5427.0,25007.0,0.0
-7852.0,5114.0,24923.0,0.0
-7847.0,4808.0,24865.0,0.0
-7834.0,4499.0,24777.0,0.0
-7829.0,4199.0,24718.0,0.0
-7806.0,3891.0,24600.0,0.0
-7802.0,3597.0,24542.0,0.0
-7810.0,3309.0,24522.0,0.0
-7798.0,3015.0,24441.0,0.0
-7786.0,2723.0,24356.0,0.0
-7790.0,2438.0,24324.0,0.0
-7770.0,2149.0,24215.0,0.0
-7768.0,1867.0,24162.0,0.0
-7761.0,1585.0,24096.0,0.0
-7753.0,1305.0,24022.0,0.0
-7749.0,1027.0,23965.0,0.0
-7741.0,750.0,23894.0,0.0
-7739.0,476.0,23838.0,0.0
-7742.0,202.0,23801.0,0.0
-7729.0,-68.0,23713.0,0.0
-7731.0,-339.0,23667.0,0.0
-7727.0,-609.0,23608.0,0.0
-7722.0,-878.0,23545.0,0.0
-7717.0,-1145.0,23481.0,0.0
-7909.0,-1446.0,24011.0,0.0
-8415.0,-1830.0,25495.0,0.0
-8345.0,-2102.0,25229.0,0.0
-8292.0,-2373.0,25015.0,2.0
-8280.0,-2654.0,24924.0,2.0
-8306.0,-2945.0,24946.0,2.0
-8228.0,-3198.0,24654.0,2.0
-8219.0,-3474.0,24573.0,2.0
-8245.0,-3766.0,24597.0,2.0
-8339.0,-4092.0,24817.0,2.0
-8412.0,-4414.0,24976.0,2.0
-8487.0,-4742.0,25140.0,2.0
-8541.0,-5060.0,25237.0,2.0
-8614.0,-5396.0,25392.0,2.0
-8672.0,-5726.0,25502.0,2.0
-8736.0,-6064.0,25627.0,2.0
-8803.0,-6408.0,25759.0,2.0
-8904.0,-6782.0,25990.0,2.0
-8967.0,-7135.0,26110.0,2.0
-9080.0,-7532.0,26371.0,2.0
-9143.0,-7894.0,26482.0,2.0
-9228.0,-8281.0,26660.0,2.0
-9347.0,-8706.0,26931.0,2.0
-9447.0,-9121.0,27147.0,2.0
-9413.0,-9408.0,26973.0,2.0
-9381.0,-9696.0,26808.0,2.0
-9382.0,-10018.0,26734.0,2.0
-9376.0,-10333.0,26644.0,2.0
-9383.0,-10663.0,26587.0,2.0
-9364.0,-10964.0,26454.0,2.0
-9325.0,-11241.0,26267.0,2.0
-9321.0,-11558.0,26175.0,2.0
-9286.0,-11837.0,26000.0,2.0
-9301.0,-12179.0,25959.0,2.0
-9221.0,-12399.0,25659.0,2.0
-9222.0,-12722.0,25579.0,2.0
-9239.0,-13071.0,25543.0,2.0
-9258.0,-13425.0,25513.0,2.0
-9241.0,-13727.0,25382.0,2.0
-9233.0,-14046.0,25275.0,2.0
-9190.0,-14309.0,25073.0,2.0
-9121.0,-14530.0,24798.0,2.0
-9063.0,-14766.0,24556.0,2.0
-8969.0,-14937.0,24212.0,2.0
-8963.0,-15254.0,24107.0,2.0
-8923.0,-15514.0,23911.0,2.0
-8847.0,-15710.0,23620.0,2.0
-8838.0,-16022.0,23507.0,2.0
-8797.0,-16277.0,23307.0,2.0
-8793.0,-16599.0,23203.0,0.0
-8819.0,-16982.0,23179.0,0.0
-8491.0,-16676.0,22227.0,0.0
-8266.0,-16550.0,21547.0,0.0
-8059.0,-16447.0,20918.0,0.0
-7888.0,-16407.0,20389.0,0.0
-7821.0,-16573.0,20124.0,0.0
-7818.0,-16878.0,20028.0,0.0
-7825.0,-17207.0,19957.0,0.0
-7831.0,-17535.0,19879.0,0.0
-7842.0,-17877.0,19811.0,0.0
-7853.0,-18224.0,19744.0,0.0
-7860.0,-18565.0,19664.0,0.0
-7879.0,-18940.0,19615.0,0.0
-7891.0,-19298.0,19541.0,0.0
-7886.0,-19622.0,19428.0,0.0
-7908.0,-20016.0,19378.0,0.0
-7917.0,-20384.0,19294.0,0.0
-7939.0,-20790.0,19242.0,0.0
-7943.0,-21152.0,19142.0,0.0
-7962.0,-21558.0,19074.0,0.0
-7973.0,-21950.0,18987.0,0.0
-26.0,-76.0,65.0,0.0
-26.0,-77.0,64.0,0.0
-30.0,-90.0,73.0,0.0
-26.0,-80.0,63.0,0.0
-36.0,-110.0,85.0,0.0
-36.0,-111.0,83.0,0.0
-35.0,-108.0,80.0,0.0
-33.0,-106.0,76.0,0.0
-41.0,-132.0,92.0,0.0
-36.0,-121.0,84.0,0.0
-41.0,-139.0,93.0,0.0
-38.0,-131.0,86.0,0.0
-39.0,-136.0,88.0,0.0
-42.0,-150.0,93.0,0.0
-42.0,-150.0,91.0,0.0
-44.0,-161.0,96.0,0.0
-41.0,-152.0,88.0,0.0
-44.0,-164.0,92.0,0.0
-45.0,-172.0,94.0,0.0
-46.0,-176.0,94.0,0.0
-48.0,-188.0,98.0,0.0
-43.0,-175.0,89.0,0.0
-48.0,-192.0,95.0,0.0
-50.0,-205.0,98.0,0.0
-49.0,-206.0,96.0,0.0
-50.0,-213.0,96.0,0.0
-50.0,-217.0,95.0,0.0
-49.0,-216.0,92.0,0.0
-50.0,-225.0,93.0,0.0
-51.0,-233.0,93.0,0.0
-52.0,-239.0,93.0,0.0
-62.0,-288.0,108.0,0.0
-67.0,-319.0,116.0,0.0
-67.0,-324.0,114.0,0.0
-65.0,-322.0,110.0,0.0
-64.0,-322.0,105.0,0.0
-63.0,-319.0,101.0,0.0
-62.0,-323.0,98.0,0.0
-62.0,-326.0,96.0,0.0
-59.0,-320.0,90.0,0.0
-60.0,-325.0,88.0,0.0
-3953.0,15860.0,14466.0,0.0
-4035.0,15813.0,14736.0,0.0
-4116.0,15762.0,15006.0,0.0
-4196.0,15690.0,15262.0,0.0
-4279.0,15630.0,15535.0,0.0
-4366.0,15574.0,15815.0,0.0
-4436.0,15457.0,16039.0,0.0
-4455.0,15162.0,16077.0,0.0
-4439.0,14753.0,15987.0,0.0
-4607.0,14954.0,16560.0,0.0
-4592.0,14556.0,16475.0,0.0
-4893.0,15148.0,17525.0,0.0
-5001.0,15114.0,17874.0,0.0
-5097.0,15040.0,18185.0,0.0
-5197.0,14969.0,18506.0,0.0
-5298.0,14893.0,18828.0,0.0
-5364.0,14717.0,19029.0,0.0
-5406.0,14475.0,19144.0,0.0
-5390.0,14079.0,19052.0,0.0
-5446.0,13879.0,19217.0,0.0
0.0,0.0,0.0,0.0
-6674.0,16174.0,23463.0,0.0
-6807.0,16080.0,23885.0,0.0
-6930.0,15958.0,24275.0,0.0
-7007.0,15723.0,24502.0,0.0
-7002.0,15306.0,24442.0,0.0
-6990.0,14881.0,24357.0,0.0
-6982.0,14470.0,24285.0,0.0
-6973.0,14064.0,24208.0,0.0
-6935.0,13611.0,24037.0,0.0
-6907.0,13184.0,23897.0,0.0
-6906.0,12817.0,23852.0,0.0
0.0,0.0,0.0,0.0
0.0,0.0,0.0,0.0
0.0,0.0,0.0,0.0
0.0,0.0,0.0,0.0
-9631.0,15417.0,32974.0,0.0
0.0,0.0,0.0,0.0
-8945.0,13447.0,30518.0,0.0
-8919.0,12980.0,30374.0,0.0
-8851.0,12462.0,30091.0,0.0
-8945.0,12176.0,30357.0,0.0
-9115.0,11985.0,30881.0,0.0
-9256.0,11746.0,31301.0,0.0
-9511.0,11639.0,32106.0,0.0
0.0,0.0,0.0,0.0
-9520.0,10800.0,32023.0,0.0
-9507.0,10367.0,31923.0,0.0
-9512.0,9959.0,31882.0,0.0
-9404.0,9440.0,31464.0,0.0
-9425.0,9059.0,31475.0,0.0
-9451.0,8683.0,31505.0,0.0
-9653.0,8464.0,32124.0,0.0
-8031.0,6708.0,26677.0,0.0
-7581.0,6020.0,25139.0,0.0
-7577.0,5706.0,25078.0,0.0
-7568.0,5392.0,25002.0,0.0
-7559.0,5081.0,24928.0,0.0
-7557.0,4778.0,24874.0,0.0
-7543.0,4469.0,24780.0,0.0
-7537.0,4168.0,24716.0,0.0
-7530.0,3869.0,24646.0,0.0
-7531.0,3578.0,24601.0,0.0
-7517.0,3280.0,24510.0,0.0
-7518.0,2992.0,24467.0,0.0
-7499.0,2698.0,24357.0,0.0
-7503.0,2414.0,24324.0,0.0
-7492.0,2129.0,24243.0,0.0
-7479.0,1843.0,24152.0,0.0
-7475.0,1563.0,24092.0,0.0
-7473.0,1285.0,24036.0,0.0
-7470.0,1008.0,23979.0,0.0
-7469.0,733.0,23925.0,0.0
-7461.0,458.0,23854.0,0.0
-7456.0,186.0,23788.0,0.0
-7457.0,-84.0,23744.0,0.0
-7461.0,-355.0,23709.0,0.0
-7455.0,-624.0,23639.0,0.0
-7447.0,-892.0,23564.0,0.0
-7444.0,-1158.0,23505.0,0.0
-7637.0,-1462.0,24064.0,0.0
-8113.0,-1842.0,25507.0,0.0
-7998.0,-2101.0,25092.0,2.0
-7988.0,-2381.0,25006.0,2.0
-7972.0,-2659.0,24902.0,2.0
-7951.0,-2934.0,24780.0,2.0
-7898.0,-3193.0,24560.0,2.0
-7892.0,-3468.0,24486.0,2.0
-7939.0,-3768.0,24574.0,2.0
-8077.0,-4117.0,24943.0,2.0
-8123.0,-4426.0,25026.0,2.0
-8166.0,-4736.0,25104.0,2.0
-8200.0,-5043.0,25146.0,2.0
-8283.0,-5384.0,25340.0,2.0
-8369.0,-5733.0,25542.0,2.0
-8430.0,-6071.0,25666.0,2.0
-8502.0,-6420.0,25823.0,2.0
-8571.0,-6772.0,25965.0,2.0
-8640.0,-7129.0,26109.0,2.0
-8707.0,-7489.0,26242.0,2.0
-8790.0,-7869.0,26424.0,2.0
-8877.0,-8259.0,26616.0,2.0
-8971.0,-8663.0,26829.0,2.0
-8975.0,-8982.0,26769.0,2.0
-8951.0,-9273.0,26624.0,2.0
-8899.0,-9535.0,26399.0,2.0
-8908.0,-9859.0,26351.0,2.0
-8919.0,-10189.0,26313.0,2.0
-8927.0,-10516.0,26262.0,2.0
-8917.0,-10822.0,26156.0,2.0
-8879.0,-11094.0,25970.0,2.0
-8836.0,-11357.0,25768.0,2.0
-8841.0,-11682.0,25707.0,2.0
-8823.0,-11975.0,25575.0,2.0
-8809.0,-12277.0,25459.0,2.0
-8767.0,-12537.0,25258.0,2.0
-8765.0,-12854.0,25172.0,2.0
-8788.0,-13210.0,25160.0,2.0
-8809.0,-13566.0,25136.0,2.0
-8762.0,-13818.0,24922.0,2.0
-8775.0,-14163.0,24873.0,2.0
-8722.0,-14405.0,24642.0,2.0
-8684.0,-14668.0,24452.0,2.0
-8612.0,-14870.0,24162.0,2.0
-8580.0,-15142.0,23988.0,2.0
-8522.0,-15364.0,23741.0,2.0
-8488.0,-15630.0,23562.0,2.0
-8441.0,-15870.0,23344.0,2.0
-8372.0,-16064.0,23063.0,2.0
-8378.0,-16405.0,22994.0,2.0
-8395.0,-16771.0,22952.0,0.0
-8197.0,-16699.0,22320.0,0.0
-7969.0,-16554.0,21613.0,0.0
-7773.0,-16461.0,20995.0,0.0
-7607.0,-16416.0,20459.0,0.0
-7519.0,-16535.0,20137.0,0.0
-7523.0,-16853.0,20060.0,0.0
-7523.0,-17167.0,19973.0,0.0
-7530.0,-17500.0,19901.0,0.0
-7543.0,-17852.0,19847.0,0.0
-7539.0,-18165.0,19745.0,0.0
-7547.0,-18509.0,19670.0,0.0
-7559.0,-18866.0,19603.0,0.0
-7568.0,-19223.0,19532.0,0.0
-7581.0,-19592.0,19465.0,0.0
-7586.0,-19949.0,19380.0,0.0
-7600.0,-20330.0,19312.0,0.0
-7599.0,-20677.0,19206.0,0.0
-7618.0,-21082.0,19147.0,0.0
-7633.0,-21481.0,19077.0,0.0
-7647.0,-21885.0,19003.0,0.0
-26.0,-80.0,68.0,0.0
-28.0,-86.0,71.0,0.0
-39.0,-120.0,97.0,0.0
-36.0,-113.0,90.0,0.0
-39.0,-123.0,95.0,0.0
-35.0,-112.0,84.0,0.0
-38.0,-124.0,92.0,0.0
-39.0,-127.0,92.0,0.0
-42.0,-140.0,100.0,0.0
-36.0,-123.0,85.0,0.0
-42.0,-145.0,97.0,0.0
-43.0,-154.0,101.0,0.0
-44.0,-160.0,102.0,0.0
-44.0,-161.0,101.0,0.0
-46.0,-171.0,105.0,0.0
-45.0,-171.0,102.0,0.0
-48.0,-182.0,106.0,0.0
-44.0,-174.0,98.0,0.0
-46.0,-183.0,102.0,0.0
-49.0,-197.0,106.0,0.0
-48.0,-198.0,105.0,0.0
-48.0,-200.0,102.0,0.0
-51.0,-219.0,108.0,0.0
-48.0,-206.0,100.0,0.0
-50.0,-219.0,102.0,0.0
-52.0,-228.0,105.0,0.0
-53.0,-238.0,105.0,0.0
-52.0,-238.0,102.0,0.0
-51.0,-240.0,100.0,0.0
-51.0,-244.0,99.0,0.0
-52.0,-253.0,100.0,0.0
-56.0,-275.0,104.0,0.0
-64.0,-322.0,118.0,0.0
-65.0,-332.0,118.0,0.0
-65.0,-334.0,114.0,0.0
-62.0,-330.0,109.0,0.0
-61.0,-324.0,104.0,0.0
-60.0,-328.0,101.0,0.0
-60.0,-331.0,98.0,0.0
-59.0,-334.0,95.0,0.0
-59.0,-339.0,92.0,0.0
-3760.0,15833.0,14507.0,0.0
-3840.0,15783.0,14774.0,0.0
-3922.0,15739.0,15052.0,0.0
-4000.0,15676.0,15317.0,0.0
-4079.0,15605.0,15579.0,0.0
-4163.0,15550.0,15862.0,0.0
-4238.0,15458.0,16112.0,0.0
-4325.0,15401.0,16402.0,0.0
-4385.0,15244.0,16591.0,0.0
-4375.0,14847.0,16514.0,0.0
-4387.0,14533.0,16521.0,0.0
-4466.0,14442.0,16782.0,0.0
-4782.0,15093.0,17928.0,0.0
-4874.0,15011.0,18229.0,0.0
-4976.0,14960.0,18575.0,0.0
-5053.0,14822.0,18820.0,0.0
-5152.0,14744.0,19147.0,0.0
-5242.0,14636.0,19443.0,0.0
-5213.0,14197.0,19295.0,0.0
-5215.0,13852.0,19264.0,0.0
-5596.0,14488.0,20622.0,0.0
-5710.0,14411.0,20999.0,0.0
-5818.0,14312.0,21352.0,0.0
-6358.0,15242.0,23289.0,0.0
-6695.0,15636.0,24476.0,0.0
-6687.0,15210.0,24396.0,0.0
-6673.0,14778.0,24296.0,0.0
-6633.0,14297.0,24101.0,0.0
-6662.0,13973.0,24159.0,0.0
-6463.0,13187.0,23393.0,0.0
-6595.0,13082.0,23820.0,0.0
-6621.0,12768.0,23872.0,0.0
-6738.0,12622.0,24242.0,0.0
0.0,0.0,0.0,0.0
0.0,0.0,0.0,0.0
0.0,0.0,0.0,0.0
0.0,0.0,0.0,0.0
0.0,0.0,0.0,0.0
-8471.0,13214.0,30130.0,0.0
-8536.0,12886.0,30300.0,0.0
-8592.0,12548.0,30443.0,0.0
-8636.0,12190.0,30539.0,0.0
-8823.0,12027.0,31141.0,0.0
-9121.0,11998.0,32132.0,0.0
0.0,0.0,0.0,0.0
-9168.0,11199.0,32173.0,0.0
0.0,0.0,0.0,0.0
-9140.0,10325.0,31955.0,0.0
-9130.0,9900.0,31859.0,0.0
-9034.0,9391.0,31465.0,0.0
-9080.0,9035.0,31564.0,0.0
-9184.0,8733.0,31863.0,0.0
-9326.0,8463.0,32297.0,0.0
-9565.0,8267.0,33063.0,0.0
-7288.0,5985.0,25142.0,0.0
-7277.0,5667.0,25056.0,0.0
-7269.0,5354.0,24980.0,0.0
-7263.0,5046.0,24912.0,0.0
-7258.0,4741.0,24845.0,0.0
-7252.0,4438.0,24777.0,0.0
-7249.0,4140.0,24719.0,0.0
-7237.0,3839.0,24629.0,0.0
-7222.0,3540.0,24531.0,0.0
-7219.0,3248.0,24471.0,0.0
-7218.0,2960.0,24420.0,0.0
-7210.0,2672.0,24345.0,0.0
-7210.0,2388.0,24297.0,0.0
-7192.0,2101.0,24188.0,0.0
-7198.0,1823.0,24159.0,0.0
-7185.0,1541.0,24069.0,0.0
-7182.0,1264.0,24009.0,0.0
-7181.0,988.0,23957.0,0.0
-7168.0,712.0,23864.0,0.0
-7178.0,442.0,23846.0,0.0
-7169.0,169.0,23768.0,0.0
-7168.0,-100.0,23716.0,0.0
-7163.0,-369.0,23649.0,0.0
-7162.0,-637.0,23599.0,0.0
-7125.0,-899.0,23424.0,0.0
-7155.0,-1169.0,23473.0,0.0
-7353.0,-1474.0,24074.0,0.0
-7726.0,-1834.0,25238.0,0.0
-7722.0,-2117.0,25169.0,0.0
-7685.0,-2389.0,24991.0,2.0
-7665.0,-2665.0,24875.0,2.0
-7597.0,-2919.0,24596.0,2.0
-7628.0,-3209.0,24643.0,2.0
-7595.0,-3472.0,24480.0,2.0
-7605.0,-3755.0,24458.0,2.0
-7712.0,-4088.0,24745.0,2.0
-7770.0,-4401.0,24872.0,2.0
-7821.0,-4714.0,24976.0,2.0
-7886.0,-5039.0,25124.0,2.0
-7943.0,-5364.0,25245.0,2.0
-8011.0,-5701.0,25404.0,2.0
-8093.0,-6053.0,25600.0,2.0
-8142.0,-6385.0,25692.0,2.0
-8240.0,-6760.0,25937.0,2.0
-8293.0,-7105.0,26038.0,2.0
-8361.0,-7466.0,26183.0,2.0
-8450.0,-7854.0,26397.0,2.0
-8502.0,-8212.0,26490.0,2.0
-8511.0,-8530.0,26450.0,2.0
-8516.0,-8847.0,26397.0,2.0
-8483.0,-9123.0,26224.0,2.0
-8474.0,-9423.0,26126.0,2.0
-8461.0,-9720.0,26015.0,2.0
-8483.0,-10058.0,26012.0,2.0
-8499.0,-10390.0,25990.0,2.0
-8468.0,-10665.0,25821.0,2.0
-8445.0,-10949.0,25675.0,2.0
-8430.0,-11244.0,25556.0,2.0
-8402.0,-11521.0,25399.0,2.0
-8386.0,-11814.0,25277.0,2.0
-8368.0,-12103.0,25147.0,2.0
-8324.0,-12353.0,24937.0,2.0
-8339.0,-12692.0,24906.0,2.0
-8347.0,-13022.0,24852.0,2.0
-8347.0,-13341.0,24774.0,2.0
-8326.0,-13628.0,24633.0,2.0
-8344.0,-13981.0,24607.0,2.0
-8340.0,-14298.0,24513.0,2.0
-8308.0,-14567.0,24340.0,2.0
-8254.0,-14798.0,24101.0,2.0
-8169.0,-14968.0,23770.0,2.0
-8133.0,-15223.0,23580.0,2.0
-8129.0,-15543.0,23489.0,2.0
-8073.0,-15761.0,23243.0,2.0
-8027.0,-15995.0,23025.0,2.0
-8003.0,-16275.0,22872.0,2.0
-7930.0,-16451.0,22576.0,2.0
-7903.0,-16724.0,22414.0,0.0
-7672.0,-16556.0,21676.0,0.0
-7493.0,-16483.0,21083.0,0.0
-7328.0,-16432.0,20537.0,0.0
-7219.0,-16496.0,20148.0,0.0
-7056.0,-16429.0,19613.0,0.0
-7199.0,-17076.0,19925.0,0.0
-7229.0,-17465.0,19921.0,0.0
-7227.0,-17779.0,19827.0,0.0
-7246.0,-18149.0,19790.0,0.0
-7244.0,-18474.0,19694.0,0.0
-7253.0,-18826.0,19625.0,0.0
-7264.0,-19192.0,19563.0,0.0
-7254.0,-19502.0,19440.0,0.0
-7275.0,-19901.0,19399.0,0.0
-7283.0,-20271.0,19322.0,0.0
-7289.0,-20642.0,19240.0,0.0
-7300.0,-21028.0,19166.0,0.0
-7308.0,-21410.0,19081.0,0.0
-26.0,-82.0,72.0,0.0
-31.0,-97.0,83.0,0.0
-30.0,-96.0,80.0,0.0
-27.0,-88.0,71.0,0.0
-28.0,-89.0,72.0,0.0
-33.0,-109.0,85.0,0.0
-32.0,-108.0,83.0,0.0
-34.0,-116.0,87.0,0.0
-33.0,-116.0,84.0,0.0
-36.0,-128.0,91.0,0.0
-33.0,-121.0,84.0,0.0
-37.0,-136.0,92.0,0.0
-36.0,-133.0,88.0,0.0
-41.0,-156.0,101.0,0.0
-41.0,-157.0,98.0,0.0
-41.0,-161.0,98.0,0.0
-41.0,-164.0,98.0,0.0
-41.0,-165.0,97.0,0.0
-43.0,-177.0,100.0,0.0
-43.0,-181.0,101.0,0.0
-42.0,-178.0,97.0,0.0
-45.0,-195.0,102.0,0.0
-42.0,-183.0,94.0,0.0
-43.0,-191.0,95.0,0.0
-44.0,-197.0,95.0,0.0
-44.0,-199.0,94.0,0.0
-47.0,-219.0,101.0,0.0
-45.0,-213.0,94.0,0.0
-46.0,-222.0,96.0,0.0
-44.0,-220.0,92.0,0.0
-46.0,-228.0,92.0,0.0
-47.0,-241.0,95.0,0.0
-49.0,-256.0,97.0,0.0
-60.0,-316.0,117.0,0.0
-61.0,-327.0,117.0,0.0
-59.0,-324.0,112.0,0.0
-59.0,-326.0,109.0,0.0
-57.0,-323.0,104.0,0.0
-57.0,-329.0,101.0,0.0
-56.0,-329.0,98.0,0.0
-54.0,-324.0,93.0,0.0
-55.0,-328.0,91.0,0.0
-3572.0,15827.0,14564.0,0.0
-3650.0,15778.0,14835.0,0.0
-3728.0,15724.0,15103.0,0.0
-3805.0,15662.0,15370.0,0.0
-3883.0,15598.0,15640.0,0.0
-3965.0,15544.0,15925.0,0.0
-4026.0,15404.0,16126.0,0.0
-4125.0,15399.0,16472.0,0.0
-4077.0,14856.0,16239.0,0.0
-4254.0,15128.0,16900.0,0.0
-4274.0,14832.0,16934.0,0.0
-4264.0,14435.0,16846.0,0.0
-4548.0,15023.0,17922.0,0.0
-4653.0,14998.0,18292.0,0.0
-4751.0,14934.0,18624.0,0.0
-4823.0,14792.0,18864.0,0.0
-4936.0,14766.0,19258.0,0.0
-4873.0,14214.0,18963.0,0.0
-5033.0,14317.0,19541.0,0.0
-5037.0,13966.0,19507.0,0.0
-5347.0,14454.0,20661.0,0.0
-5465.0,14395.0,21065.0,0.0
-5579.0,14319.0,21454.0,0.0
-5692.0,14232.0,21839.0,0.0
-5811.0,14150.0,22245.0,0.0
-5935.0,14071.0,22667.0,0.0
-6041.0,13944.0,23024.0,0.0
-6140.0,13791.0,23350.0,0.0
-6291.0,13745.0,23869.0,0.0
-6203.0,13180.0,23483.0,0.0
-6308.0,13029.0,23828.0,0.0
-6354.0,12754.0,23951.0,0.0
0.0,0.0,0.0,0.0
0.0,0.0,0.0,0.0
0.0,0.0,0.0,0.0
0.0,0.0,0.0,0.0
0.0,0.0,0.0,0.0
0.0,0.0,0.0,0.0
-8206.0,13303.0,30474.0,0.0
-8129.0,12753.0,30124.0,0.0
-8198.0,12438.0,30317.0,0.0
-8259.0,12109.0,30482.0,0.0
-8649.0,12246.0,31856.0,0.0
0.0,0.0,0.0,0.0
0.0,0.0,0.0,0.0
-8747.0,11090.0,32019.0,0.0
-8767.0,10693.0,32026.0,0.0
-8722.0,10221.0,31795.0,0.0
-8724.0,9813.0,31742.0,0.0
-8640.0,9314.0,31371.0,0.0
-8672.0,8947.0,31424.0,0.0
-8756.0,8632.0,31664.0,0.0
-7387.0,6948.0,26662.0,0.0
-7436.0,6658.0,26779.0,0.0
-6985.0,5943.0,25107.0,0.0
-6986.0,5634.0,25060.0,0.0
-6981.0,5325.0,24993.0,0.0
-6973.0,5015.0,24912.0,0.0
-6965.0,4709.0,24835.0,0.0
-6967.0,4412.0,24789.0,0.0
-6951.0,4106.0,24683.0,0.0
-6949.0,3811.0,24627.0,0.0
-6945.0,3518.0,24560.0,0.0
-6939.0,3226.0,24487.0,0.0
-6936.0,2937.0,24430.0,0.0
-6928.0,2650.0,24352.0,0.0
-6924.0,2365.0,24289.0,0.0
-6917.0,2081.0,24212.0,0.0
-6916.0,1802.0,24159.0,0.0
-6912.0,1522.0,24095.0,0.0
-6908.0,1245.0,24028.0,0.0
-6901.0,970.0,23956.0,0.0
-6896.0,696.0,23890.0,0.0
-6900.0,424.0,23853.0,0.0
-6890.0,154.0,23768.0,0.0
-6890.0,-115.0,23718.0,0.0
-6894.0,-383.0,23680.0,0.0
-6886.0,-650.0,23603.0,0.0
-6892.0,-917.0,23574.0,0.0
-6889.0,-1182.0,23509.0,0.0
-7079.0,-1486.0,24107.0,0.0
-7436.0,-1847.0,25266.0,0.0
-7440.0,-2132.0,25222.0,0.0
-7421.0,-2409.0,25107.0,2.0
-7390.0,-2680.0,24944.0,2.0
-7348.0,-2944.0,24747.0,2.0
-7336.0,-3217.0,24653.0,2.0
-7337.0,-3495.0,24599.0,2.0
-7343.0,-3775.0,24563.0,2.0
-7445.0,-4108.0,24844.0,2.0
-7471.0,-4405.0,24876.0,2.0
-7550.0,-4735.0,25080.0,2.0
-7586.0,-5043.0,25139.0,2.0
-7619.0,-5353.0,25193.0,2.0
-7689.0,-5691.0,25360.0,2.0
-7761.0,-6037.0,25539.0,2.0
-7794.0,-6355.0,25583.0,2.0
-7898.0,-6737.0,25861.0,2.0
-7940.0,-7071.0,25935.0,2.0
-8018.0,-7443.0,26126.0,2.0
-8057.0,-7784.0,26186.0,2.0
-8113.0,-8145.0,26302.0,2.0
-8096.0,-8434.0,26179.0,2.0
-8073.0,-8717.0,26038.0,2.0
-8089.0,-9040.0,26019.0,2.0
-8054.0,-9307.0,25837.0,2.0
-8035.0,-9592.0,25710.0,2.0
-8068.0,-9940.0,25744.0,2.0
-8074.0,-10257.0,25694.0,2.0
-8046.0,-10531.0,25536.0,2.0
-8043.0,-10838.0,25456.0,2.0
-7998.0,-11087.0,25242.0,2.0
-7981.0,-11372.0,25114.0,2.0
-7985.0,-11690.0,25056.0,2.0
-7975.0,-11987.0,24953.0,2.0
-7956.0,-12271.0,24820.0,2.0
-7937.0,-12555.0,24686.0,2.0
-7951.0,-12891.0,24652.0,2.0
-7948.0,-13203.0,24567.0,2.0
-7934.0,-13498.0,24449.0,2.0
-7915.0,-13785.0,24316.0,2.0
-7907.0,-14090.0,24211.0,2.0
-7914.0,-14426.0,24157.0,2.0
-7881.0,-14689.0,23978.0,2.0
-7841.0,-14937.0,23776.0,2.0
-7792.0,-15166.0,23547.0,2.0
-7727.0,-15362.0,23272.0,2.0
-7677.0,-15587.0,23043.0,2.0
-7661.0,-15878.0,22913.0,2.0
-7560.0,-15990.0,22528.0,2.0
-7508.0,-16201.0,22289.0,2.0
-7598.0,-16726.0,22478.0,0.0
-7390.0,-16589.0,21778.0,0.0
-7197.0,-16474.0,21129.0,0.0
-7053.0,-16458.0,20626.0,0.0
-6921.0,-16459.0,20160.0,0.0
-6857.0,-16614.0,19891.0,0.0
-6914.0,-17069.0,19975.0,0.0
-6923.0,-17410.0,19919.0,0.0
-6916.0,-17715.0,19815.0,0.0
-6919.0,-18049.0,19738.0,0.0
-6939.0,-18430.0,19709.0,0.0
-6941.0,-18767.0,19625.0,0.0
-6947.0,-19121.0,19553.0,0.0
-6957.0,-19487.0,19486.0,0.0
-6955.0,-19828.0,19390.0,0.0
-6963.0,-20199.0,19318.0,0.0
-6971.0,-20576.0,19244.0,0.0
-6976.0,-20948.0,19159.0,0.0
-6987.0,-21346.0,19091.0,0.0
-6995.0,-21738.0,19011.0,0.0
-29.0,-92.0,79.0,0.0
-27.0,-87.0,73.0,0.0
-27.0,-90.0,74.0,0.0
-33.0,-111.0,88.0,0.0
-32.0,-110.0,86.0,0.0
-34.0,-121.0,92.0,0.0
-33.0,-117.0,87.0,0.0
-32.0,-117.0,86.0,0.0
-35.0,-131.0,93.0,0.0
-37.0,-137.0,95.0,0.0
-37.0,-142.0,96.0,0.0
-39.0,-154.0,102.0,0.0
-39.0,-155.0,101.0,0.0
-38.0,-152.0,96.0,0.0
-39.0,-161.0,99.0,0.0
-39.0,-163.0,98.0,0.0
-42.0,-175.0,103.0,0.0
-43.0,-185.0,106.0,0.0
-45.0,-194.0,108.0,0.0
-41.0,-181.0,98.0,0.0
-42.0,-189.0,100.0,0.0
-45.0,-204.0,105.0,0.0
-45.0,-211.0,106.0,0.0
-44.0,-210.0,102.0,0.0
-43.0,-207.0,98.0,0.0
-47.0,-226.0,104.0,0.0
-47.0,-233.0,105.0,0.0
-44.0,-223.0,97.0,0.0
-47.0,-241.0,102.0,0.0
-45.0,-234.0,96.0,0.0
-46.0,-247.0,98.0,0.0
-45.0,-248.0,95.0,0.0
-55.0,-308.0,115.0,0.0
-57.0,-322.0,116.0,0.0
-57.0,-327.0,114.0,0.0
-56.0,-322.0,109.0,0.0
-55.0,-327.0,106.0,0.0
-54.0,-330.0,103.0,0.0
-54.0,-335.0,101.0,0.0
-51.0,-328.0,95.0,0.0
-51.0,-331.0,92.0,0.0
-3382.0,15809.0,14609.0,0.0
-3456.0,15755.0,14876.0,0.0
-3533.0,15705.0,15149.0,0.0
-3609.0,15648.0,15420.0,0.0
-3685.0,15584.0,15691.0,0.0
-3761.0,15514.0,15961.0,0.0
-3838.0,15447.0,16236.0,0.0
-3921.0,15392.0,16532.0,0.0
-3960.0,15163.0,16643.0,0.0
-4067.0,15191.0,17040.0,0.0
-4091.0,14905.0,17087.0,0.0
-4079.0,14496.0,16987.0,0.0
-4326.0,14995.0,17961.0,0.0
-4434.0,14987.0,18354.0,0.0
-4525.0,14915.0,18676.0,0.0
-4619.0,14847.0,19012.0,0.0
-4711.0,14764.0,19335.0,0.0
-4796.0,14651.0,19627.0,0.0
-4830.0,14382.0,19711.0,0.0
-4858.0,14097.0,19771.0,0.0
-4861.0,13745.0,19729.0,0.0
-5215.0,14368.0,21111.0,0.0
-5325.0,14290.0,21500.0,0.0
-5434.0,14201.0,21882.0,0.0
-5550.0,14123.0,22294.0,0.0
-5665.0,14031.0,22696.0,0.0
-5780.0,13931.0,23100.0,0.0
-5908.0,13853.0,23552.0,0.0
-6030.0,13749.0,23977.0,0.0
-6136.0,13605.0,24343.0,0.0
-6103.0,13150.0,24150.0,0.0
-6121.0,12813.0,24164.0,0.0
-6173.0,12548.0,24310.0,0.0
0.0,0.0,0.0,0.0
-7059.0,13517.0,27675.0,0.0
0.0,0.0,0.0,0.0
0.0,0.0,0.0,0.0
0.0,0.0,0.0,0.0
-7862.0,13271.0,30536.0,0.0
-7841.0,12807.0,30389.0,0.0
-7969.0,12584.0,30814.0,0.0
-8136.0,12412.0,31387.0,0.0
-8231.0,12124.0,31686.0,0.0
-8347.0,11859.0,32061.0,0.0
-8379.0,11474.0,32114.0,0.0
-8372.0,11037.0,32015.0,0.0
-8383.0,10628.0,31987.0,0.0
0.0,0.0,0.0,0.0
-8361.0,9772.0,31765.0,0.0
-8328.0,9327.0,31570.0,0.0
-8303.0,8897.0,31408.0,0.0
-8395.0,8593.0,31686.0,0.0
-8608.0,8404.0,32421.0,0.0
-7108.0,6606.0,26715.0,0.0
-6695.0,5911.0,25111.0,0.0
-6685.0,5594.0,25018.0,0.0
-6683.0,5287.0,24958.0,0.0
-6686.0,4986.0,24917.0,0.0
-6669.0,4674.0,24801.0,0.0
-6671.0,4378.0,24757.0,0.0
-6663.0,4077.0,24672.0,0.0
-6662.0,3784.0,24617.0,0.0
-6653.0,3489.0,24532.0,0.0
-6652.0,3200.0,24476.0,0.0
-6643.0,2909.0,24392.0,0.0
-6634.0,2622.0,24306.0,0.0
-6642.0,2343.0,24287.0,0.0
-6636.0,2060.0,24210.0,0.0
-6631.0,1780.0,24142.0,0.0
-6630.0,1503.0,24088.0,0.0
-6620.0,1226.0,23999.0,0.0
-6620.0,952.0,23946.0,0.0
-6619.0,680.0,23894.0,0.0
-6615.0,408.0,23827.0,0.0
-6601.0,138.0,23723.0,0.0
-6610.0,-129.0,23707.0,0.0
-6608.0,-397.0,23648.0,0.0
-6606.0,-662.0,23589.0,0.0
-6609.0,-927.0,23549.0,0.0
-6601.0,-1191.0,23469.0,0.0
-6814.0,-1501.0,24171.0,0.0
-7218.0,-1877.0,25550.0,0.0
-7159.0,-2146.0,25282.0,0.0
-7120.0,-2416.0,25090.0,2.0
-7089.0,-2686.0,24926.0,2.0
-7063.0,-2954.0,24779.0,2.0
-7044.0,-3223.0,24652.0,2.0
-7042.0,-3499.0,24593.0,2.0
-7084.0,-3798.0,24683.0,2.0
-7139.0,-4107.0,24815.0,2.0
-7193.0,-4420.0,24946.0,2.0
-7228.0,-4724.0,25007.0,2.0
-7266.0,-5032.0,25081.0,2.0
-7315.0,-5352.0,25191.0,2.0
-7361.0,-5674.0,25290.0,2.0
-7433.0,-6020.0,25476.0,2.0
-7488.0,-6358.0,25605.0,2.0
-7557.0,-6710.0,25776.0,2.0
-7607.0,-7053.0,25883.0,2.0
-7632.0,-7375.0,25907.0,2.0
-7675.0,-7718.0,25990.0,2.0
-7687.0,-8032.0,25964.0,2.0
-7676.0,-8322.0,25858.0,2.0
-7689.0,-8639.0,25838.0,2.0
-7664.0,-8913.0,25686.0,2.0
-7640.0,-9189.0,25542.0,2.0
-7678.0,-9538.0,25599.0,2.0
-7646.0,-9802.0,25426.0,2.0
-7638.0,-10097.0,25331.0,2.0
-7667.0,-10443.0,25361.0,2.0
-7638.0,-10710.0,25196.0,2.0
-7642.0,-11023.0,25139.0,2.0
-7574.0,-11232.0,24849.0,2.0
-7570.0,-11533.0,24763.0,2.0
-7587.0,-11869.0,24750.0,2.0
-7566.0,-12144.0,24608.0,2.0
-7572.0,-12467.0,24561.0,2.0
-7605.0,-12836.0,24595.0,2.0
-7571.0,-13092.0,24411.0,2.0
-7593.0,-13447.0,24407.0,2.0
-7581.0,-13744.0,24294.0,2.0
-7531.0,-13971.0,24060.0,2.0
-7533.0,-14296.0,23991.0,2.0
-7537.0,-14626.0,23930.0,2.0
-7499.0,-14875.0,23731.0,2.0
-7415.0,-15028.0,23388.0,2.0
-7373.0,-15265.0,23179.0,2.0
-7348.0,-15537.0,23025.0,2.0
-7319.0,-15800.0,22857.0,2.0
-7288.0,-16058.0,22681.0,2.0
-7193.0,-16173.0,22308.0,2.0
-7288.0,-16715.0,22519.0,0.0
-7100.0,-16609.0,21860.0,0.0
-6925.0,-16519.0,21243.0,0.0
-6760.0,-16438.0,20657.0,0.0
-6620.0,-16410.0,20155.0,0.0
-6613.0,-16708.0,20058.0,0.0
-6622.0,-17045.0,20004.0,0.0
-6624.0,-17371.0,19931.0,0.0
-6621.0,-17688.0,19843.0,0.0
-6630.0,-18036.0,19783.0,0.0
-6630.0,-18368.0,19703.0,0.0
-6637.0,-18722.0,19638.0,0.0
-6643.0,-19077.0,19569.0,0.0
-6647.0,-19433.0,19495.0,0.0
-6645.0,-19774.0,19400.0,0.0
-27.0,-86.0,83.0,0.0
-23.0,-74.0,70.0,0.0
-26.0,-86.0,79.0,0.0
-26.0,-85.0,76.0,0.0
-26.0,-87.0,76.0,0.0
-26.0,-92.0,79.0,0.0
-29.0,-100.0,83.0,0.0
-27.0,-93.0,77.0,0.0
-29.0,-101.0,81.0,0.0
-30.0,-109.0,86.0,0.0
-30.0,-111.0,85.0,0.0
-28.0,-103.0,77.0,0.0
-33.0,-126.0,92.0,0.0
-31.0,-120.0,86.0,0.0
-32.0,-126.0,89.0,0.0
-33.0,-130.0,89.0,0.0
-34.0,-140.0,93.0,0.0
-35.0,-147.0,96.0,0.0
-35.0,-147.0,93.0,0.0
-36.0,-154.0,96.0,0.0
-38.0,-164.0,99.0,0.0
-38.0,-169.0,100.0,0.0
-38.0,-169.0,97.0,0.0
-38.0,-175.0,98.0,0.0
-39.0,-183.0,99.0,0.0
-38.0,-181.0,96.0,0.0
-39.0,-188.0,98.0,0.0
-39.0,-196.0,98.0,0.0
-43.0,-214.0,105.0,0.0
-40.0,-207.0,98.0,0.0
-42.0,-215.0,100.0,0.0
-38.0,-204.0,92.0,0.0
-42.0,-226.0,99.0,0.0
-41.0,-222.0,94.0,0.0
-41.0,-225.0,92.0,0.0
-42.0,-237.0,94.0,0.0
-41.0,-239.0,92.0,0.0
-49.0,-287.0,107.0,0.0
-54.0,-320.0,116.0,0.0
-54.0,-324.0,113.0,0.0
-51.0,-321.0,109.0,0.0
-50.0,-317.0,103.0,0.0
-50.0,-328.0,103.0,0.0
-49.0,-324.0,98.0,0.0
-48.0,-325.0,94.0,0.0
-48.0,-329.0,92.0,0.0
-3191.0,15795.0,14657.0,0.0
-3266.0,15752.0,14933.0,0.0
-3338.0,15689.0,15196.0,0.0
-3414.0,15642.0,15478.0,0.0
-3487.0,15576.0,15747.0,0.0
-3561.0,15509.0,16020.0,0.0
-3640.0,15454.0,16310.0,0.0
-3698.0,15307.0,16508.0,0.0
-3793.0,15308.0,16871.0,0.0
-3868.0,15215.0,17136.0,0.0
-3864.0,14822.0,17060.0,0.0
-3905.0,14605.0,17183.0,0.0
-3929.0,14324.0,17227.0,0.0
-4210.0,14963.0,18397.0,0.0
-4301.0,14899.0,18730.0,0.0
-4391.0,14826.0,19058.0,0.0
-4441.0,14611.0,19211.0,0.0
-4555.0,14606.0,19644.0,0.0
-4482.0,14005.0,19272.0,0.0
-4614.0,14045.0,19775.0,0.0
-4633.0,13740.0,19800.0,0.0
-4965.0,14338.0,21153.0,0.0
-5078.0,14279.0,21570.0,0.0
-5181.0,14184.0,21946.0,0.0
-5292.0,14101.0,22349.0,0.0
-5406.0,14016.0,22765.0,0.0
