//X,Y,Z,Classification
67.0,-145.0,108.0,0.0
56.0,-121.0,93.0,0.0
58.0,-122.0,94.0,0.0
51.0,-107.0,86.0,0.0
47.0,-98.0,80.0,0.0
44.0,-89.0,75.0,0.0
42.0,-84.0,72.0,0.0
11011.0,-21328.0,18690.0,0.0
11240.0,-21423.0,19213.0,0.0
11450.0,-21472.0,19706.0,0.0
14063.0,-25943.0,24366.0,1.0
874.0,-1587.0,1526.0,0.0
866.0,-1548.0,1522.0,0.0
858.0,-1506.0,1516.0,0.0
886.0,-1529.0,1576.0,0.0
883.0,-1499.0,1580.0,0.0
876.0,-1461.0,1577.0,0.0
885.0,-1449.0,1601.0,0.0
887.0,-1428.0,1614.0,0.0
879.0,-1391.0,1610.0,0.0
893.0,-1386.0,1643.0,0.0
868.0,-1322.0,1606.0,0.0
902.0,-1348.0,1676.0,0.0
880.0,-1291.0,1645.0,0.0
895.0,-1289.0,1682.0,0.0
898.0,-1269.0,1697.0,0.0
901.0,-1248.0,1710.0,0.0
893.0,-1213.0,1702.0,0.0
887.0,-1180.0,1698.0,0.0
894.0,-1166.0,1722.0,0.0
901.0,-1149.0,1741.0,0.0
909.0,-1134.0,1763.0,0.0
903.0,-1103.0,1760.0,0.0
915.0,-1093.0,1791.0,0.0
901.0,-1053.0,1772.0,0.0
922.0,-1053.0,1821.0,0.0
913.0,-1018.0,1810.0,0.0
904.0,-984.0,1798.0,0.0
912.0,-969.0,1821.0,0.0
909.0,-942.0,1822.0,0.0
912.0,-921.0,1835.0,0.0
911.0,-897.0,1841.0,0.0
934.0,-896.0,1895.0,0.0
902.0,-842.0,1836.0,0.0
923.0,-837.0,1885.0,0.0
911.0,-802.0,1866.0,0.0
920.0,-786.0,1890.0,0.0
946.0,-785.0,1953.0,0.0
927.0,-744.0,1920.0,0.0
914.0,-711.0,1899.0,0.0
917.0,-690.0,1911.0,0.0
915.0,-665.0,1914.0,0.0
915.0,-640.0,1917.0,0.0
927.0,-626.0,1949.0,0.0
927.0,-602.0,1955.0,0.0
923.0,-575.0,1951.0,0.0
924.0,-553.0,1960.0,0.0
929.0,-531.0,1976.0,0.0
910.0,-497.0,1941.0,0.0
917.0,-478.0,1963.0,0.0
943.0,-467.0,2023.0,0.0
919.0,-433.0,1974.0,0.0
14999.0,-6674.0,32311.0,1.0
926.0,-388.0,2001.0,0.0
921.0,-363.0,1995.0,0.0
931.0,-343.0,2023.0,0.0
916.0,-314.0,1995.0,0.0
916.0,-290.0,2002.0,0.0
14583.0,-4237.0,31889.0,1.0
918.0,-243.0,2015.0,0.0
920.0,-220.0,2025.0,0.0
912.0,-194.0,2011.0,0.0
924.0,-173.0,2041.0,0.0
0.0,0.0,1.0,0.0
1.0,-1.0,4.0,0.0
8.0,-1.0,21.0,0.0
10.0,-1.0,24.0,0.0
3.0,0.0,7.0,0.0
11.0,0.0,27.0,0.0
8.0,0.0,20.0,0.0
12.0,0.0,28.0,0.0
17.0,0.0,40.0,0.0
13.0,0.0,33.0,0.0
21.0,1.0,48.0,0.0
18.0,2.0,44.0,0.0
20.0,2.0,47.0,0.0
23.0,3.0,53.0,0.0
15.0,3.0,35.0,0.0
15.0,3.0,36.0,0.0
21.0,5.0,50.0,0.0
23.0,6.0,55.0,0.0
26.0,7.0,61.0,0.0
30.0,10.0,69.0,0.0
30.0,11.0,70.0,0.0
33.0,13.0,77.0,0.0
27.0,11.0,63.0,0.0
32.0,15.0,75.0,0.0
34.0,17.0,80.0,0.0
29.0,15.0,68.0,0.0
33.0,18.0,78.0,0.0
32.0,19.0,77.0,0.0
37.0,22.0,87.0,0.0
36.0,23.0,85.0,0.0
37.0,26.0,90.0,0.0
39.0,28.0,93.0,0.0
34.0,24.0,81.0,0.0
36.0,28.0,86.0,0.0
37.0,29.0,88.0,0.0
38.0,31.0,91.0,0.0
37.0,32.0,89.0,0.0
40.0,37.0,96.0,0.0
34.0,32.0,81.0,0.0
34.0,33.0,83.0,0.0
38.0,37.0,90.0,0.0
38.0,39.0,92.0,0.0
34.0,36.0,83.0,0.0
30.0,33.0,72.0,0.0
30.0,34.0,73.0,0.0
35.0,40.0,82.0,0.0
32.0,39.0,78.0,0.0
32.0,40.0,78.0,0.0
28.0,36.0,69.0,0.0
31.0,41.0,75.0,0.0
29.0,39.0,70.0,0.0
32.0,44.0,77.0,0.0
30.0,43.0,74.0,0.0
31.0,46.0,76.0,0.0
34.0,52.0,83.0,0.0
34.0,52.0,82.0,0.0
33.0,52.0,79.0,0.0
36.0,59.0,87.0,0.0
37.0,61.0,90.0,0.0
35.0,61.0,87.0,0.0
40.0,68.0,96.0,0.0
38.0,68.0,93.0,0.0
37.0,68.0,91.0,0.0
40.0,75.0,97.0,0.0
41.0,79.0,101.0,0.0
41.0,80.0,99.0,0.0
41.0,84.0,101.0,0.0
40.0,83.0,99.0,0.0
44.0,92.0,106.0,0.0
46.0,98.0,110.0,0.0
44.0,98.0,109.0,0.0
46.0,102.0,111.0,0.0
46.0,106.0,113.0,0.0
44.0,104.0,108.0,0.0
47.0,114.0,116.0,0.0
49.0,119.0,118.0,0.0
48.0,122.0,118.0,0.0
48.0,122.0,116.0,0.0
48.0,126.0,118.0,0.0
48.0,128.0,117.0,0.0
49.0,136.0,121.0,0.0
51.0,144.0,125.0,0.0
49.0,140.0,120.0,0.0
68.0,-262.0,66.0,0.0
69.0,-263.0,68.0,0.0
68.0,-255.0,69.0,0.0
69.0,-256.0,73.0,0.0
71.0,-256.0,75.0,0.0
74.0,-264.0,82.0,0.0
74.0,-260.0,83.0,0.0
77.0,-265.0,88.0,0.0
75.0,-253.0,87.0,0.0
79.0,-265.0,95.0,0.0
79.0,-263.0,96.0,0.0
79.0,-256.0,97.0,0.0
81.0,-260.0,102.0,0.0
82.0,-261.0,106.0,0.0
85.0,-266.0,111.0,0.0
83.0,-253.0,109.0,0.0
86.0,-260.0,115.0,0.0
86.0,-255.0,116.0,0.0
87.0,-256.0,120.0,0.0
88.0,-254.0,124.0,0.0
88.0,-252.0,125.0,0.0
88.0,-247.0,127.0,0.0
94.0,-259.0,137.0,0.0
90.0,-246.0,133.0,0.0
91.0,-244.0,135.0,0.0
97.0,-255.0,145.0,0.0
95.0,-246.0,144.0,0.0
93.0,-237.0,142.0,0.0
91.0,-231.0,142.0,0.0
86.0,-215.0,136.0,0.0
84.0,-206.0,133.0,0.0
78.0,-188.0,125.0,0.0
71.0,-169.0,115.0,0.0
69.0,-162.0,112.0,0.0
72.0,-169.0,120.0,0.0
68.0,-155.0,113.0,0.0
65.0,-144.0,108.0,0.0
59.0,-131.0,100.0,0.0
55.0,-120.0,94.0,0.0
56.0,-120.0,97.0,0.0
47.0,-98.0,81.0,0.0
49.0,-101.0,85.0,0.0
45.0,-93.0,81.0,0.0
47.0,-96.0,85.0,0.0
10928.0,-21420.0,19301.0,0.0
850.0,-1641.0,1513.0,0.0
848.0,-1609.0,1519.0,0.0
834.0,-1557.0,1503.0,0.0
832.0,-1527.0,1509.0,0.0
847.0,-1529.0,1546.0,0.0
852.0,-1512.0,1565.0,0.0
871.0,-1517.0,1607.0,0.0
870.0,-1491.0,1616.0,0.0
14490.0,-24389.0,27052.0,1.0
14714.0,-24331.0,27624.0,1.0
877.0,-1426.0,1657.0,0.0
841.0,-1343.0,1599.0,0.0
856.0,-1342.0,1636.0,0.0
853.0,-1312.0,1638.0,0.0
863.0,-1301.0,1665.0,0.0
876.0,-1297.0,1698.0,0.0
886.0,-1286.0,1726.0,0.0
883.0,-1256.0,1727.0,0.0
865.0,-1207.0,1701.0,0.0
870.0,-1190.0,1719.0,0.0
883.0,-1183.0,1752.0,0.0
899.0,-1179.0,1793.0,0.0
15733.0,-20184.0,31458.0,1.0
891.0,-1118.0,1790.0,0.0
853.0,-1048.0,1720.0,0.0
892.0,-1071.0,1808.0,0.0
883.0,-1037.0,1797.0,0.0
885.0,-1015.0,1808.0,0.0
887.0,-992.0,1817.0,0.0
883.0,-965.0,1819.0,0.0
897.0,-955.0,1853.0,0.0
922.0,-958.0,1912.0,0.0
891.0,-902.0,1855.0,0.0
884.0,-871.0,1848.0,0.0
0.0,0.0,0.0,0.0
915.0,-853.0,1926.0,0.0
884.0,-800.0,1867.0,0.0
886.0,-778.0,1876.0,0.0
893.0,-761.0,1898.0,0.0
907.0,-749.0,1934.0,0.0
900.0,-720.0,1926.0,0.0
878.0,-678.0,1882.0,0.0
898.0,-670.0,1932.0,0.0
891.0,-642.0,1923.0,0.0
899.0,-624.0,1946.0,0.0
918.0,-613.0,1994.0,0.0
898.0,-576.0,1955.0,0.0
908.0,-559.0,1983.0,0.0
902.0,-531.0,1974.0,0.0
894.0,-503.0,1963.0,0.0
902.0,-483.0,1985.0,0.0
913.0,-465.0,2015.0,0.0
903.0,-439.0,2001.0,0.0
898.0,-412.0,1995.0,0.0
893.0,-386.0,1987.0,0.0
910.0,-370.0,2030.0,0.0
897.0,-341.0,2008.0,0.0
905.0,-319.0,2031.0,0.0
910.0,-297.0,2045.0,0.0
14224.0,-4268.0,32026.0,1.0
898.0,-246.0,2027.0,0.0
920.0,-227.0,2083.0,0.0
884.0,-195.0,2007.0,0.0
894.0,-174.0,2034.0,0.0
889.0,-148.0,2026.0,0.0
898.0,-126.0,2051.0,0.0
4.0,-1.0,11.0,0.0
11.0,-1.0,29.0,0.0
8.0,0.0,20.0,0.0
12.0,0.0,30.0,0.0
13.0,0.0,33.0,0.0
11.0,0.0,28.0,0.0
6.0,0.0,16.0,0.0
19.0,1.0,45.0,0.0
19.0,1.0,44.0,0.0
21.0,2.0,50.0,0.0
14.0,2.0,35.0,0.0
19.0,3.0,46.0,0.0
23.0,5.0,56.0,0.0
28.0,6.0,66.0,0.0
31.0,8.0,74.0,0.0
24.0,7.0,59.0,0.0
24.0,7.0,57.0,0.0
29.0,10.0,70.0,0.0
28.0,10.0,67.0,0.0
33.0,14.0,79.0,0.0
31.0,13.0,76.0,0.0
34.0,15.0,82.0,0.0
28.0,14.0,68.0,0.0
33.0,18.0,80.0,0.0
39.0,22.0,95.0,0.0
36.0,21.0,88.0,0.0
36.0,22.0,87.0,0.0
33.0,21.0,80.0,0.0
36.0,25.0,88.0,0.0
36.0,26.0,89.0,0.0
35.0,26.0,87.0,0.0
37.0,29.0,91.0,0.0
35.0,29.0,87.0,0.0
35.0,30.0,87.0,0.0
40.0,34.0,97.0,0.0
33.0,31.0,84.0,0.0
39.0,37.0,97.0,0.0
37.0,36.0,90.0,0.0
35.0,36.0,89.0,0.0
35.0,36.0,87.0,0.0
33.0,36.0,82.0,0.0
32.0,35.0,78.0,0.0
29.0,34.0,72.0,0.0
31.0,37.0,76.0,0.0
27.0,34.0,69.0,0.0
31.0,39.0,78.0,0.0
29.0,39.0,73.0,0.0
29.0,38.0,71.0,0.0
31.0,42.0,76.0,0.0
28.0,40.0,71.0,0.0
31.0,46.0,78.0,0.0
31.0,46.0,77.0,0.0
33.0,50.0,81.0,0.0
33.0,53.0,84.0,0.0
35.0,55.0,86.0,0.0
33.0,56.0,84.0,0.0
37.0,62.0,91.0,0.0
35.0,62.0,90.0,0.0
37.0,66.0,93.0,0.0
36.0,66.0,90.0,0.0
39.0,73.0,97.0,0.0
39.0,76.0,100.0,0.0
38.0,74.0,94.0,0.0
40.0,80.0,99.0,0.0
39.0,81.0,99.0,0.0
40.0,85.0,101.0,0.0
40.0,88.0,103.0,0.0
43.0,95.0,108.0,0.0
45.0,102.0,114.0,0.0
43.0,99.0,108.0,0.0
45.0,106.0,113.0,0.0
43.0,104.0,108.0,0.0
46.0,114.0,117.0,0.0
46.0,118.0,118.0,0.0
46.0,119.0,116.0,0.0
48.0,125.0,120.0,0.0
47.0,127.0,118.0,0.0
48.0,133.0,122.0,0.0
48.0,135.0,121.0,0.0
48.0,137.0,120.0,0.0
48.0,139.0,119.0,0.0
66.0,-264.0,67.0,0.0
66.0,-257.0,68.0,0.0
69.0,-267.0,74.0,0.0
70.0,-267.0,77.0,0.0
72.0,-267.0,79.0,0.0
72.0,-265.0,82.0,0.0
73.0,-265.0,86.0,0.0
73.0,-262.0,88.0,0.0
75.0,-265.0,92.0,0.0
78.0,-270.0,97.0,0.0
80.0,-272.0,101.0,0.0
80.0,-269.0,103.0,0.0
81.0,-269.0,106.0,0.0
81.0,-265.0,108.0,0.0
84.0,-271.0,114.0,0.0
84.0,-266.0,116.0,0.0
85.0,-263.0,118.0,0.0
84.0,-259.0,119.0,0.0
88.0,-267.0,127.0,0.0
87.0,-260.0,127.0,0.0
89.0,-260.0,130.0,0.0
88.0,-255.0,132.0,0.0
93.0,-267.0,141.0,0.0
89.0,-250.0,136.0,0.0
92.0,-254.0,143.0,0.0
94.0,-255.0,147.0,0.0
94.0,-253.0,149.0,0.0
93.0,-248.0,150.0,0.0
90.0,-234.0,145.0,0.0
84.0,-215.0,136.0,0.0
81.0,-203.0,133.0,0.0
80.0,-200.0,133.0,0.0
75.0,-183.0,126.0,0.0
73.0,-176.0,124.0,0.0
65.0,-154.0,111.0,0.0
65.0,-152.0,112.0,0.0
60.0,-138.0,104.0,0.0
56.0,-127.0,98.0,0.0
48.0,-109.0,86.0,0.0
51.0,-112.0,90.0,0.0
52.0,-115.0,94.0,0.0
50.0,-108.0,91.0,0.0
41.0,-86.0,74.0,0.0
47.0,-98.0,88.0,0.0
10636.0,-21457.0,19423.0,0.0
810.0,-1608.0,1490.0,0.0
820.0,-1601.0,1518.0,0.0
827.0,-1589.0,1542.0,0.0
812.0,-1535.0,1524.0,0.0
837.0,-1554.0,1578.0,0.0
826.0,-1507.0,1567.0,0.0
827.0,-1484.0,1579.0,0.0
812.0,-1430.0,1557.0,0.0
833.0,-1442.0,1606.0,0.0
830.0,-1413.0,1611.0,0.0
861.0,-1438.0,1678.0,0.0
829.0,-1360.0,1625.0,0.0
844.0,-1361.0,1665.0,0.0
859.0,-1358.0,1702.0,0.0
15076.0,-23380.0,29986.0,1.0
866.0,-1317.0,1731.0,0.0
859.0,-1283.0,1727.0,0.0
852.0,-1246.0,1719.0,0.0
855.0,-1227.0,1734.0,0.0
863.0,-1213.0,1758.0,0.0
860.0,-1185.0,1761.0,0.0
850.0,-1145.0,1746.0,0.0
880.0,-1161.0,1816.0,0.0
881.0,-1137.0,1825.0,0.0
866.0,-1093.0,1803.0,0.0
894.0,-1102.0,1866.0,0.0
866.0,-1044.0,1816.0,0.0
864.0,-1019.0,1821.0,0.0
868.0,-999.0,1835.0,0.0
869.0,-977.0,1845.0,0.0
869.0,-952.0,1851.0,0.0
873.0,-932.0,1865.0,0.0
0.0,0.0,0.0,0.0
865.0,-876.0,1862.0,0.0
880.0,-868.0,1902.0,0.0
871.0,-835.0,1889.0,0.0
853.0,-795.0,1858.0,0.0
867.0,-784.0,1893.0,0.0
901.0,-790.0,1973.0,0.0
897.0,-762.0,1972.0,0.0
877.0,-720.0,1931.0,0.0
878.0,-698.0,1940.0,0.0
878.0,-674.0,1945.0,0.0
14866.0,-11022.0,33036.0,1.0
875.0,-625.0,1952.0,0.0
872.0,-600.0,1952.0,0.0
897.0,-592.0,2012.0,0.0
884.0,-560.0,1989.0,0.0
888.0,-539.0,2003.0,0.0
880.0,-510.0,1991.0,0.0
881.0,-486.0,1999.0,0.0
886.0,-465.0,2014.0,0.0
877.0,-439.0,2000.0,0.0
897.0,-424.0,2050.0,0.0
14233.0,-6338.0,32611.0,1.0
878.0,-368.0,2019.0,0.0
883.0,-346.0,2035.0,0.0
13985.0,-5094.0,32281.0,1.0
888.0,-300.0,2057.0,0.0
866.0,-269.0,2012.0,0.0
865.0,-244.0,2011.0,0.0
868.0,-222.0,2025.0,0.0
855.0,-195.0,1997.0,0.0
891.0,-179.0,2086.0,0.0
8.0,-1.0,20.0,0.0
12.0,-2.0,30.0,0.0
12.0,-1.0,30.0,0.0
19.0,-2.0,46.0,0.0
16.0,-1.0,38.0,0.0
19.0,-1.0,46.0,0.0
16.0,0.0,38.0,0.0
17.0,0.0,41.0,0.0
14.0,0.0,36.0,0.0
20.0,0.0,51.0,0.0
17.0,0.0,42.0,0.0
19.0,2.0,48.0,0.0
20.0,3.0,51.0,0.0
25.0,4.0,61.0,0.0
22.0,4.0,56.0,0.0
28.0,7.0,69.0,0.0
28.0,7.0,72.0,0.0
20.0,6.0,50.0,0.0
25.0,8.0,64.0,0.0
30.0,10.0,73.0,0.0
33.0,12.0,81.0,0.0
32.0,14.0,79.0,0.0
31.0,14.0,79.0,0.0
30.0,14.0,75.0,0.0
38.0,19.0,95.0,0.0
35.0,20.0,89.0,0.0
30.0,17.0,77.0,0.0
36.0,22.0,91.0,0.0
38.0,24.0,94.0,0.0
33.0,22.0,83.0,0.0
38.0,27.0,98.0,0.0
38.0,27.0,96.0,0.0
37.0,28.0,93.0,0.0
38.0,31.0,98.0,0.0
36.0,30.0,92.0,0.0
42.0,36.0,107.0,0.0
40.0,36.0,102.0,0.0
39.0,36.0,98.0,0.0
37.0,36.0,95.0,0.0
37.0,37.0,94.0,0.0
34.0,36.0,89.0,0.0
36.0,38.0,90.0,0.0
36.0,40.0,91.0,0.0
32.0,37.0,83.0,0.0
29.0,34.0,74.0,0.0
33.0,39.0,83.0,0.0
30.0,37.0,78.0,0.0
32.0,42.0,82.0,0.0
31.0,42.0,81.0,0.0
31.0,42.0,80.0,0.0
28.0,41.0,75.0,0.0
30.0,44.0,78.0,0.0
28.0,42.0,72.0,0.0
32.0,48.0,81.0,0.0
31.0,49.0,80.0,0.0
30.0,50.0,79.0,0.0
30.0,50.0,78.0,0.0
32.0,55.0,85.0,0.0
34.0,61.0,91.0,0.0
34.0,62.0,91.0,0.0
38.0,69.0,98.0,0.0
36.0,69.0,96.0,0.0
38.0,73.0,98.0,0.0
36.0,72.0,96.0,0.0
40.0,79.0,103.0,0.0
37.0,76.0,95.0,0.0
38.0,81.0,99.0,0.0
40.0,88.0,105.0,0.0
39.0,88.0,104.0,0.0
41.0,95.0,109.0,0.0
43.0,99.0,110.0,0.0
43.0,102.0,113.0,0.0
42.0,103.0,110.0,0.0
44.0,110.0,116.0,0.0
45.0,114.0,117.0,0.0
46.0,118.0,119.0,0.0
46.0,121.0,120.0,0.0
46.0,126.0,122.0,0.0
45.0,125.0,118.0,0.0
45.0,129.0,119.0,0.0
47.0,137.0,124.0,0.0
46.0,137.0,120.0,0.0
46.0,139.0,120.0,0.0
65.0,-271.0,70.0,0.0
66.0,-270.0,72.0,0.0
68.0,-273.0,76.0,0.0
70.0,-279.0,80.0,0.0
71.0,-276.0,84.0,0.0
72.0,-276.0,86.0,0.0
73.0,-276.0,90.0,0.0
73.0,-273.0,93.0,0.0
75.0,-275.0,96.0,0.0
78.0,-280.0,101.0,0.0
77.0,-272.0,102.0,0.0
79.0,-274.0,106.0,0.0
81.0,-277.0,111.0,0.0
80.0,-270.0,111.0,0.0
81.0,-266.0,113.0,0.0
84.0,-275.0,120.0,0.0
84.0,-272.0,123.0,0.0
87.0,-276.0,128.0,0.0
86.0,-269.0,128.0,0.0
86.0,-267.0,132.0,0.0
87.0,-264.0,133.0,0.0
87.0,-261.0,136.0,0.0
90.0,-265.0,142.0,0.0
87.0,-252.0,138.0,0.0
90.0,-257.0,144.0,0.0
91.0,-254.0,147.0,0.0
96.0,-266.0,158.0,0.0
89.0,-242.0,147.0,0.0
86.0,-232.0,145.0,0.0
88.0,-231.0,148.0,0.0
85.0,-221.0,144.0,0.0
83.0,-212.0,143.0,0.0
74.0,-188.0,129.0,0.0
70.0,-174.0,123.0,0.0
69.0,-170.0,123.0,0.0
67.0,-162.0,120.0,0.0
67.0,-162.0,122.0,0.0
60.0,-142.0,109.0,0.0
57.0,-134.0,106.0,0.0
57.0,-131.0,106.0,0.0
49.0,-110.0,92.0,0.0
49.0,-107.0,91.0,0.0
46.0,-100.0,87.0,0.0
41.0,-87.0,78.0,0.0
10346.0,-21498.0,19549.0,0.0
810.0,-1656.0,1541.0,0.0
44.0,-89.0,85.0,0.0
817.0,-1615.0,1574.0,0.0
806.0,-1569.0,1565.0,0.0
810.0,-1549.0,1579.0,0.0
818.0,-1538.0,1604.0,0.0
832.0,-1538.0,1643.0,0.0
825.0,-1497.0,1635.0,0.0
831.0,-1482.0,1658.0,0.0
825.0,-1447.0,1655.0,0.0
818.0,-1408.0,1650.0,0.0
815.0,-1377.0,1651.0,0.0
816.0,-1353.0,1661.0,0.0
827.0,-1347.0,1694.0,0.0
829.0,-1324.0,1704.0,0.0
824.0,-1290.0,1702.0,0.0
835.0,-1283.0,1733.0,0.0
14884.0,-22406.0,31004.0,1.0
845.0,-1247.0,1770.0,0.0
849.0,-1228.0,1786.0,0.0
862.0,-1221.0,1820.0,0.0
837.0,-1161.0,1777.0,0.0
876.0,-1189.0,1866.0,0.0
858.0,-1141.0,1836.0,0.0
859.0,-1116.0,1845.0,0.0
855.0,-1086.0,1844.0,0.0
847.0,-1052.0,1834.0,0.0
859.0,-1041.0,1865.0,0.0
854.0,-1010.0,1862.0,0.0
15074.0,-17418.0,32977.0,1.0
845.0,-952.0,1856.0,0.0
846.0,-929.0,1866.0,0.0
843.0,-902.0,1865.0,0.0
860.0,-897.0,1911.0,0.0
846.0,-858.0,1885.0,0.0
850.0,-839.0,1903.0,0.0
868.0,-832.0,1948.0,0.0
842.0,-783.0,1895.0,0.0
857.0,-774.0,1936.0,0.0
858.0,-750.0,1943.0,0.0
862.0,-730.0,1959.0,0.0
863.0,-707.0,1967.0,0.0
863.0,-683.0,1973.0,0.0
868.0,-662.0,1989.0,0.0
889.0,-653.0,2044.0,0.0
858.0,-607.0,1980.0,0.0
859.0,-584.0,1988.0,0.0
855.0,-558.0,1982.0,0.0
883.0,-552.0,2054.0,0.0
890.0,-531.0,2076.0,0.0
856.0,-488.0,2004.0,0.0
853.0,-462.0,2000.0,0.0
864.0,-445.0,2031.0,0.0
847.0,-413.0,1997.0,0.0
885.0,-407.0,2092.0,0.0
864.0,-373.0,2047.0,0.0
863.0,-349.0,2049.0,0.0
878.0,-331.0,2091.0,0.0
860.0,-300.0,2052.0,0.0
854.0,-274.0,2042.0,0.0
13313.0,-3895.0,31910.0,1.0
889.0,-235.0,2136.0,0.0
876.0,-207.0,2112.0,0.0
867.0,-181.0,2096.0,0.0
9.0,-2.0,24.0,0.0
9.0,-2.0,25.0,0.0
12.0,-2.0,33.0,0.0
18.0,-2.0,46.0,0.0
20.0,-1.0,50.0,0.0
16.0,0.0,40.0,0.0
16.0,0.0,40.0,0.0
12.0,0.0,30.0,0.0
17.0,0.0,43.0,0.0
18.0,1.0,46.0,0.0
18.0,1.0,48.0,0.0
21.0,2.0,56.0,0.0
18.0,2.0,48.0,0.0
23.0,4.0,60.0,0.0
24.0,4.0,61.0,0.0
27.0,6.0,69.0,0.0
29.0,8.0,74.0,0.0
33.0,10.0,84.0,0.0
32.0,11.0,83.0,0.0
37.0,13.0,94.0,0.0
31.0,13.0,80.0,0.0
34.0,15.0,88.0,0.0
34.0,15.0,87.0,0.0
38.0,19.0,98.0,0.0
35.0,19.0,93.0,0.0
37.0,20.0,95.0,0.0
35.0,20.0,91.0,0.0
37.0,23.0,96.0,0.0
40.0,26.0,102.0,0.0
37.0,25.0,97.0,0.0
42.0,30.0,107.0,0.0
39.0,29.0,100.0,0.0
38.0,30.0,100.0,0.0
36.0,30.0,95.0,0.0
41.0,35.0,106.0,0.0
39.0,34.0,101.0,0.0
42.0,39.0,111.0,0.0
39.0,37.0,101.0,0.0
41.0,40.0,106.0,0.0
41.0,41.0,107.0,0.0
35.0,38.0,94.0,0.0
36.0,40.0,97.0,0.0
39.0,44.0,103.0,0.0
35.0,41.0,91.0,0.0
33.0,41.0,90.0,0.0
35.0,45.0,95.0,0.0
30.0,40.0,82.0,0.0
32.0,43.0,85.0,0.0
34.0,47.0,91.0,0.0
31.0,44.0,83.0,0.0
31.0,45.0,84.0,0.0
31.0,47.0,83.0,0.0
29.0,45.0,77.0,0.0
31.0,48.0,81.0,0.0
31.0,51.0,85.0,0.0
31.0,52.0,84.0,0.0
31.0,53.0,82.0,0.0
33.0,59.0,89.0,0.0
33.0,60.0,88.0,0.0
35.0,65.0,95.0,0.0
34.0,65.0,93.0,0.0
37.0,72.0,101.0,0.0
36.0,73.0,98.0,0.0
35.0,73.0,97.0,0.0
37.0,76.0,98.0,0.0
37.0,80.0,100.0,0.0
39.0,84.0,104.0,0.0
39.0,90.0,108.0,0.0
39.0,92.0,109.0,0.0
41.0,96.0,110.0,0.0
41.0,100.0,112.0,0.0
42.0,103.0,114.0,0.0
41.0,104.0,112.0,0.0
42.0,107.0,112.0,0.0
44.0,114.0,119.0,0.0
44.0,118.0,120.0,0.0
43.0,119.0,118.0,0.0
45.0,126.0,122.0,0.0
43.0,125.0,118.0,0.0
44.0,130.0,120.0,0.0
45.0,137.0,124.0,0.0
46.0,141.0,125.0,0.0
46.0,144.0,126.0,0.0
61.0,-259.0,67.0,0.0
62.0,-264.0,71.0,0.0
63.0,-262.0,74.0,0.0
65.0,-267.0,78.0,0.0
67.0,-271.0,82.0,0.0
66.0,-264.0,84.0,0.0
67.0,-264.0,87.0,0.0
67.0,-261.0,88.0,0.0
68.0,-257.0,91.0,0.0
71.0,-267.0,98.0,0.0
72.0,-265.0,100.0,0.0
72.0,-261.0,102.0,0.0
75.0,-267.0,107.0,0.0
75.0,-264.0,110.0,0.0
75.0,-260.0,111.0,0.0
78.0,-264.0,117.0,0.0
78.0,-260.0,118.0,0.0
79.0,-258.0,121.0,0.0
81.0,-263.0,127.0,0.0
81.0,-261.0,129.0,0.0
81.0,-255.0,130.0,0.0
84.0,-260.0,136.0,0.0
85.0,-260.0,140.0,0.0
80.0,-240.0,132.0,0.0
84.0,-248.0,141.0,0.0
86.0,-251.0,146.0,0.0
87.0,-251.0,149.0,0.0
87.0,-247.0,151.0,0.0
78.0,-217.0,135.0,0.0
73.0,-200.0,129.0,0.0
78.0,-210.0,138.0,0.0
69.0,-183.0,123.0,0.0
64.0,-169.0,117.0,0.0
64.0,-166.0,117.0,0.0
61.0,-154.0,112.0,0.0
59.0,-147.0,109.0,0.0
58.0,-142.0,109.0,0.0
54.0,-132.0,103.0,0.0
52.0,-126.0,100.0,0.0
44.0,-104.0,85.0,0.0
52.0,-119.0,100.0,0.0
40.0,-89.0,77.0,0.0
44.0,-98.0,85.0,0.0
40.0,-88.0,79.0,0.0
10022.0,-21468.0,19606.0,0.0
779.0,-1644.0,1535.0,0.0
785.0,-1629.0,1557.0,0.0
12723.0,-25924.0,25352.0,1.0
778.0,-1560.0,1562.0,0.0
768.0,-1513.0,1550.0,0.0
797.0,-1543.0,1616.0,0.0
799.0,-1520.0,1630.0,0.0
795.0,-1486.0,1630.0,0.0
779.0,-1431.0,1607.0,0.0
776.0,-1401.0,1609.0,0.0
804.0,-1425.0,1675.0,0.0
807.0,-1404.0,1690.0,0.0
794.0,-1355.0,1670.0,0.0
802.0,-1346.0,1697.0,0.0
801.0,-1318.0,1702.0,0.0
811.0,-1308.0,1730.0,0.0
802.0,-1269.0,1720.0,0.0
799.0,-1239.0,1720.0,0.0
817.0,-1243.0,1770.0,0.0
809.0,-1206.0,1759.0,0.0
823.0,-1202.0,1797.0,0.0
827.0,-1182.0,1813.0,0.0
818.0,-1144.0,1800.0,0.0
800.0,-1094.0,1767.0,0.0
816.0,-1092.0,1812.0,0.0
829.0,-1084.0,1845.0,0.0
818.0,-1045.0,1827.0,0.0
14733.0,-18398.0,33030.0,1.0
839.0,-1024.0,1889.0,0.0
814.0,-969.0,1841.0,0.0
810.0,-941.0,1838.0,0.0
819.0,-927.0,1865.0,0.0
14550.0,-16040.0,33212.0,1.0
836.0,-897.0,1916.0,0.0
837.0,-875.0,1925.0,0.0
832.0,-845.0,1920.0,0.0
831.0,-820.0,1923.0,0.0
822.0,-787.0,1908.0,0.0
832.0,-773.0,1937.0,0.0
823.0,-741.0,1923.0,0.0
834.0,-727.0,1956.0,0.0
847.0,-715.0,1994.0,0.0
835.0,-680.0,1969.0,0.0
841.0,-660.0,1988.0,0.0
834.0,-632.0,1979.0,0.0
843.0,-615.0,2006.0,0.0
831.0,-583.0,1984.0,0.0
839.0,-564.0,2007.0,0.0
815.0,-525.0,1956.0,0.0
844.0,-519.0,2032.0,0.0
846.0,-497.0,2042.0,0.0
843.0,-471.0,2040.0,0.0
837.0,-445.0,2031.0,0.0
831.0,-418.0,2021.0,0.0
839.0,-399.0,2047.0,0.0
839.0,-374.0,2052.0,0.0
845.0,-353.0,2071.0,0.0
827.0,-322.0,2033.0,0.0
843.0,-304.0,2076.0,0.0
826.0,-274.0,2039.0,0.0
826.0,-250.0,2043.0,0.0
12892.0,-3532.0,31950.0,1.0
830.0,-204.0,2063.0,0.0
824.0,-178.0,2053.0,0.0
0.0,0.0,2.0,0.0
1.0,-1.0,5.0,0.0
7.0,-1.0,19.0,0.0
12.0,-1.0,31.0,0.0
19.0,-1.0,49.0,0.0
14.0,-1.0,37.0,0.0
13.0,0.0,35.0,0.0
15.0,0.0,40.0,0.0
12.0,0.0,32.0,0.0
12.0,0.0,33.0,0.0
14.0,1.0,38.0,0.0
21.0,2.0,56.0,0.0
22.0,3.0,57.0,0.0
22.0,3.0,57.0,0.0
19.0,4.0,49.0,0.0
25.0,6.0,65.0,0.0
19.0,5.0,50.0,0.0
24.0,8.0,64.0,0.0
22.0,7.0,60.0,0.0
26.0,10.0,70.0,0.0
29.0,12.0,78.0,0.0
28.0,12.0,75.0,0.0
28.0,13.0,74.0,0.0
30.0,15.0,79.0,0.0
24.0,13.0,65.0,0.0
33.0,18.0,87.0,0.0
36.0,21.0,96.0,0.0
31.0,20.0,86.0,0.0
30.0,20.0,81.0,0.0
27.0,19.0,75.0,0.0
28.0,21.0,77.0,0.0
33.0,25.0,88.0,0.0
28.0,22.0,76.0,0.0
33.0,28.0,89.0,0.0
32.0,28.0,87.0,0.0
33.0,30.0,89.0,0.0
32.0,30.0,85.0,0.0
36.0,35.0,97.0,0.0
32.0,32.0,87.0,0.0
38.0,39.0,102.0,0.0
31.0,34.0,84.0,0.0
29.0,33.0,79.0,0.0
34.0,39.0,92.0,0.0
30.0,36.0,83.0,0.0
26.0,33.0,74.0,0.0
29.0,39.0,83.0,0.0
26.0,36.0,74.0,0.0
25.0,34.0,69.0,0.0
28.0,41.0,78.0,0.0
25.0,36.0,70.0,0.0
28.0,42.0,76.0,0.0
29.0,45.0,81.0,0.0
25.0,40.0,70.0,0.0
27.0,43.0,75.0,0.0
26.0,45.0,73.0,0.0
27.0,47.0,76.0,0.0
28.0,50.0,78.0,0.0
28.0,51.0,78.0,0.0
28.0,53.0,80.0,0.0
30.0,58.0,85.0,0.0
29.0,57.0,82.0,0.0
30.0,61.0,85.0,0.0
32.0,67.0,91.0,0.0
32.0,67.0,89.0,0.0
33.0,71.0,93.0,0.0
34.0,74.0,95.0,0.0
33.0,74.0,92.0,0.0
35.0,82.0,99.0,0.0
34.0,81.0,97.0,0.0
36.0,89.0,104.0,0.0
35.0,89.0,101.0,0.0
38.0,96.0,107.0,0.0
38.0,100.0,109.0,0.0
39.0,105.0,111.0,0.0
39.0,104.0,108.0,0.0
41.0,112.0,114.0,0.0
41.0,116.0,116.0,0.0
39.0,114.0,112.0,0.0
40.0,119.0,113.0,0.0
40.0,122.0,114.0,0.0
40.0,126.0,115.0,0.0
43.0,137.0,123.0,0.0
41.0,132.0,116.0,0.0
58.0,-262.0,69.0,0.0
59.0,-261.0,72.0,0.0
61.0,-267.0,76.0,0.0
62.0,-264.0,78.0,0.0
65.0,-272.0,84.0,0.0
66.0,-274.0,88.0,0.0
66.0,-269.0,89.0,0.0
67.0,-267.0,92.0,0.0
66.0,-259.0,92.0,0.0
71.0,-274.0,102.0,0.0
71.0,-271.0,104.0,0.0
74.0,-278.0,109.0,0.0
72.0,-267.0,109.0,0.0
74.0,-268.0,112.0,0.0
76.0,-272.0,117.0,0.0
76.0,-269.0,119.0,0.0
76.0,-265.0,121.0,0.0
77.0,-262.0,124.0,0.0
80.0,-267.0,129.0,0.0
80.0,-264.0,132.0,0.0
80.0,-258.0,132.0,0.0
82.0,-263.0,138.0,0.0
82.0,-260.0,141.0,0.0
79.0,-247.0,137.0,0.0
88.0,-267.0,152.0,0.0
84.0,-254.0,148.0,0.0
86.0,-256.0,153.0,0.0
82.0,-240.0,147.0,0.0
78.0,-223.0,141.0,0.0
75.0,-211.0,137.0,0.0
73.0,-202.0,134.0,0.0
68.0,-186.0,126.0,0.0
68.0,-182.0,127.0,0.0
66.0,-176.0,125.0,0.0
58.0,-152.0,111.0,0.0
57.0,-147.0,109.0,0.0
54.0,-138.0,106.0,0.0
52.0,-131.0,102.0,0.0
52.0,-128.0,102.0,0.0
48.0,-116.0,95.0,0.0
43.0,-103.0,87.0,0.0
41.0,-97.0,82.0,0.0
46.0,-105.0,92.0,0.0
9526.0,-21407.0,19191.0,0.0
37.0,-84.0,77.0,0.0
755.0,-1644.0,1543.0,0.0
748.0,-1600.0,1536.0,0.0
747.0,-1571.0,1543.0,0.0
737.0,-1525.0,1533.0,0.0
767.0,-1558.0,1600.0,0.0
758.0,-1515.0,1594.0,0.0
769.0,-1510.0,1624.0,0.0
771.0,-1488.0,1638.0,0.0
779.0,-1476.0,1663.0,0.0
770.0,-1433.0,1652.0,0.0
780.0,-1425.0,1681.0,0.0
773.0,-1387.0,1675.0,0.0
790.0,-1391.0,1720.0,0.0
787.0,-1360.0,1721.0,0.0
796.0,-1350.0,1751.0,0.0
781.0,-1298.0,1724.0,0.0
783.0,-1278.0,1736.0,0.0
778.0,-1246.0,1735.0,0.0
776.0,-1216.0,1736.0,0.0
783.0,-1202.0,1759.0,0.0
779.0,-1172.0,1759.0,0.0
784.0,-1156.0,1778.0,0.0
795.0,-1146.0,1807.0,0.0
0.0,0.0,0.0,0.0
0.0,0.0,0.0,0.0
815.0,-1099.0,1875.0,0.0
797.0,-1051.0,1841.0,0.0
0.0,0.0,0.0,0.0
786.0,-989.0,1830.0,0.0
797.0,-977.0,1861.0,0.0
808.0,-966.0,1893.0,0.0
824.0,-960.0,1937.0,0.0
779.0,-885.0,1837.0,0.0
814.0,-901.0,1929.0,0.0
817.0,-879.0,1940.0,0.0
804.0,-841.0,1916.0,0.0
819.0,-833.0,1957.0,0.0
833.0,-823.0,1999.0,0.0
845.0,-810.0,2035.0,0.0
834.0,-774.0,2011.0,0.0
806.0,-725.0,1954.0,0.0
792.0,-689.0,1924.0,0.0
812.0,-681.0,1976.0,0.0
801.0,-650.0,1958.0,0.0
13807.0,-10795.0,33800.0,1.0
813.0,-611.0,1998.0,0.0
817.0,-591.0,2013.0,0.0
832.0,-577.0,2058.0,0.0
818.0,-544.0,2027.0,0.0
829.0,-527.0,2061.0,0.0
812.0,-492.0,2022.0,0.0
818.0,-472.0,2044.0,0.0
829.0,-456.0,2077.0,0.0
822.0,-427.0,2064.0,0.0
821.0,-402.0,2066.0,0.0
802.0,-369.0,2024.0,0.0
822.0,-355.0,2079.0,0.0
811.0,-326.0,2057.0,0.0
810.0,-302.0,2059.0,0.0
817.0,-281.0,2082.0,0.0
796.0,-250.0,2034.0,0.0
821.0,-233.0,2102.0,0.0
789.0,-200.0,2024.0,0.0
813.0,-183.0,2091.0,0.0
820.0,-160.0,2113.0,0.0
808.0,-133.0,2088.0,0.0
10.0,-2.0,28.0,0.0
11.0,-2.0,32.0,0.0
10.0,-1.0,29.0,0.0
16.0,-1.0,42.0,0.0
12.0,0.0,33.0,0.0
11.0,0.0,32.0,0.0
13.0,0.0,34.0,0.0
17.0,1.0,46.0,0.0
13.0,1.0,35.0,0.0
21.0,2.0,57.0,0.0
21.0,3.0,59.0,0.0
20.0,4.0,55.0,0.0
23.0,5.0,63.0,0.0
20.0,5.0,55.0,0.0
19.0,5.0,53.0,0.0
24.0,7.0,66.0,0.0
27.0,9.0,73.0,0.0
29.0,11.0,78.0,0.0
29.0,12.0,79.0,0.0
33.0,14.0,90.0,0.0
30.0,14.0,82.0,0.0
29.0,15.0,80.0,0.0
25.0,14.0,70.0,0.0
34.0,20.0,94.0,0.0
33.0,21.0,93.0,0.0
32.0,21.0,88.0,0.0
38.0,26.0,104.0,0.0
35.0,25.0,96.0,0.0
33.0,26.0,94.0,0.0
36.0,29.0,102.0,0.0
33.0,28.0,94.0,0.0
36.0,32.0,103.0,0.0
34.0,32.0,96.0,0.0
33.0,31.0,93.0,0.0
35.0,34.0,97.0,0.0
33.0,34.0,93.0,0.0
32.0,34.0,93.0,0.0
35.0,38.0,99.0,0.0
32.0,36.0,90.0,0.0
32.0,38.0,92.0,0.0
31.0,37.0,86.0,0.0
32.0,41.0,92.0,0.0
30.0,39.0,86.0,0.0
31.0,41.0,88.0,0.0
28.0,40.0,82.0,0.0
27.0,39.0,77.0,0.0
28.0,42.0,83.0,0.0
27.0,40.0,76.0,0.0
23.0,36.0,67.0,0.0
24.0,39.0,70.0,0.0
27.0,45.0,78.0,0.0
26.0,45.0,76.0,0.0
25.0,44.0,73.0,0.0
26.0,47.0,77.0,0.0
27.0,50.0,78.0,0.0
29.0,54.0,83.0,0.0
28.0,54.0,81.0,0.0
30.0,60.0,88.0,0.0
29.0,61.0,88.0,0.0
31.0,64.0,90.0,0.0
31.0,66.0,90.0,0.0
31.0,68.0,90.0,0.0
31.0,70.0,92.0,0.0
33.0,74.0,95.0,0.0
34.0,80.0,101.0,0.0
32.0,78.0,95.0,0.0
35.0,87.0,103.0,0.0
33.0,85.0,99.0,0.0
35.0,89.0,102.0,0.0
35.0,93.0,104.0,0.0
37.0,100.0,110.0,0.0
37.0,101.0,108.0,0.0
37.0,105.0,110.0,0.0
39.0,112.0,115.0,0.0
39.0,116.0,116.0,0.0
36.0,111.0,108.0,0.0
40.0,124.0,119.0,0.0
38.0,123.0,115.0,0.0
40.0,131.0,120.0,0.0
39.0,129.0,116.0,0.0
39.0,132.0,117.0,0.0
57.0,-265.0,70.0,0.0
56.0,-258.0,71.0,0.0
59.0,-266.0,77.0,0.0
58.0,-256.0,76.0,0.0
61.0,-265.0,82.0,0.0
61.0,-261.0,84.0,0.0
62.0,-263.0,88.0,0.0
61.0,-254.0,89.0,0.0
63.0,-255.0,92.0,0.0
65.0,-262.0,97.0,0.0
65.0,-259.0,100.0,0.0
68.0,-264.0,105.0,0.0
68.0,-263.0,108.0,0.0
68.0,-258.0,109.0,0.0
71.0,-264.0,114.0,0.0
73.0,-268.0,120.0,0.0
71.0,-256.0,118.0,0.0
73.0,-258.0,122.0,0.0
74.0,-257.0,126.0,0.0
74.0,-254.0,128.0,0.0
74.0,-250.0,129.0,0.0
75.0,-251.0,133.0,0.0
73.0,-240.0,131.0,0.0
76.0,-246.0,137.0,0.0
80.0,-252.0,144.0,0.0
78.0,-245.0,144.0,0.0
78.0,-241.0,145.0,0.0
73.0,-221.0,137.0,0.0
69.0,-204.0,129.0,0.0
67.0,-197.0,128.0,0.0
64.0,-188.0,124.0,0.0
61.0,-174.0,119.0,0.0
61.0,-173.0,120.0,0.0
54.0,-149.0,106.0,0.0
55.0,-148.0,108.0,0.0
51.0,-137.0,102.0,0.0
52.0,-135.0,104.0,0.0
52.0,-133.0,105.0,0.0
50.0,-127.0,102.0,0.0
43.0,-108.0,89.0,0.0
41.0,-103.0,86.0,0.0
36.0,-87.0,75.0,0.0
33.0,-81.0,71.0,0.0
33.0,-76.0,70.0,0.0
34.0,-80.0,74.0,0.0
727.0,-1633.0,1540.0,0.0
729.0,-1612.0,1553.0,0.0
719.0,-1563.0,1541.0,0.0
730.0,-1558.0,1571.0,0.0
727.0,-1525.0,1574.0,0.0
740.0,-1526.0,1612.0,0.0
736.0,-1491.0,1611.0,0.0
735.0,-1463.0,1616.0,0.0
744.0,-1454.0,1645.0,0.0
0.0,0.0,0.0,0.0
750.0,-1415.0,1675.0,0.0
757.0,-1401.0,1697.0,0.0
742.0,-1350.0,1673.0,0.0
749.0,-1335.0,1697.0,0.0
743.0,-1302.0,1692.0,0.0
13566.0,-23267.0,30975.0,1.0
749.0,-1261.0,1720.0,0.0
765.0,-1261.0,1762.0,0.0
754.0,-1220.0,1748.0,0.0
766.0,-1215.0,1782.0,0.0
773.0,-1198.0,1802.0,0.0
774.0,-1176.0,1814.0,0.0
763.0,-1135.0,1795.0,0.0
768.0,-1116.0,1813.0,0.0
771.0,-1097.0,1828.0,0.0
776.0,-1080.0,1847.0,0.0
770.0,-1046.0,1839.0,0.0
795.0,-1056.0,1907.0,0.0
770.0,-999.0,1854.0,0.0
781.0,-988.0,1885.0,0.0
768.0,-948.0,1862.0,0.0
781.0,-940.0,1900.0,0.0
800.0,-939.0,1954.0,0.0
792.0,-905.0,1939.0,0.0
782.0,-868.0,1919.0,0.0
784.0,-847.0,1932.0,0.0
772.0,-809.0,1908.0,0.0
782.0,-797.0,1939.0,0.0
787.0,-779.0,1958.0,0.0
772.0,-740.0,1928.0,0.0
790.0,-732.0,1975.0,0.0
781.0,-701.0,1961.0,0.0
789.0,-684.0,1986.0,0.0
785.0,-657.0,1981.0,0.0
791.0,-638.0,2002.0,0.0
782.0,-608.0,1986.0,0.0
13326.0,-9950.0,33898.0,1.0
786.0,-564.0,2009.0,0.0
789.0,-541.0,2020.0,0.0
783.0,-514.0,2012.0,0.0
789.0,-494.0,2031.0,0.0
787.0,-469.0,2033.0,0.0
800.0,-454.0,2069.0,0.0
12889.0,-6913.0,33407.0,1.0
786.0,-398.0,2045.0,0.0
814.0,-388.0,2123.0,0.0
781.0,-349.0,2042.0,0.0
785.0,-326.0,2056.0,0.0
792.0,-305.0,2078.0,0.0
803.0,-286.0,2116.0,0.0
785.0,-255.0,2074.0,0.0
789.0,-233.0,2088.0,0.0
780.0,-206.0,2068.0,0.0
777.0,-182.0,2066.0,0.0
1.0,-1.0,5.0,0.0
8.0,-2.0,24.0,0.0
16.0,-2.0,45.0,0.0
4.0,-1.0,14.0,0.0
4.0,0.0,12.0,0.0
11.0,0.0,30.0,0.0
12.0,0.0,33.0,0.0
14.0,0.0,40.0,0.0
9.0,0.0,28.0,0.0
12.0,0.0,34.0,0.0
7.0,0.0,21.0,0.0
12.0,1.0,37.0,0.0
15.0,1.0,42.0,0.0
18.0,3.0,52.0,0.0
19.0,4.0,55.0,0.0
16.0,4.0,46.0,0.0
19.0,5.0,54.0,0.0
22.0,7.0,63.0,0.0
22.0,7.0,62.0,0.0
26.0,10.0,76.0,0.0
22.0,10.0,65.0,0.0
24.0,11.0,69.0,0.0
25.0,12.0,73.0,0.0
26.0,14.0,76.0,0.0
24.0,13.0,68.0,0.0
29.0,18.0,86.0,0.0
27.0,17.0,77.0,0.0
28.0,19.0,80.0,0.0
28.0,20.0,82.0,0.0
25.0,18.0,72.0,0.0
26.0,21.0,75.0,0.0
29.0,24.0,87.0,0.0
31.0,26.0,88.0,0.0
31.0,27.0,88.0,0.0
32.0,30.0,96.0,0.0
34.0,33.0,98.0,0.0
29.0,30.0,85.0,0.0
30.0,32.0,86.0,0.0
28.0,30.0,81.0,0.0
30.0,33.0,86.0,0.0
30.0,35.0,86.0,0.0
28.0,34.0,83.0,0.0
29.0,37.0,85.0,0.0
27.0,35.0,80.0,0.0
24.0,32.0,71.0,0.0
26.0,35.0,75.0,0.0
26.0,36.0,76.0,0.0
25.0,37.0,75.0,0.0
26.0,39.0,78.0,0.0
23.0,36.0,70.0,0.0
24.0,39.0,74.0,0.0
22.0,35.0,64.0,0.0
20.0,36.0,63.0,0.0
23.0,42.0,72.0,0.0
25.0,44.0,75.0,0.0
25.0,45.0,74.0,0.0
23.0,45.0,72.0,0.0
25.0,48.0,75.0,0.0
24.0,48.0,72.0,0.0
27.0,55.0,81.0,0.0
27.0,55.0,81.0,0.0
28.0,62.0,87.0,0.0
27.0,61.0,84.0,0.0
27.0,61.0,83.0,0.0
28.0,65.0,86.0,0.0
30.0,71.0,92.0,0.0
30.0,75.0,95.0,0.0
30.0,75.0,92.0,0.0
31.0,79.0,95.0,0.0
33.0,86.0,102.0,0.0
32.0,86.0,99.0,0.0
32.0,90.0,102.0,0.0
35.0,97.0,108.0,0.0
34.0,98.0,105.0,0.0
34.0,101.0,106.0,0.0
36.0,110.0,112.0,0.0
36.0,113.0,114.0,0.0
35.0,109.0,107.0,0.0
35.0,112.0,108.0,0.0
36.0,119.0,112.0,0.0
37.0,123.0,113.0,0.0
37.0,127.0,114.0,0.0
37.0,134.0,118.0,0.0
55.0,-266.0,71.0,0.0
56.0,-264.0,74.0,0.0
56.0,-262.0,76.0,0.0
57.0,-262.0,79.0,0.0
60.0,-270.0,85.0,0.0
59.0,-263.0,86.0,0.0
60.0,-265.0,90.0,0.0
62.0,-269.0,94.0,0.0
63.0,-267.0,97.0,0.0
64.0,-267.0,100.0,0.0
66.0,-273.0,105.0,0.0
67.0,-272.0,108.0,0.0
67.0,-267.0,110.0,0.0
68.0,-264.0,112.0,0.0
70.0,-271.0,119.0,0.0
70.0,-267.0,120.0,0.0
70.0,-262.0,121.0,0.0
71.0,-264.0,126.0,0.0
74.0,-268.0,132.0,0.0
74.0,-263.0,133.0,0.0
75.0,-263.0,137.0,0.0
76.0,-261.0,139.0,0.0
76.0,-260.0,142.0,0.0
77.0,-260.0,146.0,0.0
80.0,-262.0,151.0,0.0
78.0,-254.0,151.0,0.0
77.0,-242.0,147.0,0.0
71.0,-222.0,138.0,0.0
68.0,-209.0,134.0,0.0
63.0,-192.0,125.0,0.0
63.0,-188.0,126.0,0.0
59.0,-176.0,120.0,0.0
57.0,-165.0,116.0,0.0
50.0,-142.0,103.0,0.0
52.0,-146.0,107.0,0.0
52.0,-143.0,108.0,0.0
49.0,-134.0,103.0,0.0
47.0,-127.0,101.0,0.0
42.0,-112.0,90.0,0.0
36.0,-95.0,79.0,0.0
39.0,-99.0,83.0,0.0
37.0,-93.0,81.0,0.0
41.0,-103.0,90.0,0.0
37.0,-89.0,82.0,0.0
699.0,-1651.0,1526.0,0.0
34.0,-82.0,78.0,0.0
705.0,-1611.0,1559.0,0.0
698.0,-1566.0,1550.0,0.0
727.0,-1604.0,1624.0,0.0
722.0,-1566.0,1622.0,0.0
712.0,-1519.0,1608.0,0.0
12015.0,-25146.0,27247.0,1.0
718.0,-1477.0,1638.0,0.0
721.0,-1457.0,1653.0,0.0
704.0,-1397.0,1622.0,0.0
12495.0,-24330.0,28896.0,1.0
733.0,-1403.0,1705.0,0.0
12856.0,-24119.0,30008.0,1.0
727.0,-1340.0,1706.0,0.0
734.0,-1325.0,1729.0,0.0
13228.0,-23430.0,31289.0,1.0
0.0,0.0,0.0,0.0
0.0,0.0,0.0,0.0
0.0,0.0,0.0,0.0
0.0,0.0,0.0,0.0
742.0,-1190.0,1796.0,0.0
755.0,-1185.0,1832.0,0.0
748.0,-1148.0,1821.0,0.0
742.0,-1114.0,1814.0,0.0
748.0,-1099.0,1836.0,0.0
757.0,-1087.0,1865.0,0.0
750.0,-1053.0,1855.0,0.0
759.0,-1041.0,1885.0,0.0
744.0,-997.0,1855.0,0.0
749.0,-979.0,1871.0,0.0
737.0,-939.0,1847.0,0.0
755.0,-938.0,1900.0,0.0
753.0,-912.0,1902.0,0.0
768.0,-905.0,1944.0,0.0
750.0,-860.0,1905.0,0.0
765.0,-852.0,1949.0,0.0
767.0,-832.0,1961.0,0.0
749.0,-788.0,1922.0,0.0
765.0,-781.0,1968.0,0.0
754.0,-746.0,1946.0,0.0
744.0,-713.0,1926.0,0.0
752.0,-696.0,1952.0,0.0
777.0,-695.0,2021.0,0.0
781.0,-674.0,2038.0,0.0
763.0,-636.0,1999.0,0.0
762.0,-611.0,2000.0,0.0
757.0,-584.0,1995.0,0.0
775.0,-574.0,2047.0,0.0
777.0,-551.0,2058.0,0.0
792.0,-537.0,2102.0,0.0
795.0,-514.0,2115.0,0.0
769.0,-474.0,2052.0,0.0
760.0,-446.0,2033.0,0.0
764.0,-424.0,2049.0,0.0
785.0,-412.0,2113.0,0.0
773.0,-382.0,2086.0,0.0
775.0,-358.0,2095.0,0.0
766.0,-330.0,2075.0,0.0
756.0,-302.0,2055.0,0.0
775.0,-286.0,2109.0,0.0
778.0,-262.0,2123.0,0.0
790.0,-242.0,2163.0,0.0
757.0,-208.0,2077.0,0.0
11621.0,-2821.0,31912.0,1.0
2.0,0.0,8.0,0.0
4.0,-1.0,11.0,0.0
8.0,-1.0,22.0,0.0
8.0,0.0,22.0,0.0
10.0,-1.0,31.0,0.0
11.0,-1.0,32.0,0.0
10.0,0.0,30.0,0.0
6.0,0.0,19.0,0.0
13.0,0.0,38.0,0.0
12.0,1.0,37.0,0.0
13.0,0.0,37.0,0.0
16.0,1.0,46.0,0.0
13.0,1.0,38.0,0.0
22.0,4.0,64.0,0.0
20.0,4.0,58.0,0.0
19.0,5.0,55.0,0.0
19.0,6.0,55.0,0.0
23.0,7.0,68.0,0.0
20.0,7.0,59.0,0.0
20.0,8.0,61.0,0.0
21.0,9.0,63.0,0.0
26.0,12.0,77.0,0.0
27.0,14.0,79.0,0.0
28.0,15.0,85.0,0.0
25.0,14.0,76.0,0.0
31.0,20.0,94.0,0.0
28.0,19.0,85.0,0.0
30.0,21.0,89.0,0.0
32.0,23.0,96.0,0.0
32.0,25.0,98.0,0.0
31.0,24.0,92.0,0.0
28.0,24.0,87.0,0.0
32.0,28.0,98.0,0.0
33.0,30.0,99.0,0.0
34.0,33.0,104.0,0.0
31.0,32.0,94.0,0.0
28.0,30.0,85.0,0.0
34.0,37.0,103.0,0.0
29.0,31.0,87.0,0.0
30.0,35.0,92.0,0.0
30.0,37.0,94.0,0.0
30.0,39.0,94.0,0.0
29.0,37.0,87.0,0.0
30.0,40.0,91.0,0.0
29.0,40.0,88.0,0.0
25.0,36.0,78.0,0.0
29.0,42.0,89.0,0.0
26.0,39.0,80.0,0.0
26.0,42.0,82.0,0.0
24.0,38.0,73.0,0.0
24.0,39.0,74.0,0.0
24.0,42.0,76.0,0.0
22.0,41.0,72.0,0.0
22.0,40.0,70.0,0.0
25.0,47.0,79.0,0.0
24.0,45.0,74.0,0.0
24.0,48.0,78.0,0.0
24.0,49.0,76.0,0.0
27.0,55.0,85.0,0.0
24.0,51.0,76.0,0.0
27.0,59.0,86.0,0.0
28.0,62.0,88.0,0.0
27.0,61.0,85.0,0.0
27.0,65.0,88.0,0.0
29.0,68.0,90.0,0.0
29.0,71.0,92.0,0.0
29.0,72.0,91.0,0.0
29.0,76.0,94.0,0.0
32.0,83.0,100.0,0.0
32.0,87.0,103.0,0.0
32.0,91.0,105.0,0.0
32.0,91.0,102.0,0.0
32.0,95.0,105.0,0.0
33.0,99.0,107.0,0.0
34.0,103.0,109.0,0.0
36.0,110.0,114.0,0.0
36.0,113.0,114.0,0.0
35.0,115.0,113.0,0.0
35.0,117.0,113.0,0.0
35.0,121.0,114.0,0.0
36.0,127.0,118.0,0.0
35.0,127.0,116.0,0.0
36.0,131.0,117.0,0.0
51.0,-259.0,70.0,0.0
52.0,-263.0,74.0,0.0
53.0,-260.0,77.0,0.0
54.0,-261.0,79.0,0.0
56.0,-268.0,85.0,0.0
57.0,-264.0,87.0,0.0
57.0,-263.0,90.0,0.0
58.0,-261.0,92.0,0.0
57.0,-256.0,93.0,0.0
59.0,-259.0,97.0,0.0
61.0,-263.0,102.0,0.0
61.0,-259.0,104.0,0.0
62.0,-257.0,107.0,0.0
64.0,-262.0,111.0,0.0
65.0,-258.0,114.0,0.0
66.0,-261.0,118.0,0.0
64.0,-251.0,117.0,0.0
67.0,-254.0,122.0,0.0
68.0,-258.0,127.0,0.0
68.0,-254.0,129.0,0.0
69.0,-251.0,132.0,0.0
66.0,-237.0,127.0,0.0
73.0,-256.0,141.0,0.0
73.0,-251.0,142.0,0.0
73.0,-248.0,144.0,0.0
71.0,-238.0,141.0,0.0
68.0,-226.0,137.0,0.0
67.0,-216.0,135.0,0.0
61.0,-196.0,126.0,0.0
56.0,-175.0,115.0,0.0
58.0,-183.0,123.0,0.0
51.0,-157.0,109.0,0.0
51.0,-154.0,108.0,0.0
47.0,-138.0,100.0,0.0
47.0,-138.0,102.0,0.0
48.0,-137.0,104.0,0.0
41.0,-116.0,90.0,0.0
40.0,-112.0,89.0,0.0
37.0,-103.0,83.0,0.0
37.0,-100.0,83.0,0.0
32.0,-86.0,73.0,0.0
32.0,-82.0,71.0,0.0
36.0,-91.0,81.0,0.0
33.0,-82.0,75.0,0.0
28.0,-69.0,64.0,0.0
675.0,-1624.0,1542.0,0.0
679.0,-1605.0,1559.0,0.0
685.0,-1594.0,1583.0,0.0
678.0,-1549.0,1574.0,0.0
11409.0,-25588.0,26588.0,1.0
699.0,-1542.0,1640.0,0.0
690.0,-1496.0,1627.0,0.0
703.0,-1497.0,1665.0,0.0
701.0,-1464.0,1666.0,0.0
689.0,-1415.0,1647.0,0.0
707.0,-1425.0,1698.0,0.0
690.0,-1364.0,1664.0,0.0
0.0,0.0,0.0,0.0
705.0,-1344.0,1717.0,0.0
704.0,-1315.0,1720.0,0.0
727.0,-1331.0,1784.0,0.0
713.0,-1282.0,1759.0,0.0
703.0,-1237.0,1740.0,0.0
724.0,-1249.0,1799.0,0.0
709.0,-1199.0,1769.0,0.0
733.0,-1215.0,1838.0,0.0
708.0,-1148.0,1780.0,0.0
735.0,-1167.0,1856.0,0.0
729.0,-1132.0,1847.0,0.0
727.0,-1104.0,1849.0,0.0
741.0,-1100.0,1891.0,0.0
732.0,-1061.0,1875.0,0.0
0.0,0.0,0.0,0.0
745.0,-1031.0,1921.0,0.0
735.0,-992.0,1902.0,0.0
737.0,-971.0,1916.0,0.0
725.0,-930.0,1890.0,0.0
733.0,-915.0,1914.0,0.0
746.0,-908.0,1957.0,0.0
740.0,-876.0,1945.0,0.0
733.0,-845.0,1935.0,0.0
745.0,-834.0,1973.0,0.0
745.0,-810.0,1979.0,0.0
747.0,-788.0,1990.0,0.0
0.0,0.0,0.0,0.0
727.0,-720.0,1949.0,0.0
741.0,-710.0,1991.0,0.0
726.0,-672.0,1955.0,0.0
739.0,-660.0,1996.0,0.0
728.0,-627.0,1973.0,0.0
734.0,-609.0,1996.0,0.0
740.0,-590.0,2016.0,0.0
759.0,-581.0,2075.0,0.0
12499.0,-9173.0,34212.0,1.0
742.0,-521.0,2038.0,0.0
750.0,-502.0,2065.0,0.0
744.0,-475.0,2055.0,0.0
742.0,-450.0,2053.0,0.0
754.0,-433.0,2091.0,0.0
744.0,-404.0,2071.0,0.0
737.0,-376.0,2056.0,0.0
755.0,-361.0,2113.0,0.0
739.0,-330.0,2073.0,0.0
11648.0,-4823.0,32711.0,1.0
732.0,-280.0,2063.0,0.0
739.0,-258.0,2086.0,0.0
735.0,-233.0,2081.0,0.0
11380.0,-3244.0,32264.0,1.0
749.0,-189.0,2131.0,0.0
752.0,-165.0,2144.0,0.0
11177.0,-2096.0,31910.0,1.0
8195.0,-1269.0,23452.0,0.0
1.0,0.0,3.0,0.0
5.0,0.0,17.0,0.0
5.0,0.0,15.0,0.0
2.0,0.0,9.0,0.0
4.0,0.0,12.0,0.0
8.0,0.0,26.0,0.0
11.0,0.0,37.0,0.0
9.0,0.0,29.0,0.0
13.0,1.0,38.0,0.0
9.0,1.0,29.0,0.0
14.0,2.0,44.0,0.0
14.0,2.0,43.0,0.0
13.0,3.0,40.0,0.0
17.0,5.0,53.0,0.0
20.0,6.0,61.0,0.0
21.0,7.0,63.0,0.0
21.0,8.0,63.0,0.0
22.0,10.0,69.0,0.0
19.0,9.0,59.0,0.0
22.0,11.0,66.0,0.0
23.0,13.0,70.0,0.0
21.0,12.0,64.0,0.0
30.0,19.0,93.0,0.0
23.0,16.0,73.0,0.0
25.0,17.0,76.0,0.0
25.0,18.0,76.0,0.0
29.0,22.0,88.0,0.0
29.0,24.0,89.0,0.0
26.0,23.0,82.0,0.0
26.0,24.0,82.0,0.0
29.0,27.0,89.0,0.0
29.0,28.0,89.0,0.0
26.0,27.0,82.0,0.0
29.0,31.0,90.0,0.0
26.0,30.0,84.0,0.0
25.0,28.0,77.0,0.0
25.0,31.0,80.0,0.0
22.0,28.0,73.0,0.0
24.0,31.0,75.0,0.0
25.0,34.0,81.0,0.0
24.0,33.0,76.0,0.0
22.0,32.0,73.0,0.0
23.0,34.0,73.0,0.0
22.0,34.0,71.0,0.0
21.0,33.0,69.0,0.0
21.0,34.0,68.0,0.0
20.0,35.0,67.0,0.0
21.0,38.0,71.0,0.0
21.0,38.0,70.0,0.0
20.0,36.0,66.0,0.0
20.0,39.0,67.0,0.0
20.0,40.0,67.0,0.0
20.0,42.0,69.0,0.0
21.0,43.0,70.0,0.0
20.0,43.0,69.0,0.0
22.0,46.0,71.0,0.0
23.0,50.0,75.0,0.0
23.0,54.0,78.0,0.0
24.0,56.0,81.0,0.0
23.0,57.0,79.0,0.0
25.0,60.0,81.0,0.0
26.0,64.0,85.0,0.0
25.0,66.0,86.0,0.0
26.0,70.0,89.0,0.0
28.0,74.0,91.0,0.0
28.0,79.0,95.0,0.0
29.0,85.0,100.0,0.0
28.0,81.0,94.0,0.0
30.0,88.0,100.0,0.0
29.0,88.0,98.0,0.0
31.0,96.0,105.0,0.0
30.0,96.0,101.0,0.0
31.0,104.0,108.0,0.0
32.0,107.0,109.0,0.0
33.0,110.0,110.0,0.0
32.0,110.0,107.0,0.0
33.0,117.0,112.0,0.0
33.0,120.0,112.0,0.0
32.0,120.0,111.0,0.0
34.0,129.0,115.0,0.0
52.0,-280.0,77.0,0.0
52.0,-272.0,78.0,0.0
54.0,-279.0,83.0,0.0
54.0,-274.0,84.0,0.0
56.0,-278.0,89.0,0.0
57.0,-279.0,93.0,0.0
57.0,-271.0,93.0,0.0
59.0,-283.0,101.0,0.0
60.0,-279.0,102.0,0.0
61.0,-279.0,106.0,0.0
61.0,-278.0,109.0,0.0
62.0,-274.0,111.0,0.0
64.0,-278.0,116.0,0.0
65.0,-275.0,119.0,0.0
66.0,-278.0,123.0,0.0
67.0,-275.0,126.0,0.0
67.0,-273.0,128.0,0.0
69.0,-275.0,133.0,0.0
69.0,-272.0,136.0,0.0
70.0,-270.0,138.0,0.0
70.0,-264.0,139.0,0.0
68.0,-253.0,137.0,0.0
70.0,-259.0,143.0,0.0
73.0,-263.0,150.0,0.0
74.0,-262.0,152.0,0.0
72.0,-253.0,151.0,0.0
72.0,-248.0,152.0,0.0
67.0,-226.0,142.0,0.0
64.0,-215.0,139.0,0.0
64.0,-208.0,137.0,0.0
59.0,-191.0,128.0,0.0
56.0,-178.0,124.0,0.0
60.0,-187.0,132.0,0.0
56.0,-170.0,123.0,0.0
50.0,-153.0,114.0,0.0
48.0,-142.0,107.0,0.0
48.0,-142.0,109.0,0.0
49.0,-140.0,112.0,0.0
41.0,-117.0,96.0,0.0
38.0,-106.0,88.0,0.0
38.0,-104.0,89.0,0.0
35.0,-95.0,82.0,0.0
35.0,-94.0,83.0,0.0
37.0,-96.0,88.0,0.0
34.0,-87.0,82.0,0.0
664.0,-1656.0,1578.0,0.0
652.0,-1599.0,1558.0,0.0
657.0,-1582.0,1577.0,0.0
673.0,-1592.0,1623.0,0.0
661.0,-1537.0,1603.0,0.0
684.0,-1564.0,1669.0,0.0
664.0,-1490.0,1626.0,0.0
683.0,-1506.0,1682.0,0.0
11451.0,-24766.0,28277.0,1.0
683.0,-1451.0,1696.0,0.0
688.0,-1435.0,1716.0,0.0
696.0,-1426.0,1744.0,0.0
671.0,-1348.0,1688.0,0.0
672.0,-1326.0,1700.0,0.0
697.0,-1347.0,1767.0,0.0
694.0,-1315.0,1769.0,0.0
0.0,0.0,0.0,0.0
686.0,-1249.0,1762.0,0.0
709.0,-1266.0,1828.0,0.0
685.0,-1199.0,1773.0,0.0
711.0,-1217.0,1846.0,0.0
696.0,-1169.0,1817.0,0.0
716.0,-1177.0,1877.0,0.0
716.0,-1150.0,1881.0,0.0
717.0,-1125.0,1889.0,0.0
708.0,-1087.0,1873.0,0.0
716.0,-1075.0,1903.0,0.0
0.0,0.0,0.0,0.0
729.0,-1043.0,1950.0,0.0
0.0,0.0,0.0,0.0
702.0,-956.0,1891.0,0.0
718.0,-954.0,1941.0,0.0
706.0,-913.0,1912.0,0.0
712.0,-898.0,1935.0,0.0
0.0,0.0,0.0,0.0
711.0,-848.0,1946.0,0.0
726.0,-840.0,1991.0,0.0
722.0,-813.0,1988.0,0.0
12415.0,-13546.0,34228.0,1.0
729.0,-772.0,2019.0,0.0
0.0,0.0,0.0,0.0
745.0,-739.0,2075.0,0.0
0.0,0.0,0.0,0.0
12328.0,-11402.0,34481.0,1.0
0.0,0.0,0.0,0.0
0.0,0.0,0.0,0.0
743.0,-613.0,2097.0,0.0
724.0,-573.0,2048.0,0.0
730.0,-554.0,2071.0,0.0
745.0,-541.0,2119.0,0.0
720.0,-499.0,2055.0,0.0
750.0,-495.0,2145.0,0.0
730.0,-459.0,2093.0,0.0
725.0,-431.0,2083.0,0.0
750.0,-422.0,2161.0,0.0
11482.0,-6074.0,33151.0,1.0
729.0,-362.0,2113.0,0.0
717.0,-332.0,2084.0,0.0
721.0,-310.0,2100.0,0.0
720.0,-286.0,2103.0,0.0
725.0,-264.0,2122.0,0.0
717.0,-237.0,2102.0,0.0
728.0,-216.0,2141.0,0.0
707.0,-186.0,2084.0,0.0
718.0,-165.0,2123.0,0.0
710.0,-139.0,2101.0,0.0
7948.0,-1289.0,23563.0,0.0
7402.0,-950.0,21996.0,0.0
10.0,-1.0,31.0,0.0
5.0,0.0,17.0,0.0
11.0,0.0,34.0,0.0
14.0,0.0,43.0,0.0
15.0,0.0,46.0,0.0
15.0,0.0,48.0,0.0
15.0,1.0,48.0,0.0
17.0,2.0,54.0,0.0
21.0,3.0,67.0,0.0
18.0,3.0,57.0,0.0
16.0,3.0,52.0,0.0
20.0,5.0,61.0,0.0
22.0,7.0,72.0,0.0
22.0,8.0,72.0,0.0
24.0,9.0,75.0,0.0
25.0,11.0,79.0,0.0
24.0,11.0,75.0,0.0
30.0,15.0,93.0,0.0
22.0,12.0,73.0,0.0
26.0,15.0,83.0,0.0
28.0,17.0,90.0,0.0
26.0,17.0,86.0,0.0
28.0,19.0,88.0,0.0
31.0,22.0,100.0,0.0
33.0,25.0,105.0,0.0
30.0,25.0,98.0,0.0
34.0,29.0,111.0,0.0
30.0,28.0,99.0,0.0
30.0,29.0,99.0,0.0
34.0,33.0,109.0,0.0
31.0,32.0,101.0,0.0
33.0,36.0,109.0,0.0
32.0,36.0,105.0,0.0
34.0,39.0,110.0,0.0
29.0,35.0,96.0,0.0
30.0,38.0,101.0,0.0
29.0,38.0,96.0,0.0
30.0,40.0,100.0,0.0
29.0,40.0,97.0,0.0
30.0,43.0,99.0,0.0
29.0,43.0,96.0,0.0
28.0,42.0,92.0,0.0
29.0,46.0,97.0,0.0
27.0,43.0,89.0,0.0
28.0,48.0,97.0,0.0
26.0,45.0,87.0,0.0
26.0,47.0,87.0,0.0
23.0,42.0,77.0,0.0
26.0,48.0,86.0,0.0
23.0,46.0,81.0,0.0
23.0,47.0,81.0,0.0
25.0,50.0,84.0,0.0
22.0,47.0,76.0,0.0
26.0,57.0,89.0,0.0
25.0,55.0,83.0,0.0
25.0,56.0,84.0,0.0
26.0,62.0,91.0,0.0
27.0,66.0,94.0,0.0
26.0,65.0,92.0,0.0
26.0,66.0,91.0,0.0
25.0,66.0,89.0,0.0
26.0,70.0,91.0,0.0
27.0,75.0,94.0,0.0
29.0,81.0,101.0,0.0
28.0,82.0,100.0,0.0
28.0,85.0,101.0,0.0
28.0,84.0,98.0,0.0
31.0,95.0,109.0,0.0
28.0,92.0,102.0,0.0
30.0,95.0,105.0,0.0
31.0,104.0,111.0,0.0
30.0,103.0,108.0,0.0
33.0,115.0,118.0,0.0
33.0,115.0,116.0,0.0
32.0,115.0,113.0,0.0
32.0,118.0,113.0,0.0
32.0,121.0,113.0,0.0
32.0,125.0,115.0,0.0
32.0,132.0,118.0,0.0
49.0,-277.0,76.0,0.0
47.0,-260.0,75.0,0.0
49.0,-264.0,79.0,0.0
49.0,-262.0,81.0,0.0
51.0,-267.0,86.0,0.0
53.0,-268.0,90.0,0.0
54.0,-275.0,95.0,0.0
54.0,-267.0,96.0,0.0
54.0,-263.0,97.0,0.0
55.0,-263.0,101.0,0.0
57.0,-266.0,105.0,0.0
57.0,-263.0,107.0,0.0
59.0,-267.0,113.0,0.0
59.0,-264.0,115.0,0.0
62.0,-269.0,120.0,0.0
62.0,-264.0,122.0,0.0
61.0,-260.0,123.0,0.0
64.0,-264.0,128.0,0.0
64.0,-261.0,131.0,0.0
65.0,-264.0,135.0,0.0
63.0,-250.0,132.0,0.0
63.0,-245.0,133.0,0.0
68.0,-260.0,145.0,0.0
67.0,-253.0,144.0,0.0
68.0,-251.0,148.0,0.0
65.0,-238.0,143.0,0.0
60.0,-216.0,133.0,0.0
60.0,-213.0,134.0,0.0
56.0,-197.0,127.0,0.0
56.0,-194.0,129.0,0.0
55.0,-185.0,126.0,0.0
52.0,-174.0,121.0,0.0
52.0,-168.0,120.0,0.0
46.0,-147.0,108.0,0.0
47.0,-149.0,111.0,0.0
47.0,-145.0,110.0,0.0
39.0,-121.0,94.0,0.0
41.0,-121.0,97.0,0.0
39.0,-117.0,95.0,0.0
34.0,-101.0,85.0,0.0
34.0,-99.0,85.0,0.0
29.0,-83.0,74.0,0.0
29.0,-81.0,73.0,0.0
23.0,-64.0,59.0,0.0
33.0,-89.0,83.0,0.0
29.0,-76.0,73.0,0.0
643.0,-1634.0,1600.0,0.0
642.0,-1605.0,1606.0,0.0
647.0,-1588.0,1624.0,0.0
10664.0,-25694.0,26883.0,1.0
652.0,-1544.0,1651.0,0.0
10872.0,-25278.0,27669.0,1.0
649.0,-1483.0,1662.0,0.0
637.0,-1429.0,1636.0,0.0
653.0,-1439.0,1687.0,0.0
642.0,-1389.0,1666.0,0.0
644.0,-1367.0,1679.0,0.0
657.0,-1368.0,1717.0,0.0
675.0,-1379.0,1773.0,0.0
651.0,-1304.0,1717.0,0.0
669.0,-1315.0,1773.0,0.0
660.0,-1271.0,1754.0,0.0
670.0,-1264.0,1787.0,0.0
671.0,-1241.0,1798.0,0.0
673.0,-1220.0,1810.0,0.0
687.0,-1220.0,1854.0,0.0
662.0,-1150.0,1794.0,0.0
686.0,-1167.0,1866.0,0.0
682.0,-1136.0,1863.0,0.0
680.0,-1106.0,1861.0,0.0
679.0,-1080.0,1865.0,0.0
12577.0,-19534.0,34637.0,1.0
696.0,-1056.0,1926.0,0.0
0.0,0.0,0.0,0.0
704.0,-1018.0,1961.0,0.0
693.0,-978.0,1936.0,0.0
678.0,-933.0,1901.0,0.0
703.0,-941.0,1976.0,0.0
692.0,-903.0,1952.0,0.0
680.0,-863.0,1923.0,0.0
0.0,0.0,0.0,0.0
699.0,-839.0,1990.0,0.0
693.0,-808.0,1979.0,0.0
690.0,-779.0,1975.0,0.0
721.0,-790.0,2070.0,0.0
691.0,-734.0,1991.0,0.0
688.0,-707.0,1989.0,0.0
687.0,-681.0,1989.0,0.0
693.0,-664.0,2014.0,0.0
699.0,-645.0,2034.0,0.0
699.0,-622.0,2041.0,0.0
693.0,-592.0,2028.0,0.0
694.0,-570.0,2036.0,0.0
707.0,-558.0,2083.0,0.0
721.0,-543.0,2127.0,0.0
711.0,-511.0,2102.0,0.0
715.0,-489.0,2120.0,0.0
11365.0,-7401.0,33768.0,1.0
710.0,-439.0,2117.0,0.0
709.0,-414.0,2119.0,0.0
700.0,-384.0,2097.0,0.0
697.0,-359.0,2093.0,0.0
701.0,-338.0,2112.0,0.0
687.0,-307.0,2076.0,0.0
691.0,-285.0,2092.0,0.0
687.0,-260.0,2086.0,0.0
696.0,-239.0,2115.0,0.0
696.0,-215.0,2120.0,0.0
695.0,-190.0,2123.0,0.0
690.0,-165.0,2115.0,0.0
689.0,-141.0,2117.0,0.0
7685.0,-1306.0,23629.0,0.0
7.0,-1.0,23.0,0.0
3.0,-1.0,14.0,0.0
3.0,0.0,12.0,0.0
9.0,0.0,30.0,0.0
2.0,0.0,7.0,0.0
8.0,0.0,27.0,0.0
9.0,0.0,32.0,0.0
5.0,0.0,18.0,0.0
17.0,2.0,54.0,0.0
9.0,1.0,32.0,0.0
12.0,2.0,38.0,0.0
17.0,4.0,54.0,0.0
17.0,4.0,54.0,0.0
14.0,4.0,48.0,0.0
13.0,5.0,46.0,0.0
18.0,6.0,61.0,0.0
18.0,7.0,61.0,0.0
18.0,9.0,60.0,0.0
25.0,12.0,84.0,0.0
23.0,13.0,78.0,0.0
22.0,12.0,71.0,0.0
23.0,14.0,76.0,0.0
23.0,16.0,78.0,0.0
23.0,17.0,75.0,0.0
22.0,17.0,74.0,0.0
22.0,17.0,73.0,0.0
25.0,21.0,86.0,0.0
24.0,21.0,81.0,0.0
28.0,26.0,94.0,0.0
29.0,28.0,96.0,0.0
24.0,25.0,84.0,0.0
28.0,29.0,93.0,0.0
27.0,29.0,90.0,0.0
24.0,28.0,84.0,0.0
26.0,32.0,89.0,0.0
29.0,36.0,99.0,0.0
25.0,32.0,87.0,0.0
23.0,30.0,78.0,0.0
23.0,31.0,79.0,0.0
24.0,35.0,84.0,0.0
22.0,33.0,77.0,0.0
23.0,36.0,81.0,0.0
22.0,35.0,77.0,0.0
22.0,36.0,77.0,0.0
18.0,32.0,66.0,0.0
22.0,39.0,79.0,0.0
22.0,39.0,78.0,0.0
21.0,40.0,76.0,0.0
18.0,36.0,66.0,0.0
21.0,42.0,76.0,0.0
21.0,42.0,75.0,0.0
21.0,43.0,74.0,0.0
19.0,41.0,68.0,0.0
20.0,43.0,70.0,0.0
19.0,42.0,66.0,0.0
21.0,47.0,74.0,0.0
21.0,52.0,78.0,0.0
22.0,54.0,81.0,0.0
20.0,51.0,73.0,0.0
22.0,58.0,82.0,0.0
24.0,64.0,88.0,0.0
24.0,64.0,87.0,0.0
23.0,65.0,85.0,0.0
24.0,68.0,88.0,0.0
24.0,70.0,88.0,0.0
25.0,75.0,92.0,0.0
25.0,79.0,95.0,0.0
25.0,79.0,93.0,0.0
27.0,85.0,98.0,0.0
27.0,89.0,100.0,0.0
27.0,93.0,103.0,0.0
26.0,90.0,96.0,0.0
28.0,101.0,106.0,0.0
27.0,102.0,105.0,0.0
29.0,108.0,109.0,0.0
29.0,108.0,107.0,0.0
29.0,115.0,111.0,0.0
29.0,118.0,112.0,0.0
29.0,122.0,113.0,0.0
29.0,125.0,112.0,0.0
46.0,-272.0,76.0,0.0
45.0,-266.0,78.0,0.0
48.0,-274.0,82.0,0.0
48.0,-268.0,84.0,0.0
49.0,-271.0,88.0,0.0
51.0,-273.0,92.0,0.0
51.0,-273.0,96.0,0.0
53.0,-278.0,100.0,0.0
53.0,-272.0,102.0,0.0
55.0,-275.0,106.0,0.0
56.0,-272.0,108.0,0.0
57.0,-277.0,113.0,0.0
58.0,-273.0,116.0,0.0
58.0,-268.0,117.0,0.0
60.0,-275.0,123.0,0.0
60.0,-269.0,124.0,0.0
62.0,-274.0,131.0,0.0
62.0,-269.0,132.0,0.0
62.0,-266.0,134.0,0.0
62.0,-262.0,135.0,0.0
62.0,-255.0,135.0,0.0
65.0,-264.0,144.0,0.0
68.0,-270.0,151.0,0.0
66.0,-260.0,149.0,0.0
65.0,-253.0,149.0,0.0
64.0,-241.0,146.0,0.0
64.0,-238.0,146.0,0.0
59.0,-217.0,137.0,0.0
56.0,-205.0,133.0,0.0
54.0,-192.0,128.0,0.0
51.0,-181.0,123.0,0.0
49.0,-169.0,118.0,0.0
45.0,-155.0,111.0,0.0
45.0,-153.0,112.0,0.0
45.0,-149.0,112.0,0.0
43.0,-138.0,105.0,0.0
41.0,-131.0,102.0,0.0
46.0,-144.0,115.0,0.0
37.0,-115.0,94.0,0.0
34.0,-104.0,87.0,0.0
35.0,-106.0,90.0,0.0
33.0,-97.0,85.0,0.0
35.0,-101.0,91.0,0.0
40.0,-113.0,103.0,0.0
35.0,-99.0,94.0,0.0
33.0,-89.0,86.0,0.0
626.0,-1654.0,1624.0,0.0
613.0,-1588.0,1595.0,0.0
620.0,-1581.0,1623.0,0.0
622.0,-1559.0,1636.0,0.0
636.0,-1564.0,1680.0,0.0
10494.0,-25337.0,27821.0,1.0
630.0,-1495.0,1679.0,0.0
641.0,-1493.0,1716.0,0.0
635.0,-1453.0,1708.0,0.0
624.0,-1400.0,1684.0,0.0
0.0,0.0,0.0,0.0
649.0,-1402.0,1766.0,0.0
639.0,-1356.0,1749.0,0.0
652.0,-1356.0,1790.0,0.0
649.0,-1324.0,1790.0,0.0
637.0,-1273.0,1761.0,0.0
640.0,-1254.0,1778.0,0.0
641.0,-1230.0,1785.0,0.0
640.0,-1204.0,1790.0,0.0
644.0,-1187.0,1810.0,0.0
664.0,-1197.0,1871.0,0.0
661.0,-1167.0,1870.0,0.0
649.0,-1121.0,1843.0,0.0
653.0,-1102.0,1858.0,0.0
650.0,-1072.0,1857.0,0.0
657.0,-1059.0,1883.0,0.0
0.0,0.0,0.0,0.0
659.0,-1012.0,1900.0,0.0
653.0,-978.0,1888.0,0.0
0.0,0.0,0.0,0.0
675.0,-963.0,1965.0,0.0
677.0,-939.0,1975.0,0.0
684.0,-925.0,2003.0,0.0
11854.0,-15598.0,34790.0,1.0
643.0,-823.0,1896.0,0.0
687.0,-854.0,2031.0,0.0
661.0,-799.0,1961.0,0.0
11732.0,-13747.0,34839.0,1.0
0.0,0.0,0.0,0.0
679.0,-748.0,2030.0,0.0
663.0,-705.0,1987.0,0.0
11595.0,-11933.0,34824.0,1.0
676.0,-672.0,2039.0,0.0
677.0,-649.0,2046.0,0.0
663.0,-612.0,2008.0,0.0
685.0,-607.0,2081.0,0.0
671.0,-572.0,2045.0,0.0
676.0,-552.0,2065.0,0.0
669.0,-522.0,2049.0,0.0
11090.0,-8278.0,34029.0,1.0
681.0,-484.0,2097.0,0.0
10940.0,-7396.0,33740.0,1.0
661.0,-425.0,2047.0,0.0
691.0,-418.0,2144.0,0.0
674.0,-385.0,2100.0,0.0
666.0,-357.0,2079.0,0.0
691.0,-345.0,2161.0,0.0
676.0,-315.0,2119.0,0.0
686.0,-294.0,2155.0,0.0
693.0,-273.0,2185.0,0.0
692.0,-247.0,2186.0,0.0
679.0,-219.0,2149.0,0.0
662.0,-189.0,2099.0,0.0
667.0,-167.0,2121.0,0.0
672.0,-144.0,2142.0,0.0
7414.0,-1320.0,23665.0,0.0
9.0,-1.0,31.0,0.0
5.0,0.0,21.0,0.0
10.0,0.0,36.0,0.0
4.0,0.0,15.0,0.0
4.0,0.0,17.0,0.0
8.0,0.0,28.0,0.0
16.0,0.0,56.0,0.0
13.0,1.0,45.0,0.0
12.0,1.0,44.0,0.0
14.0,2.0,48.0,0.0
15.0,3.0,50.0,0.0
14.0,3.0,47.0,0.0
15.0,4.0,50.0,0.0
15.0,5.0,51.0,0.0
17.0,6.0,61.0,0.0
18.0,8.0,65.0,0.0
20.0,9.0,69.0,0.0
25.0,13.0,89.0,0.0
23.0,12.0,80.0,0.0
27.0,15.0,91.0,0.0
25.0,15.0,86.0,0.0
24.0,16.0,84.0,0.0
25.0,18.0,88.0,0.0
28.0,20.0,95.0,0.0
21.0,17.0,75.0,0.0
26.0,22.0,89.0,0.0
25.0,22.0,88.0,0.0
29.0,27.0,103.0,0.0
26.0,25.0,90.0,0.0
29.0,29.0,102.0,0.0
30.0,31.0,105.0,0.0
27.0,29.0,94.0,0.0
27.0,31.0,95.0,0.0
27.0,32.0,97.0,0.0
29.0,36.0,105.0,0.0
27.0,34.0,96.0,0.0
26.0,35.0,93.0,0.0
24.0,33.0,87.0,0.0
25.0,35.0,87.0,0.0
