//X,Y,Z,Classification
-5833,15512,19001,0.0
-5842,15171,19003,0.0
-5859,14859,19036,0.0
-9709,24037,31501,0.0
-9401,22720,30462,0.0
-7208,17004,23328,0.0
-7236,16655,23386,0.0
-7222,16218,23311,0.0
-7237,15849,23326,0.0
-7239,15459,23301,0.0
-7212,15014,23182,0.0
-7200,14608,23112,0.0
-7184,14203,23032,0.0
-7278,14014,23299,0.0
0,0,0,0.0
0,0,0,0.0
-10533,18703,33582,0.0
-10531,18183,33523,0.0
-10507,17638,33403,0.0
0,0,0,0.0
-10470,16590,33191,0.0
-10437,16053,33037,0.0
-9502,14181,30037,0.0
-9497,13743,29975,0.0
-9657,13543,30436,0.0
-9759,13255,30714,0.0
-9786,12864,30754,0.0
-10306,13102,32338,0.0
-10337,12699,32386,0.0
-10316,12236,32272,0.0
-7001,8010,21868,0.0
-7031,7752,21928,0.0
-7017,7448,21851,0.0
-6995,7141,21750,0.0
-6988,6851,21693,0.0
-6977,6560,21624,0.0
-6967,6274,21556,0.0
-6948,5984,21466,0.0
-6951,5716,21440,0.0
-6944,5441,21383,0.0
-6936,5169,21325,0.0
-6914,4890,21220,0.0
-6911,4626,21176,0.0
-6906,4363,21122,0.0
-6871,4085,20982,0.0
-6889,3841,21003,0.0
-6884,3585,20949,0.0
-6872,3328,20876,0.0
-6869,3077,20831,0.0
-6856,2824,20754,0.0
-6857,2579,20721,0.0
-6850,2332,20660,0.0
-6809,2076,20498,0.0
-6841,1844,20557,0.0
-6846,1606,20534,0.0
-6839,1365,20475,0.0
-6825,1125,20394,0.0
-6821,889,20343,0.0
-6815,653,20287,0.0
-6847,422,20342,0.0
-7148,196,21196,0.0
-7378,-48,21834,0.0
-7744,-313,22870,0.0
-14040,-1042,41377,0.0
-14006,-1512,41192,0.0
0,0,0,0.0
-14029,-2455,41087,0.0
0,0,0,0.0
0,0,0,0.0
-13959,-3837,40620,0.0
-14014,-4317,40693,0.0
-14007,-4778,40581,0.0
-14005,-5240,40487,0.0
-14003,-5701,40388,0.0
-13988,-6156,40253,0.0
-13942,-6595,40027,0.0
-13991,-7077,40074,0.0
-7113,-3831,20325,0.0
-7117,-4067,20289,0.0
-7115,-4299,20235,0.0
-7101,-4524,20145,0.0
-7106,-4759,20109,0.0
-7107,-4993,20062,0.0
-7108,-5225,20015,0.0
-7103,-5455,19949,0.0
-7091,-5678,19863,0.0
-7117,-5933,19885,0.0
-7097,-6149,19774,0.0
-7102,-6387,19737,0.0
-7088,-6607,19643,0.0
-7097,-6849,19611,0.0
-7098,-7085,19560,0.0
-7104,-7325,19521,0.0
-7093,-7549,19436,0.0
-7096,-7789,19387,0.0
-7093,-8021,19321,0.0
-7112,-8280,19315,0.0
-7114,-8520,19262,0.0
-7098,-8740,19161,0.0
-7116,-9000,19146,0.0
-7110,-9233,19069,0.0
-7105,-9467,18996,0.0
-7125,-9736,18985,0.0
-7097,-9939,18849,0.0
-7136,-10240,18890,0.0
-7109,-10443,18750,0.0
-7143,-10740,18774,0.0
-7128,-10965,18670,0.0
-7131,-11220,18612,0.0
-7135,-11474,18551,0.0
-7135,-11726,18484,0.0
-7152,-12007,18458,0.0
-7152,-12262,18388,0.0
-7143,-12502,18292,0.0
-13573,-24243,34620,0.0
-13442,-24497,34149,0.0
-13342,-24801,33754,0.0
-13221,-25061,33307,0.0
-7773,-15022,19501,0.0
-7599,-14968,18980,0.0
-7386,-14824,18366,0.0
-7216,-14755,17861,0.0
-7089,-14769,17470,0.0
-6943,-14729,17029,0.0
-6870,-14837,16767,0.0
-6904,-15183,16771,0.0
-6941,-15536,16777,0.0
-6949,-15829,16710,0.0
-6947,-16101,16619,0.0
-6914,-16305,16453,0.0
-6937,-16642,16419,0.0
-6950,-16958,16358,0.0
-6952,-17252,16270,0.0
-6955,-17552,16184,0.0
-6969,-17882,16122,0.0
-6976,-18198,16039,0.0
-6980,-18511,15951,0.0
-6990,-18845,15874,0.0
-6999,-19178,15791,0.0
-7003,-19505,15698,0.0
-7021,-19872,15630,0.0
-7020,-20191,15520,0.0
-7046,-20594,15467,0.0
-7061,-20969,15387,0.0
-7068,-21326,15287,0.0
-7077,-21697,15190,0.0
-7085,-22068,15088,0.0
-7021,-22213,14829,0.0
-601,-1933,1260,0.0
-623,-2038,1296,0.0
-608,-2020,1253,0.0
-591,-1993,1207,0.0
-600,-2055,1213,0.0
-584,-2034,1171,0.0
-597,-2113,1186,0.0
-582,-2091,1144,0.0
-572,-2090,1113,0.0
-565,-2095,1086,0.0
-47,-178,89,0.0
-48,-187,92,0.0
-44,-171,82,0.0
-50,-201,93,0.0
-52,-213,96,0.0
-57,-236,103,0.0
-59,-248,105,0.0
-58,-249,102,0.0
-62,-272,108,0.0
-70,-306,119,0.0
-71,-319,119,0.0
-72,-327,118,0.0
-72,-331,116,0.0
-72,-335,113,0.0
-69,-330,108,0.0
-68,-327,102,0.0
-67,-330,100,0.0
-67,-335,97,0.0
-66,-338,94,0.0
-64,-333,89,0.0
-3356,16606,15409,0.0
-3431,16550,15689,0.0
-3507,16485,15967,0.0
-3585,16427,16255,0.0
-3663,16361,16541,0.0
-3740,16287,16823,0.0
-3804,16149,17044,0.0
-3890,16104,17367,0.0
-3919,15817,17430,0.0
-3930,15464,17416,0.0
-4144,15894,18295,0.0
-4246,15875,18677,0.0
-4338,15815,19020,0.0
-4426,15727,19338,0.0
-4494,15567,19571,0.0
-4577,15453,19865,0.0
-4536,14929,19628,0.0
-4668,14969,20134,0.0
-4684,14634,20137,0.0
-5011,15254,21477,0.0
-5116,15172,21864,0.0
-5225,15091,22263,0.0
-5341,15020,22689,0.0
-5453,14927,23094,0.0
-5565,14828,23502,0.0
-5681,14731,23925,0.0
-5795,14618,24336,0.0
-5918,14517,24782,0.0
-5935,14157,24787,0.0
-5923,13732,24670,0.0
-6313,14221,26224,0.0
-6450,14110,26720,0.0
-6587,13991,27217,0.0
-6716,13844,27681,0.0
-8023,16042,32981,0.0
-6979,13528,28613,0.0
-7412,13926,30317,0.0
-7466,13583,30458,0.0
-7624,13426,31026,0.0
-7793,13276,31639,0.0
-7894,13000,31971,0.0
-8017,12752,32386,0.0
-8022,12315,32330,0.0
-7987,11824,32110,0.0
-8003,11417,32102,0.0
-8006,10993,32035,0.0
-6200,8187,24755,0.0
-6248,7923,24884,0.0
-6240,7592,24796,0.0
-6240,7273,24741,0.0
-6228,6944,24633,0.0
-6228,6633,24581,0.0
-6213,6310,24465,0.0
-6208,6000,24389,0.0
-6209,5699,24339,0.0
-6196,5389,24235,0.0
-6192,5090,24163,0.0
-6190,4795,24100,0.0
-6184,4499,24022,0.0
-6179,4209,23950,0.0
-6168,3917,23857,0.0
-6163,3631,23783,0.0
-6162,3351,23727,0.0
-5881,2932,22594,0.0
-5983,2715,22937,0.0
-5936,2428,22705,0.0
-5898,2152,22513,0.0
-5988,1921,22805,0.0
-6112,1695,23229,0.0
-6113,1429,23177,0.0
-6111,1164,23119,0.0
-6108,901,23060,0.0
-6102,638,22986,0.0
-6090,378,22892,0.0
-6090,120,22838,0.0
-6032,-136,22572,0.0
-6071,-392,22666,0.0
-6021,-641,22430,0.0
-5895,-874,21915,0.0
-5888,-1118,21842,0.0
-5788,-1339,21419,0.0
-6053,-1651,22352,0.0
-6059,-1903,22323,0.0
-6058,-2152,22267,0.0
-6042,-2394,22160,0.0
-6041,-2641,22104,0.0
-6044,-2891,22069,0.0
-6033,-3131,21977,0.0
-6034,-3378,21931,0.0
-5179,-3110,18782,0.0
-5270,-3380,19068,0.0
-5263,-3590,18996,0.0
-5240,-3787,18871,0.0
-5247,-4006,18851,0.0
-5290,-4253,18961,0.0
-5301,-4478,18956,0.0
-5302,-4694,18913,0.0
-5303,-4911,18873,0.0
-5332,-5154,18931,0.0
-5323,-5362,18852,0.0
-5327,-5585,18821,0.0
-5329,-5804,18780,0.0
-5327,-6021,18728,0.0
-5323,-6234,18665,0.0
-5256,-6371,18385,0.0
-5324,-6674,18576,0.0
-5313,-6880,18489,0.0
-5313,-7100,18443,0.0
-5324,-7335,18431,0.0
-5318,-7550,18363,0.0
-5312,-7764,18294,0.0
-5320,-7999,18273,0.0
-5323,-8228,18235,0.0
-5327,-8460,18197,0.0
-5323,-8679,18132,0.0
-5327,-8914,18095,0.0
-5323,-9136,18032,0.0
-5305,-9334,17919,0.0
-5320,-9591,17918,0.0
-5329,-9839,17895,0.0
-5326,-10068,17833,0.0
-5327,-10306,17785,0.0
-5330,-10548,17740,0.0
-5299,-10722,17581,0.0
-5323,-11012,17608,0.0
-6015,-12716,19834,0.0
-6017,-12996,19779,0.0
-6023,-13287,19736,0.0
-6021,-13561,19664,0.0
-6020,-13841,19597,0.0
-5782,-13565,18756,0.0
-5848,-13999,18907,0.0
-5871,-14335,18915,0.0
-5695,-14182,18285,0.0
-6038,-15330,19315,0.0
-6051,-15662,19289,0.0
-6055,-15974,19230,0.0
-6062,-16298,19178,0.0
-6056,-16592,19091,0.0
-6063,-16923,19037,0.0
-6072,-17263,18989,0.0
-6075,-17592,18924,0.0
-6082,-17937,18870,0.0
-6085,-18273,18800,0.0
-6089,-18614,18730,0.0
-6092,-18962,18660,0.0
-6095,-19313,18588,0.0
-6106,-19693,18538,0.0
-25,-84,78,0.0
-27,-96,86,0.0
-22,-79,69,0.0
-27,-99,85,0.0
-23,-85,71,0.0
-24,-87,72,0.0
-22,-82,66,0.0
-6136,-22754,17904,0.0
-23,-89,69,0.0
-28,-110,83,0.0
-25,-102,75,0.0
-22,-91,65,0.0
-468,-1895,1328,0.0
-471,-1939,1328,0.0
-465,-1947,1302,0.0
-467,-1993,1302,0.0
-463,-2009,1281,0.0
-457,-2017,1256,0.0
-454,-2042,1240,0.0
-452,-2069,1226,0.0
-443,-2057,1189,0.0
-27,-129,72,0.0
-29,-143,78,0.0
-31,-159,85,0.0
-31,-161,84,0.0
-32,-169,86,0.0
-31,-169,83,0.0
-34,-183,88,0.0
-37,-203,95,0.0
-41,-223,101,0.0
-40,-227,100,0.0
-41,-234,100,0.0
-42,-247,102,0.0
-45,-274,110,0.0
-47,-282,110,0.0
-51,-315,119,0.0
-53,-330,120,0.0
-50,-327,115,0.0
-50,-332,113,0.0
-48,-328,108,0.0
-48,-332,105,0.0
-47,-333,101,0.0
-47,-337,99,0.0
-45,-332,93,0.0
-6175,40020,37698,0.0
-5390,33928,32649,0.0
-2994,18308,17998,0.0
-3053,18137,18216,0.0
-3025,17465,17920,0.0
-3205,17984,18853,0.0
-3268,17828,19095,0.0
-3259,17280,18911,0.0
-2959,15255,17060,0.0
-3388,16986,19414,0.0
-3168,15444,18039,0.0
-3192,15137,18071,0.0
-3417,15755,19227,0.0
-3489,15649,19525,0.0
-3576,15601,19901,0.0
-3629,15397,20086,0.0
-3735,15415,20567,0.0
-3805,15273,20844,0.0
-3792,14800,20666,0.0
-3824,14511,20733,0.0
-4096,15114,22103,0.0
-4189,15028,22498,0.0
-4293,14968,22947,0.0
-4383,14854,23323,0.0
-4479,14752,23729,0.0
-4586,14673,24187,0.0
-4682,14554,24592,0.0
-4785,14440,25022,0.0
-4886,14318,25447,0.0
-4860,13823,25210,0.0
-4969,13710,25668,0.0
-5002,13387,25736,0.0
-5360,13911,27478,0.0
-5494,13819,28056,0.0
-5590,13621,28439,0.0
-5742,13549,29105,0.0
-5795,13234,29266,0.0
-5949,13142,29937,0.0
-6012,12841,30149,0.0
-6330,13065,31637,0.0
-6450,12853,32124,0.0
-6498,12495,32254,0.0
-6519,12085,32251,0.0
-6528,11658,32190,0.0
-4858,8350,23876,0.0
-4957,8194,24288,0.0
-5101,8098,24912,0.0
-5093,7758,24795,0.0
-5105,7452,24776,0.0
-5096,7121,24659,0.0
-5102,6813,24618,0.0
-5091,6485,24486,0.0
-5092,6180,24424,0.0
-5089,5871,24333,0.0
-5100,5583,24322,0.0
-5086,5269,24184,0.0
-5094,4983,24156,0.0
-5088,4686,24061,0.0
-5087,4396,23991,0.0
-5084,4107,23909,0.0
-5083,3822,23835,0.0
-5080,3540,23764,0.0
-5073,3257,23669,0.0
-4863,2857,22626,0.0
-5064,2702,23498,0.0
-4913,2358,22741,0.0
-4880,2083,22527,0.0
-4907,1836,22596,0.0
-5057,1627,23226,0.0
-5057,1363,23169,0.0
-5054,1101,23097,0.0
-5047,840,23011,0.0
-5047,581,22953,0.0
-5053,325,22924,0.0
-5042,69,22820,0.0
-5034,-184,22729,0.0
-5044,-438,22719,0.0
-5037,-689,22634,0.0
-5029,-938,22540,0.0
-5030,-1189,22491,0.0
-5030,-1437,22443,0.0
-5032,-1685,22396,0.0
-5028,-1931,22324,0.0
-5023,-2176,22254,0.0
-5009,-2415,22136,0.0
-5017,-2664,22122,0.0
-5017,-2908,22066,0.0
-5008,-3146,21977,0.0
-5008,-3390,21928,0.0
-4378,-3176,19127,0.0
-4439,-3436,19350,0.0
-4446,-3657,19332,0.0
-4441,-3868,19267,0.0
-4437,-4080,19208,0.0
-4442,-4300,19184,0.0
-4439,-4513,19128,0.0
-4436,-4724,19072,0.0
-4435,-4938,19024,0.0
-4431,-5150,18964,0.0
-4429,-5363,18910,0.0
-4426,-5574,18852,0.0
-4426,-5793,18814,0.0
-4424,-6007,18761,0.0
-4421,-6221,18706,0.0
-4422,-6440,18667,0.0
-4415,-6648,18592,0.0
-4416,-6870,18556,0.0
-4414,-7086,18503,0.0
-4410,-7301,18446,0.0
-4412,-7524,18406,0.0
-4410,-7746,18360,0.0
-4408,-7966,18307,0.0
-4408,-8189,18262,0.0
-4409,-8418,18224,0.0
-4405,-8637,18165,0.0
-4403,-8862,18114,0.0
-4401,-9088,18063,0.0
-4401,-9317,18016,0.0
-4405,-9562,17995,0.0
-4397,-9776,17914,0.0
-4153,-9457,16879,0.0
-4135,-9640,16765,0.0
-4129,-9850,16699,0.0
-4382,-10694,17676,0.0
-4385,-10946,17647,0.0
-4936,-12596,19813,0.0
-4944,-12894,19792,0.0
-4942,-13172,19736,0.0
-4945,-13464,19697,0.0
-4947,-13754,19649,0.0
-4939,-14024,19568,0.0
-4941,-14323,19525,0.0
-4940,-14614,19465,0.0
-4941,-14921,19421,0.0
-4939,-15217,19359,0.0
-4938,-15521,19302,0.0
-4936,-15820,19234,0.0
-4939,-16146,19194,0.0
-4933,-16446,19117,0.0
-4936,-16778,19072,0.0
-4935,-17099,19010,0.0
-4934,-17430,18952,0.0
-4930,-17749,18876,0.0
-4937,-18113,18842,0.0
-4930,-18435,18759,0.0
-4926,-18772,18685,0.0
-4930,-19145,18640,0.0
-22,-86,82,0.0
-24,-97,90,0.0
-28,-116,106,0.0
-26,-107,95,0.0
-21,-88,78,0.0
-23,-98,83,0.0
-22,-95,79,0.0
-21,-93,77,0.0
-20,-94,75,0.0
-22,-101,79,0.0
-21,-99,75,0.0
-24,-116,86,0.0
-24,-118,86,0.0
-18,-93,66,0.0
-21,-106,73,0.0
-378,-1978,1343,0.0
-373,-1992,1321,0.0
-363,-1974,1278,0.0
-364,-2020,1277,0.0
-354,-2004,1236,0.0
-359,-2067,1244,0.0
-26,-152,88,0.0
-23,-142,82,0.0
-25,-154,86,0.0
-27,-169,92,0.0
-26,-164,86,0.0
-28,-181,93,0.0
-29,-186,94,0.0
-28,-195,95,0.0
-28,-198,94,0.0
-32,-224,104,0.0
-34,-241,108,0.0
-33,-239,105,0.0
-33,-248,105,0.0
-35,-274,112,0.0
-35,-277,110,0.0
-37,-296,114,0.0
-39,-326,121,0.0
-39,-334,120,0.0
-39,-340,118,0.0
-38,-335,113,0.0
-37,-338,110,0.0
-36,-340,106,0.0
-36,-346,105,0.0
-34,-341,99,0.0
-4130,35003,33297,0.0
-4109,33678,32727,0.0
-4159,32965,32724,0.0
-4268,32732,33195,0.0
-4217,31307,32436,0.0
-2506,18016,19069,0.0
-2527,17592,19025,0.0
-2539,17126,18924,0.0
-2550,16669,18822,0.0
-2383,15096,17421,0.0
-2570,15789,18621,0.0
-2587,15407,18572,0.0
-2592,14971,18446,0.0
-3059,17141,21591,0.0
-3093,16810,21650,0.0
-3101,16352,21537,0.0
-3111,15916,21440,0.0
-3128,15529,21397,0.0
-2972,14319,20187,0.0
-3048,14247,20553,0.0
-3158,14320,21145,0.0
-3206,14103,21319,0.0
-4567,19491,30170,0.0
-4682,19383,30731,0.0
-4751,19079,30991,0.0
-5215,20311,33809,0.0
-5227,19741,33686,0.0
-4381,16038,28064,0.0
-4393,15589,27982,0.0
-4397,15122,27854,0.0
-4404,14674,27747,0.0
-4245,13695,26594,0.0
-4253,13285,26505,0.0
-4544,13738,28176,0.0
-4638,13568,28619,0.0
-4840,13691,29713,0.0
-4942,13513,30194,0.0
-5031,13292,30594,0.0
-5219,13317,31594,0.0
-5306,13062,31965,0.0
-5390,12799,32330,0.0
-5393,12341,32205,0.0
-5400,11903,32111,0.0
-5375,11399,31822,0.0
-4046,8251,23858,0.0
-5380,10539,31592,0.0
-4250,7989,24856,0.0
-4252,7662,24771,0.0
-4259,7346,24712,0.0
-4258,7023,24612,0.0
-4265,6716,24561,0.0
-4266,6405,24482,0.0
-4263,6090,24374,0.0
-4272,5797,24336,0.0
-4276,5499,24270,0.0
-4271,5195,24163,0.0
-4275,4903,24100,0.0
-4278,4615,24039,0.0
-4274,4322,23935,0.0
-4278,4041,23881,0.0
-4272,3751,23768,0.0
-4276,3475,23718,0.0
-4273,3195,23625,0.0
-4102,2803,22610,0.0
-4272,2647,23475,0.0
-4197,2336,22991,0.0
-4152,2051,22681,0.0
-4179,1804,22758,0.0
-4274,1582,23209,0.0
-4273,1320,23139,0.0
-4271,1060,23063,0.0
-4272,802,23002,0.0
-4270,545,22928,0.0
-4273,290,22882,0.0
-4274,36,22825,0.0
-4264,-215,22714,0.0
-4267,-466,22667,0.0
-4267,-715,22610,0.0
-4263,-963,22534,0.0
-4263,-1210,22474,0.0
-4263,-1457,22418,0.0
-4263,-1703,22363,0.0
-4260,-1946,22292,0.0
-4257,-2190,22223,0.0
-4260,-2434,22183,0.0
-4253,-2672,22092,0.0
-4247,-2911,22011,0.0
-4248,-3153,21962,0.0
-4250,-3396,21924,0.0
-3752,-3211,19305,0.0
-3748,-3420,19242,0.0
-3746,-3631,19187,0.0
-3756,-3854,19200,0.0
-3759,-4070,19168,0.0
-3757,-4281,19116,0.0
-3753,-4490,19056,0.0
-3748,-4696,18983,0.0
-3762,-4927,19014,0.0
-3753,-5132,18934,0.0
-3749,-5340,18870,0.0
-3748,-5553,18824,0.0
-3749,-5770,18789,0.0
-3751,-5990,18758,0.0
-3751,-6207,18718,0.0
-3747,-6419,18664,0.0
-3732,-6611,18551,0.0
-3740,-6844,18550,0.0
-3736,-7056,18490,0.0
-3733,-7272,18441,0.0
-3734,-7496,18409,0.0
-3730,-7712,18353,0.0
-3721,-7915,18267,0.0
-3728,-8158,18270,0.0
-3728,-8384,18230,0.0
-3721,-8595,18157,0.0
-3720,-8825,18119,0.0
-3716,-9046,18065,0.0
-3712,-9267,18006,0.0
-3707,-9494,17955,0.0
-3711,-9740,17937,0.0
-3707,-9968,17882,0.0
-3703,-10197,17827,0.0
-3699,-10429,17774,0.0
-3688,-10645,17690,0.0
-3689,-10892,17656,0.0
-4151,-12536,19829,0.0
-4150,-12821,19791,0.0
-4147,-13097,19736,0.0
-4149,-13392,19706,0.0
-4144,-13668,19644,0.0
-4140,-13952,19587,0.0
-4138,-14245,19539,0.0
-4132,-14531,19477,0.0
-4128,-14823,19418,0.0
-4125,-15126,19369,0.0
-4119,-15421,19305,0.0
-4115,-15726,19248,0.0
-4110,-16033,19189,0.0
-4107,-16350,19136,0.0
-4104,-16670,19082,0.0
-4098,-16987,19019,0.0
-4093,-17314,18960,0.0
-4087,-17639,18894,0.0
-4081,-17967,18829,0.0
-4077,-18312,18773,0.0
-4070,-18649,18704,0.0
-4067,-19011,18652,0.0
-12,-58,55,0.0
-4050,-19702,18500,0.0
-12,-59,54,0.0
-14,-74,66,0.0
-14,-75,66,0.0
-14,-72,62,0.0
-14,-73,61,0.0
-16,-87,71,0.0
-17,-91,74,0.0
-17,-96,76,0.0
-15,-87,67,0.0
-16,-99,74,0.0
-17,-101,75,0.0
-18,-109,79,0.0
-18,-118,83,0.0
-307,-1988,1363,0.0
-309,-2044,1369,0.0
-293,-1977,1293,0.0
-291,-2002,1279,0.0
-291,-2047,1277,0.0
-18,-130,79,0.0
-18,-133,79,0.0
-20,-149,86,0.0
-18,-139,78,0.0
-20,-157,86,0.0
-21,-169,90,0.0
-23,-183,95,0.0
-22,-183,92,0.0
-22,-187,92,0.0
-22,-198,95,0.0
-22,-199,93,0.0
-23,-215,97,0.0
-25,-240,106,0.0
-25,-246,105,0.0
-27,-268,112,0.0
-27,-274,110,0.0
-27,-290,113,0.0
-28,-312,118,0.0
-30,-335,123,0.0
-29,-334,118,0.0
-28,-328,112,0.0
-28,-342,113,0.0
-27,-335,107,0.0
-26,-338,104,0.0
-26,-343,102,0.0
-1449,15485,14816,0.0
-1487,15298,14954,0.0
-1817,17988,17961,0.0
-1873,17860,18218,0.0
-1849,16989,17704,0.0
-1885,16712,17792,0.0
-1891,16171,17590,0.0
-1909,15761,17517,0.0
-1918,15293,17369,0.0
-2090,16094,18677,0.0
-2110,15706,18629,0.0
-2129,15322,18575,0.0
-2145,14933,18506,0.0
-2560,17234,21835,0.0
-3678,23954,31031,0.0
-2421,15257,20212,0.0
-2572,15691,21259,0.0
-2613,15431,21386,0.0
-2629,15030,21313,0.0
-2636,14589,21169,0.0
-2665,14287,21219,0.0
-3877,20121,30593,0.0
-3915,19670,30626,0.0
-3996,19443,31006,0.0
-4019,18936,30939,0.0
-3560,16240,27192,0.0
-4357,19237,33020,0.0
-3729,15939,28057,0.0
-3724,15406,27817,0.0
-3753,15022,27834,0.0
-3736,14465,27517,0.0
-3768,14112,27571,0.0
-3723,13485,27070,0.0
-3751,13131,27094,0.0
-3799,12849,27267,0.0
-3829,12509,27315,0.0
-3819,12046,27082,0.0
-3827,11647,26976,0.0
-4487,13176,31457,0.0
-4562,12914,31804,0.0
-4647,12676,32226,0.0
-4668,12257,32190,0.0
-4668,11795,32027,0.0
0,0,0,0.0
0,0,0,0.0
-3655,8183,24696,0.0
-3693,7928,24836,0.0
-3697,7602,24748,0.0
-3705,7286,24685,0.0
-3713,6977,24627,0.0
-3713,6655,24515,0.0
-3716,6345,24432,0.0
-3724,6046,24381,0.0
-3732,5750,24330,0.0
-3733,5447,24233,0.0
-3736,5152,24158,0.0
-3742,4863,24099,0.0
-3741,4569,24000,0.0
-3744,4283,23929,0.0
-3744,3997,23840,0.0
-3750,3720,23792,0.0
-3750,3439,23703,0.0
-3721,3136,23431,0.0
-3602,2773,22609,0.0
-3739,2608,23387,0.0
-3678,2300,22926,0.0
-3649,2023,22669,0.0
-3732,1805,23110,0.0
-3759,1555,23206,0.0
-3762,1295,23149,0.0
-3759,1035,23059,0.0
-3761,779,23000,0.0
-3762,523,22938,0.0
-3761,269,22867,0.0
-3762,17,22808,0.0
-3762,-233,22743,0.0
-3758,-483,22649,0.0
-3760,-731,22596,0.0
-3762,-979,22544,0.0
-3757,-1224,22464,0.0
-3758,-1469,22407,0.0
-3759,-1713,22351,0.0
-3759,-1957,22294,0.0
-3757,-2199,22228,0.0
-3753,-2438,22145,0.0
-3752,-2679,22088,0.0
-3746,-2916,22001,0.0
-3748,-3157,21952,0.0
-3749,-3398,21907,0.0
-3687,-3578,21498,0.0
-3504,-3625,20387,0.0
-3551,-3901,20611,0.0
-3503,-4071,20286,0.0
-3511,-4306,20287,0.0
-3562,-4596,20534,0.0
-3538,-4793,20353,0.0
-3564,-5057,20459,0.0
-3443,-5106,19725,0.0
-3480,-5385,19894,0.0
-3530,-5692,20142,0.0
-3465,-5812,19730,0.0
-3485,-6072,19802,0.0
-3509,-6343,19900,0.0
-3483,-6526,19719,0.0
-3573,-6930,20187,0.0
-3455,-6932,19490,0.0
-3447,-7145,19410,0.0
-3450,-7380,19383,0.0
-3513,-7755,19709,0.0
-3576,-8134,20024,0.0
-3591,-8413,20072,0.0
-3599,-8680,20084,0.0
-3597,-8924,20038,0.0
-3616,-9225,20114,0.0
-3604,-9447,20011,0.0
-3604,-9703,19980,0.0
-3599,-9946,19920,0.0
-3364,-9537,18585,0.0
-3548,-10321,19579,0.0
-3471,-10350,19118,0.0
-3438,-10506,18908,0.0
-3429,-10738,18832,0.0
-3433,-11010,18826,0.0
-3638,-11949,19924,0.0
-3642,-12243,19915,0.0
-3637,-12516,19866,0.0
-3632,-12786,19808,0.0
-3628,-13067,19763,0.0
-3624,-13345,19707,0.0
-3618,-13625,19653,0.0
-3614,-13916,19609,0.0
-3609,-14203,19556,0.0
-3603,-14490,19496,0.0
-3598,-14788,19447,0.0
-3592,-15085,19393,0.0
-3580,-15361,19306,0.0
-3579,-15687,19278,0.0
-3569,-15983,19208,0.0
-3566,-16307,19165,0.0
-3556,-16611,19095,0.0
-3548,-16922,19027,0.0
-3542,-17256,18980,0.0
-3534,-17582,18917,0.0
-3525,-17907,18850,0.0
-3513,-18229,18773,0.0
-3509,-18586,18726,0.0
-3498,-18927,18657,0.0
-3489,-19279,18592,0.0
-11,-59,56,0.0
-13,-69,65,0.0
-11,-66,60,0.0
-12,-71,63,0.0
-13,-84,73,0.0
-12,-74,62,0.0
-14,-92,75,0.0
-17,-112,90,0.0
-16,-106,84,0.0
-15,-104,81,0.0
-12,-90,68,0.0
-14,-103,77,0.0
-14,-107,77,0.0
-14,-102,72,0.0
-257,-1965,1355,0.0
-259,-2028,1366,0.0
-252,-2025,1332,0.0
-248,-2035,1308,0.0
-248,-2085,1308,0.0
-14,-127,77,0.0
-15,-133,79,0.0
-16,-138,80,0.0
-15,-144,81,0.0
-17,-160,88,0.0
-18,-177,95,0.0
-18,-177,93,0.0
-18,-183,93,0.0
-20,-208,104,0.0
-19,-199,97,0.0
-19,-210,100,0.0
-19,-217,99,0.0
-20,-231,103,0.0
-19,-240,104,0.0
-20,-251,105,0.0
-21,-265,108,0.0
-22,-286,113,0.0
-22,-302,115,0.0
-23,-327,121,0.0
-23,-336,120,0.0
-22,-342,119,0.0
-21,-344,115,0.0
-21,-347,112,0.0
-20,-343,106,0.0
-20,-348,104,0.0
-1053,15273,14692,0.0
-1091,15085,14824,0.0
-2424,32014,32136,0.0
-2519,31808,32618,0.0
-2571,31077,32557,0.0
-2580,29875,31975,0.0
-2634,29251,31986,0.0
-2715,28941,32336,0.0
-2776,28414,32441,0.0
-2794,27490,32072,0.0
-1706,16143,19249,0.0
-1700,15476,18861,0.0
-1744,15286,19043,0.0
-1881,15886,20231,0.0
-2960,24093,31375,0.0
-1935,15185,20221,0.0
-2069,15654,21321,0.0
-2100,15329,21357,0.0
-2129,14997,21377,0.0
-3111,21147,30848,0.0
-3082,20231,30207,0.0
-3163,20043,30637,0.0
-3234,19792,30978,0.0
-3269,19320,30975,0.0
-3297,18821,30916,0.0
-3638,20056,33763,0.0
-3025,16108,27797,0.0
-3022,15541,27504,0.0
-3147,15631,28377,0.0
-3115,14941,27836,0.0
-3122,14459,27655,0.0
-3144,14052,27604,0.0
-3182,13723,27700,0.0
-3187,13265,27523,0.0
-3358,13482,28772,0.0
-3168,12268,26939,0.0
-3171,11834,26758,0.0
-3241,11659,27156,0.0
-3763,13034,31300,0.0
-3852,12847,31825,0.0
-3934,12621,32275,0.0
-3946,12173,32160,0.0
-3941,11684,31916,0.0
-3971,11302,31950,0.0
-3027,8268,24214,0.0
-3107,8132,24696,0.0
-3139,7869,24808,0.0
-3152,7560,24769,0.0
-3155,7229,24649,0.0
-3167,6928,24616,0.0
-3174,6616,24533,0.0
-3177,6301,24430,0.0
-3185,6000,24363,0.0
-3196,5710,24332,0.0
-3198,5405,24218,0.0
-3203,5110,24142,0.0
-3211,4826,24096,0.0
-3214,4533,24000,0.0
-3220,4251,23943,0.0
-3221,3963,23838,0.0
-3227,3686,23782,0.0
-3231,3409,23710,0.0
-3135,3039,22918,0.0
-3108,2747,22621,0.0
-3205,2564,23245,0.0
-3157,2263,22805,0.0
-3158,2003,22720,0.0
-3236,1788,23204,0.0
-3249,1532,23206,0.0
-3246,1271,23104,0.0
-3250,1014,23050,0.0
-3252,758,22984,0.0
-3254,504,22923,0.0
-3259,251,22883,0.0
-3258,0,22808,0.0
-3260,-249,22752,0.0
-3261,-498,22682,0.0
-3263,-747,22624,0.0
-3258,-991,22531,0.0
-3256,-1236,22449,0.0
-3259,-1480,22405,0.0
-3259,-1723,22340,0.0
-3259,-1965,22283,0.0
-3258,-2206,22216,0.0
-3256,-2445,22143,0.0
-3256,-2685,22083,0.0
-3256,-2925,22028,0.0
-3249,-3158,21930,0.0
-3250,-3397,21881,0.0
-3246,-3631,21802,0.0
-3247,-3870,21761,0.0
-3244,-4105,21690,0.0
-3243,-4342,21636,0.0
-3238,-4575,21561,0.0
-3228,-4798,21447,0.0
-3199,-4991,21212,0.0
-3232,-5280,21381,0.0
-3224,-5506,21290,0.0
-3225,-5746,21252,0.0
-3222,-5982,21195,0.0
-3217,-6214,21124,0.0
-3217,-6456,21088,0.0
-3217,-6700,21054,0.0
-3213,-6934,20987,0.0
-3212,-7178,20947,0.0
-3203,-7403,20854,0.0
-3198,-7637,20785,0.0
-3193,-7875,20726,0.0
-3177,-8081,20585,0.0
-3148,-8256,20369,0.0
-3136,-8476,20267,0.0
-3132,-8714,20209,0.0
-3142,-8998,20253,0.0
-3140,-9248,20215,0.0
-3127,-9468,20109,0.0
-3113,-9683,19992,0.0
-3109,-9930,19942,0.0
-3126,-10253,20035,0.0
-3145,-10581,20128,0.0
-3146,-10859,20119,0.0
-3142,-11122,20075,0.0
-3138,-11388,20034,0.0
-3138,-11668,20013,0.0
-3132,-11933,19960,0.0
-3124,-12194,19897,0.0
-3121,-12477,19867,0.0
-3115,-12745,19809,0.0
-3110,-13026,19765,0.0
-3101,-13297,19704,0.0
-3096,-13584,19662,0.0
-3089,-13865,19604,0.0
-3080,-14146,19545,0.0
-3073,-14433,19489,0.0
-3064,-14723,19433,0.0
-3058,-15027,19389,0.0
-3045,-15304,19307,0.0
-3040,-15626,19275,0.0
-3032,-15928,19215,0.0
-3022,-16239,19160,0.0
-3013,-16553,19103,0.0
-3002,-16861,19034,0.0
-2992,-17185,18977,0.0
-2983,-17516,18924,0.0
-2969,-17824,18840,0.0
-2960,-18177,18798,0.0
-2945,-18497,18716,0.0
-2938,-18871,18681,0.0
-2925,-19211,18608,0.0
-2911,-19558,18535,0.0
-9,-65,60,0.0
-10,-74,67,0.0
-12,-86,76,0.0
-10,-74,64,0.0
-10,-78,66,0.0
-12,-92,77,0.0
-13,-102,83,0.0
-14,-114,91,0.0
-14,-111,87,0.0
-14,-118,90,0.0
-14,-123,91,0.0
-13,-114,83,0.0
-13,-124,87,0.0
-13,-121,84,0.0
-207,-1995,1352,0.0
-202,-2000,1323,0.0
-14,-145,93,0.0
-195,-2038,1287,0.0
-194,-2085,1285,0.0
-13,-150,90,0.0
-15,-165,96,0.0
-12,-150,86,0.0
-14,-166,92,0.0
-14,-182,98,0.0
-14,-180,96,0.0
-14,-182,94,0.0
-15,-203,101,0.0
-14,-204,99,0.0
-15,-218,104,0.0
-15,-226,104,0.0
-14,-237,106,0.0
-15,-247,107,0.0
-15,-251,106,0.0
-15,-269,110,0.0
-15,-281,111,0.0
-16,-301,116,0.0
-16,-324,121,0.0
-17,-340,123,0.0
-15,-345,121,0.0
-15,-342,115,0.0
-14,-343,111,0.0
-14,-349,110,0.0
-13,-342,103,0.0
-122,17546,17065,0.0
-162,17342,17229,0.0
-170,14371,14584,0.0
-204,14172,14692,0.0
-266,15740,16670,0.0
-306,15718,17007,0.0
-347,15651,17302,0.0
-384,15439,17439,0.0
-761,27545,31793,0.0
-801,26335,31062,0.0
-863,25912,31235,0.0
-916,25273,31140,0.0
-963,24547,30917,0.0
-1018,24071,30995,0.0
-705,15525,20439,0.0
-736,15134,20376,0.0
-783,15093,20783,0.0
-833,15077,21238,0.0
-871,14828,21370,0.0
0,0,0,0.0
-1331,20199,30493,0.0
-1355,19458,30074,0.0
-1427,19428,30751,0.0
-1479,19111,30983,0.0
-1652,20286,33696,0.0
-1696,19791,33691,0.0
-1379,15307,26715,0.0
-1437,15196,27198,0.0
-1495,15078,27688,0.0
-1531,14723,27744,0.0
-1558,14297,27662,0.0
-1585,13885,27592,0.0
-1615,13509,27583,0.0
-1651,13190,27689,0.0
-1660,12669,27355,0.0
-1661,12116,26923,0.0
-1707,11892,27210,0.0
-1951,12990,30623,0.0
-2025,12885,31316,0.0
-2076,12621,31647,0.0
-2139,12421,32154,0.0
-2162,11985,32060,0.0
-2173,11497,31804,0.0
-1651,8334,23860,0.0
-1700,8180,24264,0.0
-1762,8084,24872,0.0
-1778,7765,24801,0.0
-1788,7428,24662,0.0
-1801,7117,24596,0.0
-1819,6824,24582,0.0
-1828,6504,24462,0.0
-1841,6201,24388,0.0
-1853,5906,24331,0.0
-1863,5604,24232,0.0
-1876,5318,24195,0.0
-1885,5026,24112,0.0
-1897,4739,24049,0.0
-1905,4452,23961,0.0
-1913,4170,23890,0.0
-1875,3793,23225,0.0
-1836,3438,22586,0.0
-1847,3181,22549,0.0
-1853,2921,22475,0.0
-1860,2665,22417,0.0
-1871,2416,22402,0.0
-1876,2162,22323,0.0
-1881,1910,22246,0.0
-1889,1664,22216,0.0
-1899,1419,22203,0.0
-1932,1191,22475,0.0
-1970,959,22782,0.0
-1995,715,22952,0.0
-2000,464,22911,0.0
-2003,213,22834,0.0
-2007,-34,22773,0.0
-2010,-282,22705,0.0
-2014,-529,22649,0.0
-2015,-772,22558,0.0
-2015,-1015,22474,0.0
-2019,-1259,22434,0.0
-2020,-1500,22362,0.0
-2023,-1741,22313,0.0
-2025,-1981,22258,0.0
-2024,-2218,22173,0.0
-2025,-2456,22113,0.0
-2025,-2693,22051,0.0
-2027,-2932,22013,0.0
-2026,-3166,21934,0.0
-2025,-3400,21870,0.0
-2262,-4062,24369,0.0
-2490,-4763,26769,0.0
-1975,-4007,21177,0.0
-2019,-4332,21602,0.0
-2017,-4564,21536,0.0
-2006,-4774,21374,0.0
-2012,-5029,21417,0.0
-2009,-5259,21349,0.0
-2010,-5500,21322,0.0
-2004,-5722,21227,0.0
-2002,-5961,21187,0.0
-1997,-6187,21108,0.0
-1996,-6427,21068,0.0
-1992,-6659,21008,0.0
-1933,-6708,20385,0.0
-1930,-6938,20336,0.0
-1924,-7163,20267,0.0
-1957,-7535,20602,0.0
-1971,-7844,20744,0.0
-1967,-8085,20698,0.0
-1961,-8322,20635,0.0
-1954,-8559,20574,0.0
-1949,-8801,20522,0.0
-1942,-9041,20463,0.0
-1936,-9286,20413,0.0
-1930,-9534,20366,0.0
-1909,-9707,20161,0.0
-1911,-10002,20207,0.0
-1912,-10292,20237,0.0
-1904,-10543,20182,0.0
-1897,-10805,20146,0.0
-1888,-11056,20087,0.0
-1880,-11318,20043,0.0
-1873,-11584,20002,0.0
-1863,-11842,19943,0.0
-1854,-12109,19896,0.0
-1846,-12384,19857,0.0
-1833,-12640,19786,0.0
-1821,-12898,19713,0.0
-1816,-13205,19711,0.0
-1803,-13472,19645,0.0
-1793,-13763,19609,0.0
-1780,-14041,19549,0.0
-1767,-14319,19485,0.0
-1754,-14607,19431,0.0
-1741,-14903,19381,0.0
-1728,-15197,19325,0.0
-1715,-15503,19281,0.0
-1699,-15795,19211,0.0
-1685,-16100,19156,0.0
-1668,-16405,19093,0.0
-1653,-16720,19038,0.0
-1636,-17034,18975,0.0
-1619,-17359,18920,0.0
-1601,-17675,18851,0.0
-1583,-18002,18786,0.0
-1565,-18344,18732,0.0
-1546,-18681,18667,0.0
-5,-57,56,0.0
-1505,-19373,18535,0.0
-5,-71,67,0.0
-1463,-20095,18408,0.0
-6,-90,80,0.0
-5,-74,65,0.0
-6,-89,75,0.0
-6,-88,74,0.0
-6,-91,75,0.0
-5,-99,79,0.0
-5,-106,83,0.0
-6,-99,76,0.0
-6,-120,90,0.0
-6,-118,87,0.0
-5,-116,83,0.0
-91,-1989,1396,0.0
-89,-2039,1397,0.0
-83,-2002,1341,0.0
-79,-2004,1311,0.0
-76,-2048,1308,0.0
-73,-2053,1281,0.0
-70,-2094,1275,0.0
-66,-2090,1242,0.0
-5,-171,99,0.0
-5,-166,93,0.0
-4,-169,94,0.0
-4,-180,96,0.0
-4,-174,90,0.0
-4,-191,97,0.0
-4,-204,102,0.0
-3,-204,98,0.0
-3,-207,97,0.0
-3,-223,102,0.0
-2,-244,108,0.0
-2,-251,108,0.0
-2,-254,106,0.0
-1,-268,108,0.0
-1,-272,107,0.0
-1,-289,110,0.0
0,-328,121,0.0
0,-332,119,0.0
1,-334,115,0.0
1,-340,113,0.0
2,-334,107,0.0
2,-339,105,0.0
464,15148,14807,0.0
420,14609,14588,0.0
375,13953,14232,0.0
347,13894,14477,0.0
318,13841,14733,0.0
288,13721,14921,0.0
296,15624,17360,0.0
473,27967,31749,0.0
261,17579,20391,0.0
220,17339,20555,0.0
180,17105,20724,0.0
140,16872,20894,0.0
102,16625,21045,0.0
63,16389,21209,0.0
23,15063,19931,0.0
-11,14936,20212,0.0
-49,15626,21627,0.0
-84,14851,21027,0.0
-121,14831,21486,0.0
-156,14524,21532,0.0
-269,20144,30566,0.0
-314,19517,30322,0.0
-364,19340,30770,0.0
-411,18958,30895,0.0
-496,20179,33694,0.0
-542,19648,33625,0.0
-462,15072,26445,0.0
-496,14657,26373,0.0
-534,14393,26570,0.0
-573,14164,26834,0.0
-618,14048,27327,0.0
-656,13783,27539,0.0
-665,12961,26611,0.0
-709,12842,27105,0.0
-746,12587,27329,0.0
-775,12215,27293,0.0
-800,11791,27129,0.0
-951,13152,31179,0.0
-989,12813,31318,0.0
-1050,12796,32269,0.0
-1077,12331,32109,0.0
-1104,11887,31984,0.0
-1127,11430,31802,0.0
-868,8279,23844,0.0
-908,8166,24366,0.0
-947,8024,24835,0.0
-966,7707,24769,0.0
-983,7391,24695,0.0
-999,7064,24572,0.0
-1017,6771,24551,0.0
-1032,6458,24447,0.0
-1048,6157,24378,0.0
-1061,5856,24291,0.0
-1075,5561,24216,0.0
-1090,5273,24162,0.0
-1102,4980,24071,0.0
-1115,4695,24003,0.0
-1125,4407,23906,0.0
-1139,4133,23868,0.0
-1151,3856,23803,0.0
-1159,3575,23691,0.0
-1112,3142,22479,0.0
-1123,2887,22423,0.0
-1133,2635,22377,0.0
-1159,2418,22652,0.0
-1165,2159,22549,0.0
-1192,1939,22857,0.0
-1215,1706,23084,0.0
-1226,1454,23092,0.0
-1232,1198,23001,0.0
-1241,947,22991,0.0
-1248,696,22932,0.0
-1254,445,22866,0.0
-1260,196,22815,0.0
-1263,-50,22727,0.0
-1268,-296,22656,0.0
-1274,-542,22632,0.0
-1276,-784,22539,0.0
-1281,-1028,22502,0.0
-1241,-1228,21694,0.0
-1285,-1506,22319,0.0
-1290,-1749,22315,0.0
-1292,-1987,22246,0.0
-1294,-2224,22179,0.0
-1295,-2462,22120,0.0
-1295,-2696,22041,0.0
-1292,-2922,21914,0.0
-1295,-3164,21903,0.0
-1297,-3401,21866,0.0
-1296,-3633,21793,0.0
-1294,-3859,21697,0.0
-1287,-4071,21529,0.0
-1287,-4303,21471,0.0
-1280,-4518,21337,0.0
-1292,-4796,21498,0.0
-1288,-5023,21414,0.0
-1286,-5256,21363,0.0
-1284,-5486,21301,0.0
-1280,-5714,21227,0.0
-1278,-5951,21191,0.0
-1274,-6179,21117,0.0
-1270,-6410,21055,0.0
-1266,-6642,20996,0.0
-1263,-6884,20966,0.0
-1258,-7117,20909,0.0
-1254,-7360,20873,0.0
-1248,-7587,20796,0.0
-1244,-7830,20760,0.0
-1239,-8074,20721,0.0
-1231,-8303,20644,0.0
-1225,-8542,20590,0.0
-1217,-8779,20526,0.0
-1212,-9033,20504,0.0
-1202,-9262,20420,0.0
-1196,-9514,20385,0.0
-1183,-9725,20259,0.0
-1179,-10005,20276,0.0
-1171,-10263,20242,0.0
-1162,-10514,20190,0.0
-1154,-10775,20154,0.0
-1143,-11024,20094,0.0
-1133,-11289,20058,0.0
-1123,-11549,20010,0.0
-1111,-11804,19946,0.0
-1100,-12080,19917,0.0
-1088,-12335,19850,0.0
-1077,-12615,19818,0.0
-1064,-12884,19765,0.0
-1051,-13161,19719,0.0
-1037,-13438,19668,0.0
-1023,-13709,19606,0.0
-1008,-13990,19552,0.0
-993,-14277,19503,0.0
-977,-14558,19441,0.0
-961,-14849,19389,0.0
-944,-15142,19334,0.0
-927,-15426,19263,0.0
-909,-15736,19220,0.0
-891,-16040,19164,0.0
-872,-16356,19117,0.0
-853,-16657,19047,0.0
-832,-16964,18979,0.0
-812,-17295,18934,0.0
-789,-17616,18870,0.0
-768,-17949,18814,0.0
-745,-18268,18739,0.0
-721,-18618,18688,0.0
-697,-18954,18618,0.0
-672,-19320,18571,0.0
-3,-74,69,0.0
-3,-71,66,0.0
-3,-77,69,0.0
-564,-20744,18281,0.0
-2,-81,71,0.0
-504,-21465,18108,0.0
-2,-97,79,0.0
-2,-95,76,0.0
-2,-99,78,0.0
-2,-100,78,0.0
-2,-110,84,0.0
-1,-105,78,0.0
-22,-1951,1408,0.0
-18,-1947,1373,0.0
-15,-2035,1403,0.0
-12,-1976,1331,0.0
-8,-1996,1313,0.0
-4,-2009,1291,0.0
-2,-2078,1304,0.0
1,-2005,1228,0.0
4,-2097,1254,0.0
0,-154,90,0.0
0,-159,90,0.0
1,-172,95,0.0
1,-174,94,0.0
2,-197,103,0.0
2,-193,99,0.0
2,-203,101,0.0
2,-211,102,0.0
3,-218,102,0.0
4,-234,107,0.0
4,-238,106,0.0
4,-240,104,0.0
5,-267,112,0.0
6,-258,105,0.0
7,-274,108,0.0
7,-290,111,0.0
9,-336,124,0.0
10,-343,123,0.0
11,-346,120,0.0
11,-342,115,0.0
12,-343,111,0.0
12,-348,108,0.0
1032,15057,14777,0.0
960,14292,14326,0.0
942,14306,14648,0.0
894,13857,14493,0.0
873,13833,14782,0.0
845,13673,14926,0.0
943,15610,17412,0.0
803,13604,15504,0.0
777,13498,15719,0.0
747,13289,15814,0.0
1407,25685,31240,0.0
1005,18844,23425,0.0
969,18687,23749,0.0
808,16043,20843,0.0
783,16017,21279,0.0
754,15925,21635,0.0
713,15561,21623,0.0
653,14741,20955,0.0
628,14705,21388,0.0
679,16514,24580,0.0
639,16190,24668,0.0
605,15979,24926,0.0
573,15838,25300,0.0
542,15756,25782,0.0
506,15481,25955,0.0
471,15197,26115,0.0
0,0,0,0.0
384,14068,25418,0.0
358,14072,26086,0.0
326,13887,26420,0.0
291,13550,26467,0.0
258,13214,26512,0.0
224,12890,26578,0.0
195,12782,27096,0.0
164,12526,27314,0.0
129,11947,26812,0.0
99,11728,27105,0.0
79,13048,31072,0.0
45,12896,31664,0.0
12,12715,32211,0.0
-21,12277,32113,0.0
-53,11847,32023,0.0
-83,11148,31164,0.0
-86,8231,23821,0.0
-142,10420,31243,0.0
-137,7989,24849,0.0
-158,7665,24756,0.0
-178,7334,24627,0.0
-199,7033,24582,0.0
-220,6734,24541,0.0
-238,6423,24439,0.0
-257,6125,24377,0.0
-275,5826,24297,0.0
-291,5523,24182,0.0
-308,5240,24148,0.0
-324,4953,24077,0.0
-338,4665,23989,0.0
-354,4387,23936,0.0
-368,4103,23845,0.0
-382,3827,23775,0.0
-395,3555,23718,0.0
-387,3119,22469,0.0
-399,2863,22401,0.0
-410,2615,22384,0.0
-426,2397,22636,0.0
-435,2133,22463,0.0
-454,1924,22894,0.0
-472,1697,23192,0.0
-481,1440,23137,0.0
-489,1187,23083,0.0
-497,933,23000,0.0
-505,681,22935,0.0
-513,431,22874,0.0
-519,183,22794,0.0
-526,-62,22740,0.0
-532,-307,22677,0.0
-538,-551,22614,0.0
-543,-794,22556,0.0
-547,-1037,22499,0.0
-551,-1277,22432,0.0
-556,-1515,22358,0.0
-560,-1755,22317,0.0
-562,-1991,22235,0.0
-565,-2230,22187,0.0
-567,-2461,22089,0.0
-570,-2701,22061,0.0
-570,-2932,21978,0.0
-572,-3166,21920,0.0
-573,-3403,21880,0.0
-574,-3635,21816,0.0
-574,-3865,21739,0.0
-573,-4096,21677,0.0
-571,-4324,21593,0.0
-570,-4549,21510,0.0
-570,-4789,21490,0.0
-567,-5013,21403,0.0
-564,-5241,21333,0.0
-562,-5471,21274,0.0
-559,-5702,21217,0.0
-556,-5932,21157,0.0
-552,-6160,21090,0.0
-533,-6221,20471,0.0
-529,-6448,20421,0.0
-525,-6668,20349,0.0
-532,-7053,20761,0.0
-530,-7341,20867,0.0
-524,-7571,20796,0.0
-517,-7799,20724,0.0
-511,-8043,20689,0.0
-504,-8281,20637,0.0
-497,-8526,20600,0.0
-489,-8764,20544,0.0
-480,-8989,20453,0.0
-472,-9230,20401,0.0
-463,-9480,20364,0.0
-453,-9721,20304,0.0
-444,-9976,20272,0.0
-433,-10215,20202,0.0
-423,-10476,20175,0.0
-411,-10728,20123,0.0
-400,-10983,20075,0.0
-388,-11239,20026,0.0
-376,-11510,19999,0.0
-362,-11758,19928,0.0
-349,-12018,19876,0.0
-335,-12298,19851,0.0
-320,-12546,19769,0.0
-305,-12826,19737,0.0
-290,-13103,19693,0.0
-274,-13391,19662,0.0
-256,-13644,19575,0.0
-239,-13945,19554,0.0
-222,-14220,19489,0.0
-202,-14499,19428,0.0
-184,-14787,19372,0.0
-164,-15039,19267,0.0
-144,-15375,19266,0.0
-122,-15675,19212,0.0
-100,-15982,19161,0.0
-79,-16276,19091,0.0
-55,-16600,19050,0.0
-31,-16888,18962,0.0
-7,-17197,18894,0.0
18,-17529,18846,0.0
44,-17867,18799,0.0
71,-18195,18734,0.0
99,-18531,18671,0.0
127,-18878,18615,0.0
157,-19229,18556,0.0
186,-19558,18469,0.0
219,-19925,18413,0.0
250,-20282,18341,0.0
283,-20650,18273,0.0
318,-21024,18203,0.0
353,-21394,18124,0.0
389,-21760,18034,0.0
1,-88,71,0.0
465,-22555,17887,0.0
506,-22985,17827,0.0
544,-23293,17666,0.0
2,-110,82,0.0
610,-23436,16992,0.0
642,-23393,16579,0.0
55,-1954,1353,0.0
60,-2011,1361,0.0
64,-2047,1353,0.0
65,-1995,1289,0.0
70,-2062,1301,0.0
73,-2079,1280,0.0
75,-2059,1238,0.0
77,-2048,1201,0.0
5,-149,85,0.0
6,-164,91,0.0
7,-175,94,0.0
7,-173,91,0.0
7,-176,90,0.0
9,-203,102,0.0
10,-213,104,0.0
10,-219,104,0.0
10,-208,96,0.0
11,-232,104,0.0
12,-246,107,0.0
12,-245,103,0.0
14,-259,107,0.0
14,-263,105,0.0
16,-279,107,0.0
19,-318,118,0.0
19,-323,117,0.0
20,-328,114,0.0
20,-329,111,0.0
21,-332,108,0.0
21,-326,102,0.0
1320,14054,13819,0.0
1357,14599,14662,0.0
1315,14293,14663,0.0
1265,13900,14568,0.0
1246,13833,14811,0.0
1215,13621,14898,0.0
1377,15605,17439,0.0
1722,19734,22535,0.0
1687,19538,22798,0.0
1153,13517,16118,0.0
1126,13337,16254,0.0
1637,19611,24428,0.0
1613,19545,24887,0.0
1588,19475,25354,0.0
1498,18584,24740,0.0
1189,14929,20322,0.0
1223,15544,21642,0.0
1142,14685,20917,0.0
1130,14710,21440,0.0
1533,20193,30119,0.0
1278,17057,26041,0.0
1253,16937,26475,0.0
1227,16797,26889,0.0
1176,16299,26728,0.0
1141,16030,26935,0.0
1105,15736,27099,0.0
1071,15466,27306,0.0
995,14574,26389,0.0
954,14162,26308,0.0
895,13463,25671,0.0
866,13221,25884,0.0
892,13829,27809,0.0
861,13551,28002,0.0
844,13484,28649,0.0
818,13274,29011,0.0
871,14373,32331,0.0
836,14002,32435,0.0
764,13017,31070,0.0
742,12861,31651,0.0
721,12704,32259,0.0
683,12266,32162,0.0
646,11817,32019,0.0
609,11349,31803,0.0
433,8228,23870,0.0
539,10441,31383,0.0
403,7960,24818,0.0
378,7639,24732,0.0
355,7328,24668,0.0
332,7017,24592,0.0
311,6712,24525,0.0
289,6398,24412,0.0
269,6103,24352,0.0
250,5816,24320,0.0
230,5514,24214,0.0
212,5224,24142,0.0
194,4934,24055,0.0
176,4655,24009,0.0
160,4375,23948,0.0
145,4093,23859,0.0
129,3817,23795,0.0
114,3541,23704,0.0
100,3270,23635,0.0
82,2873,22560,0.0
71,2651,22775,0.0
59,2389,22655,0.0
47,2127,22500,0.0
37,1917,22920,0.0
26,1688,23210,0.0
17,1433,23146,0.0
6,1178,23081,0.0
-2,927,23027,0.0
-11,675,22942,0.0
-19,426,22898,0.0
-27,178,22828,0.0
-34,-67,22742,0.0
-42,-312,22618,0.0
-48,-556,22612,0.0
-53,-794,22445,0.0
-58,-1016,21997,0.0
-63,-1257,22030,0.0
-68,-1508,22210,0.0
-73,-1758,22310,0.0
-77,-1994,22237,0.0
-80,-2231,22186,0.0
-83,-2468,22137,0.0
-85,-2699,22047,0.0
-88,-2936,22004,0.0
-89,-3167,21928,0.0
-91,-3404,21893,0.0
-91,-3635,21819,0.0
-92,-3864,21747,0.0
-92,-4095,21682,0.0
-91,-4327,21627,0.0
-90,-4554,21544,0.0
-89,-4780,21466,0.0
-87,-5014,21424,0.0
-85,-5239,21346,0.0
-83,-5467,21281,0.0
-80,-5702,21241,0.0
-76,-5919,21134,0.0
-73,-6148,21073,0.0
-67,-6218,20486,0.0
-62,-6442,20425,0.0
-57,-6660,20351,0.0
-52,-6966,20532,0.0
-48,-7332,20867,0.0
-41,-7564,20804,0.0
-35,-7804,20764,0.0
-27,-8030,20685,0.0
-20,-8276,20654,0.0
-12,-8507,20584,0.0
-4,-8749,20538,0.0
4,-8986,20478,0.0
14,-9229,20429,0.0
23,-9463,20359,0.0
34,-9710,20312,0.0
45,-9960,20270,0.0
56,-10207,20218,0.0
68,-10468,20190,0.0
80,-10722,20146,0.0
93,-10970,20084,0.0
106,-11231,20047,0.0
120,-11500,20016,0.0
135,-11750,19950,0.0
149,-12021,19915,0.0
165,-12271,19841,0.0
182,-12546,19806,0.0
198,-12796,19725,0.0
215,-13048,19647,0.0
232,-13298,19561,0.0
250,-13534,19453,0.0
268,-13797,19382,0.0
282,-13792,18939,0.0
301,-14035,18842,0.0
322,-14331,18812,0.0
347,-14741,18923,0.0
375,-15282,19185,0.0
398,-15584,19137,0.0
422,-15850,19041,0.0
446,-16194,19034,0.0
474,-16540,19019,0.0
500,-16859,18969,0.0
525,-17119,18848,0.0
554,-17490,18843,0.0
584,-17840,18809,0.0
614,-18163,18741,0.0
645,-18494,18676,0.0
676,-18858,18636,0.0
709,-19186,18554,0.0
742,-19542,18495,0.0
777,-19882,18414,0.0
812,-20254,18358,0.0
849,-20616,18284,0.0
885,-20936,18169,0.0
925,-21355,18133,0.0
965,-21748,18066,0.0
1007,-22136,17988,0.0
1048,-22508,17891,0.0
1091,-22918,17818,0.0
1135,-23312,17724,0.0
1177,-23636,17572,0.0
1195,-23491,17075,0.0
1215,-23362,16600,0.0
106,-2007,1394,0.0
111,-2058,1396,0.0
109,-1979,1312,0.0
113,-2014,1304,0.0
116,-2041,1291,0.0
124,-2115,1305,0.0
122,-2049,1234,0.0
128,-2120,1247,0.0
8,-149,85,0.0
11,-181,101,0.0
11,-181,99,0.0
11,-182,97,0.0
13,-199,103,0.0
13,-201,101,0.0
14,-223,109,0.0
16,-236,112,0.0
16,-238,110,0.0
18,-252,113,0.0
17,-248,108,0.0
19,-269,114,0.0
19,-264,109,0.0
22,-288,115,0.0
22,-298,116,0.0
26,-332,124,0.0
27,-334,121,0.0
28,-347,122,0.0
29,-353,120,0.0
28,-336,110,0.0
29,-346,109,0.0
2396,14043,13848,0.0
2370,13879,13979,0.0
2481,14505,14923,0.0
2366,13815,14520,0.0
2362,13770,14784,0.0
2332,13567,14882,0.0
2170,12600,14122,0.0
2188,12680,14521,0.0
2192,12669,14826,0.0
2203,12701,15189,0.0
2233,12836,15689,0.0
2241,12837,16039,0.0
2251,12853,16415,0.0
2273,12930,16884,0.0
2288,12959,17304,0.0
2289,12910,17629,0.0
2524,14168,19789,0.0
2519,14069,20105,0.0
2523,14015,20493,0.0
2554,14105,21107,0.0
2528,13877,21256,0.0
2477,13508,21185,0.0
2404,13020,20912,0.0
2331,12538,20631,0.0
2325,12408,20918,0.0
2324,12297,21249,0.0
2322,12183,21585,0.0
2791,14506,26359,0.0
2731,14063,26217,0.0
2669,13599,26021,0.0
2381,12001,23577,0.0
2564,12780,25792,0.0
2407,11854,24585,0.0
2439,11860,25290,0.0
2429,11654,25563,0.0
2424,11468,25892,0.0
2405,11209,26061,0.0
2394,10989,26327,0.0
2394,10808,26698,0.0
2660,11801,30082,0.0
2803,12212,32141,0.0
1879,8030,21841,0.0
1850,7747,21796,0.0
1820,7461,21730,0.0
1793,7182,21674,0.0
1766,6909,21630,0.0
1737,6627,21544,0.0
1711,6356,21486,0.0
1683,6080,21397,0.0
1660,5819,21353,0.0
1638,5562,21314,0.0
1612,5295,21225,0.0
1592,5043,21185,0.0
1573,4794,21150,0.0
1554,4550,21127,0.0
1530,4290,21015,0.0
1512,4047,20977,0.0
1492,3802,20912,0.0
1682,4061,23796,0.0
1663,3789,23738,0.0
1481,3170,21333,0.0
1476,2951,21445,0.0
1521,2823,22292,0.0
1395,2384,20603,0.0
1419,2212,21113,0.0
1442,2031,21623,0.0
1423,1784,21487,0.0
1408,1545,21394,0.0
1396,1310,21348,0.0
1384,1078,21297,0.0
1349,831,20884,0.0
1333,602,20737,0.0
1341,382,20967,0.0
1345,158,21137,0.0
1337,-69,21090,0.0
1327,-295,21020,0.0
1319,-520,20977,0.0
1310,-743,20895,0.0
1305,-967,20876,0.0
1300,-1191,20856,0.0
1293,-1412,20784,0.0
1288,-1633,20730,0.0
1284,-1854,20690,0.0
1278,-2072,20625,0.0
1284,-2306,20712,0.0
1281,-2530,20692,0.0
1270,-2731,20505,0.0
1267,-2948,20448,0.0
1265,-3164,20391,0.0
1265,-3382,20348,0.0
1263,-3596,20283,0.0
1265,-3819,20271,0.0
1263,-4030,20195,0.0
1262,-4241,20121,0.0
1264,-4462,20092,0.0
1266,-4676,20037,0.0
1268,-4895,19996,0.0
1273,-5114,19966,0.0
1277,-5339,19945,0.0
1283,-5567,19939,0.0
1284,-5765,19820,0.0
1288,-5985,19782,0.0
1294,-6203,19736,0.0
1300,-6422,19686,0.0
1305,-6636,19622,0.0
1311,-6851,19565,0.0
1317,-7063,19492,0.0
1325,-7287,19456,0.0
1330,-7485,19349,0.0
1342,-7731,19362,0.0
1348,-7932,19261,0.0
1362,-8178,19265,0.0
1374,-8412,19239,0.0
1385,-8641,19196,0.0
1395,-8858,19127,0.0
1408,-9086,19079,0.0
1419,-9308,19016,0.0
1432,-9535,18959,0.0
1446,-9766,18908,0.0
1460,-9991,18844,0.0
1477,-10245,18831,0.0
1489,-10448,18720,0.0
1505,-10690,18679,0.0
1521,-10920,18612,0.0
1539,-11161,18564,0.0
1557,-11402,18510,0.0
1575,-11640,18449,0.0
1594,-11882,18391,0.0
1614,-12124,18329,0.0
1634,-12368,18268,0.0
1653,-12605,18191,0.0
1675,-12848,18125,0.0
2036,-15716,21670,1.0
2059,-15985,21550,1.0
2073,-16174,21321,1.0
1907,-14949,19271,0.0
1908,-15024,18943,0.0
1889,-14932,18414,0.0
1863,-14773,17825,0.0
1874,-14920,17610,0.0
1861,-14852,17153,0.0
1846,-14772,16694,0.0
1867,-14973,16559,0.0
1903,-15289,16544,0.0
1936,-15575,16495,0.0
1966,-15838,16414,0.0
2002,-16134,16365,0.0
2031,-16384,16264,0.0
2070,-16705,16229,0.0
2108,-17010,16174,0.0
2147,-17322,16119,0.0
2184,-17615,16040,0.0
2223,-17922,15970,0.0
2265,-18237,15901,0.0
2303,-18530,15809,0.0
2349,-18871,15751,0.0
2397,-19225,15699,0.0
2439,-19526,15597,0.0
2485,-19863,15519,0.0
2535,-20214,15445,0.0
2585,-20567,15367,0.0
2636,-20927,15287,0.0
2690,-21299,15210,0.0
2745,-21669,15125,0.0
2800,-22040,15034,0.0
2832,-22222,14810,0.0
260,-2037,1326,0.0
260,-2033,1293,0.0
261,-2037,1264,0.0
270,-2089,1266,0.0
264,-2043,1208,0.0
269,-2070,1193,0.0
272,-2089,1175,0.0
20,-162,88,0.0
23,-179,95,0.0
23,-172,89,0.0
27,-201,101,0.0
27,-207,102,0.0
27,-201,97,0.0
29,-221,103,0.0
30,-232,105,0.0
32,-244,108,0.0
34,-251,107,0.0
37,-270,112,0.0
37,-275,111,0.0
40,-285,111,0.0
42,-309,116,0.0
47,-339,124,0.0
45,-322,113,0.0
46,-326,112,0.0
48,-335,110,0.0
47,-336,106,0.0
-3755,16637,15310,0.0
-3836,16583,15591,0.0
-3917,16522,15870,0.0
-4001,16466,16159,0.0
-4063,16324,16368,0.0
-4162,16317,16716,0.0
-4248,16252,17013,0.0
-4238,15823,16924,0.0
-4291,15635,17090,0.0
-4317,15351,17148,0.0
-4608,15987,18253,0.0
-4701,15915,18573,0.0
-4798,15847,18904,0.0
-4872,15704,19153,0.0
-4976,15645,19509,0.0
-5080,15579,19866,0.0
-5054,15117,19716,0.0
-5048,14724,19644,0.0
-5405,15371,20980,0.0
-5519,15305,21375,0.0
-5633,15223,21761,0.0
-5742,15126,22134,0.0
-5865,15056,22559,0.0
-5983,14959,22955,0.0
-6098,14850,23345,0.0
-6179,14653,23604,0.0
-6336,14623,24146,0.0
-6378,14326,24255,0.0
-6366,13910,24154,0.0
-6391,13579,24194,0.0
0,0,0,0.0
-8840,17743,33319,0.0
-8846,17246,33268,0.0
-8834,16725,33158,0.0
-8828,16218,33059,0.0
-8848,15767,33065,0.0
-8233,14225,30705,0.0
-8223,13767,30603,0.0
-8253,13379,30649,0.0
-8276,12985,30674,0.0
-8598,13046,31800,0.0
-8768,12855,32360,0.0
-8757,12398,32252,0.0
-8771,11981,32238,0.0
-8782,11562,32212,0.0
-6537,8288,23929,0.0
0,0,0,0.0
-6834,8009,24915,0.0
-6834,7687,24867,0.0
-6824,7356,24777,0.0
-6810,7026,24678,0.0
-6800,6705,24592,0.0
-6790,6386,24506,0.0
-6780,6071,24419,0.0
-6783,5771,24381,0.0
-6339,5113,22738,0.0
-6459,4927,23121,0.0
-6691,4813,23906,0.0
-6749,4563,24064,0.0
-6734,4264,23959,0.0
-6731,3975,23901,0.0
-6710,3680,23777,0.0
-6443,3263,22783,0.0
-6416,2983,22646,0.0
-6444,2729,22696,0.0
-6471,2475,22744,0.0
-6443,2200,22597,0.0
-6506,1958,22777,0.0
-6208,1617,21685,0.0
-6231,1373,21722,0.0
-6295,1135,21896,0.0
-6407,900,22244,0.0
-6639,670,22998,0.0
-6630,408,22919,0.0
-6569,146,22661,0.0
-6428,-107,22128,0.0
-6513,-362,22373,0.0
-6318,-596,21656,0.0
-6412,-853,21931,0.0
-6440,-1104,21979,0.0
-6260,-1315,21319,0.0
-6560,-1629,22294,0.0
-6570,-1882,22276,0.0
-6542,-2124,22132,0.0
-6504,-2359,21952,0.0
-6469,-2591,21786,0.0
-6555,-2874,22027,0.0
-6486,-3090,21745,0.0
-6557,-3371,21933,0.0
-6557,-3618,21881,0.0
-6541,-3856,21779,0.0
-6536,-4100,21714,0.0
-6539,-4347,21669,0.0
-6528,-4586,21583,0.0
-6530,-4833,21540,0.0
-6527,-5076,21476,0.0
-6495,-5297,21321,0.0
-6505,-5548,21300,0.0
-6402,-5702,20913,0.0
-6446,-5983,21001,0.0
-6495,-6275,21108,0.0
-6505,-6531,21090,0.0
-6499,-6770,21016,0.0
-6501,-7019,20967,0.0
-6492,-7255,20881,0.0
-6054,-6996,19423,0.0
-6486,-7743,20753,0.0
-6499,-8007,20739,0.0
-6486,-8240,20641,0.0
-6502,-8510,20635,0.0
-6494,-8750,20552,0.0
-6491,-8997,20486,0.0
-6387,-9102,20101,0.0
-6396,-9363,20069,0.0
-6461,-9710,20213,0.0
-6479,-9993,20213,0.0
-6517,-10310,20273,0.0
-6523,-10577,20226,0.0
-6521,-10834,20159,0.0
-6524,-11101,20108,0.0
-6533,-11379,20072,0.0
-6536,-11647,20015,0.0
-6543,-11927,19973,0.0
-6530,-12170,19868,0.0
-6522,-12424,19776,0.0
-6508,-12666,19667,0.0
-6435,-12794,19380,0.0
-6566,-13330,19706,0.0
-6576,-13629,19668,0.0
-6569,-13895,19576,0.0
-6305,-13607,18723,0.0
-6410,-14110,18962,0.0
-6557,-14720,19323,0.0
-6365,-14570,18687,0.0
-6432,-15007,18808,0.0
-6599,-15694,19223,0.0
-6621,-16043,19206,0.0
-6528,-16117,18862,0.0
-6547,-16466,18838,0.0
-6642,-17013,19029,0.0
-6649,-17344,18968,0.0
-6659,-17685,18911,0.0
-6663,-18016,18839,0.0
-6671,-18360,18774,0.0
-6622,-18551,18551,0.0
-6693,-19079,18658,0.0
-6694,-19420,18573,0.0
-6709,-19804,18521,0.0
-6684,-20073,18359,0.0
-6620,-20226,18089,0.0
-6549,-20351,17798,0.0
-6742,-21315,18227,0.0
-6751,-21704,18147,0.0
-6762,-22115,18076,0.0
-6769,-22514,17990,0.0
-6780,-22931,17912,0.0
-6780,-23321,17803,0.0
-6740,-23572,17586,0.0
-536,-1910,1392,0.0
-528,-1911,1361,0.0
-519,-1910,1329,0.0
-530,-1984,1349,0.0
-517,-1970,1307,0.0
-510,-1975,1280,0.0
-511,-2009,1271,0.0
-488,-1957,1207,0.0
-509,-2073,1248,0.0
-499,-2064,1212,0.0
-491,-2066,1184,0.0
-492,-2105,1175,0.0
-477,-2076,1130,0.0
-36,-162,85,0.0
-36,-167,86,0.0
-36,-169,85,0.0
-41,-194,95,0.0
-42,-201,95,0.0
-45,-219,101,0.0
-44,-224,100,0.0
-48,-245,107,0.0
-50,-258,109,0.0
-53,-280,115,0.0
-54,-284,113,0.0
-55,-301,116,0.0
-58,-322,120,0.0
-59,-337,121,0.0
-58,-333,116,0.0
-58,-338,114,0.0
-57,-342,111,0.0
-57,-346,108,0.0
-55,-340,102,0.0
-54,-344,99,0.0
-53,-338,94,0.0
-2956,16586,15511,0.0
-3027,16528,15791,0.0
-3099,16469,16075,0.0
-3173,16410,16364,0.0
-3247,16349,16656,0.0
-3320,16279,16943,0.0
-3394,16202,17232,0.0
-3360,15616,16970,0.0
-3528,15964,17728,0.0
-3562,15697,17813,0.0
-3551,15238,17674,0.0
-3776,15780,18707,0.0
-3871,15760,19098,0.0
-3966,15720,19476,0.0
-4050,15633,19803,0.0
-4133,15538,20127,0.0
-4090,14971,19834,0.0
-4241,15116,20485,0.0
-4251,14748,20448,0.0
-4496,15185,21544,0.0
-4607,15143,21989,0.0
-4706,15055,22380,0.0
-4814,14980,22803,0.0
-4917,14888,23209,0.0
-5021,14788,23619,0.0
-5129,14687,24039,0.0
-5239,14587,24471,0.0
-5357,14493,24934,0.0
-5408,14218,25087,0.0
-5444,13900,25168,0.0
-5461,13539,25165,0.0
-5844,14063,26841,0.0
-5979,13961,27376,0.0
-6113,13845,27902,0.0
-6237,13695,28381,0.0
-6382,13577,28949,0.0
-6448,13286,29162,0.0
-6598,13159,29750,0.0
-6777,13078,30471,0.0
-6956,12976,31181,0.0
-7156,12898,31986,0.0
-7241,12602,32277,0.0
-7237,12149,32166,0.0
-7259,11746,32174,0.0
-7246,11292,32027,0.0
-5503,8250,24255,0.0
