//X,Y,Z,Classification
-6987.0,-3811.0,17938.0,0.0
-6995.0,-4024.0,17914.0,0.0
-7002.0,-4237.0,17887.0,0.0
-7000.0,-4446.0,17838.0,0.0
-7008.0,-4660.0,17812.0,0.0
-7005.0,-4866.0,17757.0,0.0
-7008.0,-5078.0,17719.0,0.0
-7016.0,-5294.0,17689.0,0.0
-7020.0,-5507.0,17650.0,0.0
-7019.0,-5716.0,17598.0,0.0
-7012.0,-5920.0,17530.0,0.0
-7023.0,-6141.0,17510.0,0.0
-7016.0,-6345.0,17440.0,0.0
-7030.0,-6570.0,17423.0,0.0
-7038.0,-6789.0,17390.0,0.0
-7037.0,-7000.0,17334.0,0.0
-7044.0,-7220.0,17298.0,0.0
-7043.0,-7432.0,17241.0,0.0
-7030.0,-7632.0,17155.0,0.0
-7044.0,-7862.0,17132.0,0.0
-7054.0,-8088.0,17099.0,0.0
-7050.0,-8300.0,17033.0,0.0
-7051.0,-8517.0,16978.0,0.0
-7055.0,-8740.0,16929.0,0.0
-7053.0,-8954.0,16863.0,0.0
-7060.0,-9183.0,16821.0,0.0
-7061.0,-9403.0,16762.0,0.0
-7067.0,-9631.0,16712.0,0.0
-7065.0,-9850.0,16645.0,0.0
-7067.0,-10076.0,16586.0,0.0
-7069.0,-10304.0,16528.0,0.0
-7073.0,-10532.0,16470.0,0.0
-7076.0,-10763.0,16410.0,0.0
-7079.0,-10995.0,16351.0,0.0
-7075.0,-11217.0,16272.0,0.0
-7079.0,-11451.0,16212.0,0.0
-7074.0,-11674.0,16131.0,0.0
-7083.0,-11921.0,16080.0,0.0
-7098.0,-12180.0,16041.0,0.0
-7093.0,-12407.0,15957.0,0.0
-7097.0,-12649.0,15890.0,0.0
-7109.0,-12910.0,15841.0,0.0
-7104.0,-13140.0,15752.0,0.0
-7106.0,-13387.0,15681.0,0.0
-7116.0,-13648.0,15621.0,0.0
-7123.0,-13909.0,15557.0,0.0
-7124.0,-14158.0,15478.0,0.0
-7136.0,-14429.0,15418.0,0.0
-7140.0,-14691.0,15344.0,0.0
-7149.0,-14965.0,15278.0,0.0
-7151.0,-15224.0,15193.0,0.0
-7163.0,-15509.0,15131.0,0.0
-7159.0,-15762.0,15032.0,0.0
-7181.0,-16073.0,14984.0,0.0
-9069.0,-20635.0,18806.0,0.0
-9073.0,-20984.0,18693.0,0.0
-9112.0,-21421.0,18653.0,0.0
-9099.0,-21735.0,18500.0,0.0
-38.0,-93.0,78.0,0.0
-39.0,-97.0,79.0,0.0
-42.0,-107.0,86.0,0.0
-50.0,-128.0,100.0,0.0
-47.0,-122.0,92.0,0.0
-47.0,-127.0,93.0,0.0
-46.0,-125.0,91.0,0.0
-44.0,-122.0,86.0,0.0
-47.0,-131.0,90.0,0.0
-44.0,-126.0,85.0,0.0
-44.0,-128.0,84.0,0.0
-50.0,-145.0,93.0,0.0
-53.0,-155.0,97.0,0.0
-53.0,-161.0,99.0,0.0
-53.0,-164.0,97.0,0.0
-52.0,-161.0,93.0,0.0
-50.0,-157.0,89.0,0.0
-54.0,-174.0,96.0,0.0
-56.0,-182.0,98.0,0.0
-56.0,-182.0,95.0,0.0
-56.0,-186.0,94.0,0.0
-58.0,-196.0,97.0,0.0
-55.0,-193.0,92.0,0.0
-60.0,-210.0,99.0,0.0
-61.0,-216.0,98.0,0.0
-59.0,-215.0,95.0,0.0
-61.0,-222.0,96.0,0.0
-59.0,-219.0,92.0,0.0
-62.0,-231.0,93.0,0.0
-62.0,-240.0,94.0,0.0
-71.0,-275.0,104.0,0.0
-83.0,-328.0,120.0,0.0
-81.0,-325.0,115.0,0.0
-81.0,-329.0,112.0,0.0
-79.0,-326.0,107.0,0.0
-76.0,-322.0,101.0,0.0
-76.0,-327.0,100.0,0.0
-75.0,-327.0,96.0,0.0
-76.0,-333.0,93.0,0.0
-74.0,-334.0,90.0,0.0
-73.0,-330.0,85.0,0.0
-4682.0,15844.0,14170.0,0.0
-4773.0,15798.0,14436.0,0.0
-4867.0,15757.0,14712.0,0.0
-4950.0,15677.0,14956.0,0.0
-5028.0,15575.0,15184.0,0.0
-5341.0,16179.0,16117.0,0.0
0.0,0.0,0.0,0.0
-5286.0,15313.0,15929.0,0.0
-5276.0,14946.0,15887.0,0.0
-5248.0,14538.0,15795.0,0.0
-5311.0,14381.0,15970.0,0.0
-6296.0,16667.0,18920.0,0.0
-6267.0,16217.0,18818.0,0.0
-6212.0,15711.0,18638.0,0.0
-6085.0,15039.0,18243.0,0.0
-6183.0,14933.0,18524.0,0.0
-6179.0,14577.0,18494.0,0.0
-6190.0,14264.0,18512.0,0.0
-6198.0,13948.0,18518.0,0.0
-10487.0,23040.0,31304.0,0.0
-10135.0,21740.0,30230.0,0.0
-10161.0,21271.0,30276.0,0.0
-10144.0,20720.0,30198.0,0.0
-10158.0,20241.0,30211.0,0.0
-10343.0,20099.0,30729.0,0.0
-10170.0,19268.0,30186.0,0.0
-10307.0,19032.0,30560.0,0.0
-10467.0,18834.0,31006.0,0.0
-10459.0,18330.0,30948.0,0.0
-11403.0,19458.0,33705.0,0.0
-11378.0,18898.0,33595.0,0.0
-11345.0,18332.0,33461.0,0.0
-11328.0,17802.0,33374.0,0.0
-11298.0,17259.0,33248.0,0.0
-11301.0,16772.0,33218.0,0.0
-11259.0,16228.0,33057.0,0.0
-11243.0,15729.0,32971.0,0.0
-11226.0,15233.0,32881.0,0.0
-10210.0,13431.0,29871.0,0.0
-10204.0,13005.0,29818.0,0.0
-10206.0,12592.0,29785.0,0.0
-10350.0,12353.0,30167.0,0.0
-10505.0,12120.0,30579.0,0.0
-11129.0,12401.0,32353.0,0.0
-11083.0,11916.0,32176.0,0.0
0.0,0.0,0.0,0.0
-11082.0,11063.0,32089.0,0.0
0.0,0.0,0.0,0.0
0.0,0.0,0.0,0.0
0.0,0.0,0.0,0.0
0.0,0.0,0.0,0.0
-8745.0,7097.0,25147.0,0.0
-8755.0,6785.0,25137.0,0.0
-8743.0,6460.0,25067.0,0.0
-8725.0,6133.0,24975.0,0.0
-8738.0,5831.0,24978.0,0.0
-8723.0,5512.0,24895.0,0.0
-8709.0,5198.0,24817.0,0.0
-8697.0,4888.0,24746.0,0.0
-8695.0,4585.0,24700.0,0.0
-8687.0,4281.0,24636.0,0.0
-8680.0,3980.0,24574.0,0.0
-8674.0,3683.0,24521.0,0.0
-8676.0,3391.0,24484.0,0.0
-8680.0,3099.0,24453.0,0.0
-8680.0,2810.0,24412.0,0.0
-8680.0,2521.0,24367.0,0.0
-8674.0,2232.0,24310.0,0.0
-6893.0,1547.0,19283.0,0.0
-6897.0,1321.0,19261.0,0.0
-6890.0,1096.0,19207.0,0.0
-6892.0,872.0,19174.0,0.0
-6894.0,649.0,19147.0,0.0
-6883.0,426.0,19081.0,0.0
-6876.0,205.0,19022.0,0.0
-6863.0,-14.0,18949.0,0.0
-6869.0,-232.0,18928.0,0.0
-6865.0,-451.0,18880.0,0.0
-6862.0,-668.0,18834.0,0.0
-6850.0,-883.0,18764.0,0.0
-6851.0,-1099.0,18729.0,0.0
-6849.0,-1313.0,18682.0,0.0
-6843.0,-1526.0,18629.0,0.0
-6839.0,-1739.0,18577.0,0.0
-6841.0,-1953.0,18540.0,0.0
-6835.0,-2164.0,18485.0,0.0
-6834.0,-2376.0,18443.0,0.0
-6832.0,-2586.0,18392.0,0.0
-6833.0,-2798.0,18352.0,0.0
-6841.0,-3014.0,18332.0,0.0
-6832.0,-3221.0,18265.0,0.0
-6830.0,-3430.0,18217.0,0.0
-6830.0,-3640.0,18171.0,0.0
-6830.0,-3852.0,18130.0,0.0
-6820.0,-4056.0,18057.0,0.0
-6823.0,-4267.0,18020.0,0.0
-6823.0,-4478.0,17975.0,0.0
-6823.0,-4686.0,17927.0,0.0
-6824.0,-4898.0,17886.0,0.0
-6822.0,-5107.0,17832.0,0.0
-6820.0,-5315.0,17778.0,0.0
-6821.0,-5526.0,17733.0,0.0
-6818.0,-5734.0,17675.0,0.0
-6818.0,-5945.0,17626.0,0.0
-6815.0,-6153.0,17568.0,0.0
-6822.0,-6371.0,17536.0,0.0
-6824.0,-6584.0,17491.0,0.0
-6821.0,-6792.0,17428.0,0.0
-6830.0,-7014.0,17399.0,0.0
-6823.0,-7220.0,17329.0,0.0
-6831.0,-7442.0,17297.0,0.0
-6827.0,-7651.0,17231.0,0.0
-6829.0,-7869.0,17181.0,0.0
-6830.0,-8084.0,17128.0,0.0
-6830.0,-8300.0,17072.0,0.0
-6836.0,-8525.0,17030.0,0.0
-6836.0,-8742.0,16972.0,0.0
-6840.0,-8965.0,16922.0,0.0
-6840.0,-9184.0,16864.0,0.0
-6845.0,-9410.0,16814.0,0.0
-6852.0,-9642.0,16772.0,0.0
-6858.0,-9872.0,16724.0,0.0
-6865.0,-10105.0,16677.0,0.0
-6861.0,-10322.0,16604.0,0.0
-6878.0,-10574.0,16581.0,0.0
-6874.0,-10793.0,16504.0,0.0
-6881.0,-11034.0,16455.0,0.0
-6891.0,-11280.0,16413.0,0.0
-6891.0,-11510.0,16342.0,0.0
-6894.0,-11748.0,16281.0,0.0
-6911.0,-12012.0,16252.0,0.0
-6911.0,-12247.0,16180.0,0.0
-6916.0,-12493.0,16118.0,0.0
-6923.0,-12745.0,16061.0,0.0
-6921.0,-12981.0,15981.0,0.0
-6935.0,-13249.0,15936.0,0.0
-6938.0,-13500.0,15867.0,0.0
-6947.0,-13764.0,15808.0,0.0
-6958.0,-14034.0,15755.0,0.0
-6958.0,-14288.0,15675.0,0.0
-6966.0,-14556.0,15610.0,0.0
-6981.0,-14843.0,15559.0,0.0
-6986.0,-15110.0,15484.0,0.0
-7005.0,-15412.0,15439.0,0.0
-7009.0,-15685.0,15361.0,0.0
-7016.0,-15966.0,15287.0,0.0
-7026.0,-16258.0,15218.0,0.0
-7039.0,-16559.0,15152.0,0.0
-7044.0,-16845.0,15067.0,0.0
-8910.0,-21658.0,18939.0,0.0
-10242.0,-25302.0,21627.0,0.0
-37.0,-94.0,79.0,0.0
-39.0,-101.0,83.0,0.0
-37.0,-99.0,79.0,0.0
-42.0,-114.0,89.0,0.0
-45.0,-121.0,93.0,0.0
-50.0,-136.0,101.0,0.0
-54.0,-151.0,110.0,0.0
-52.0,-147.0,104.0,0.0
-49.0,-142.0,99.0,0.0
-49.0,-142.0,97.0,0.0
-54.0,-160.0,106.0,0.0
-49.0,-148.0,95.0,0.0
-51.0,-158.0,99.0,0.0
-54.0,-171.0,105.0,0.0
-50.0,-159.0,95.0,0.0
-53.0,-169.0,98.0,0.0
-52.0,-170.0,96.0,0.0
-55.0,-184.0,102.0,0.0
-54.0,-180.0,97.0,0.0
-55.0,-190.0,100.0,0.0
-56.0,-194.0,99.0,0.0
-58.0,-205.0,102.0,0.0
-56.0,-199.0,96.0,0.0
-57.0,-207.0,97.0,0.0
-57.0,-207.0,95.0,0.0
-58.0,-218.0,97.0,0.0
-62.0,-236.0,102.0,0.0
-61.0,-233.0,97.0,0.0
-61.0,-240.0,97.0,0.0
-61.0,-244.0,96.0,0.0
-67.0,-274.0,104.0,0.0
-76.0,-309.0,114.0,0.0
-77.0,-321.0,114.0,0.0
-77.0,-325.0,112.0,0.0
-75.0,-322.0,107.0,0.0
-72.0,-317.0,101.0,0.0
-71.0,-319.0,98.0,0.0
-72.0,-323.0,96.0,0.0
-69.0,-319.0,90.0,0.0
-69.0,-321.0,88.0,0.0
-68.0,-324.0,85.0,0.0
-4493.0,15822.0,14224.0,0.0
-4581.0,15771.0,14486.0,0.0
-4669.0,15722.0,14755.0,0.0
-4762.0,15678.0,15034.0,0.0
-4852.0,15618.0,15302.0,0.0
-4940.0,15550.0,15568.0,0.0
-5019.0,15442.0,15799.0,0.0
-5116.0,15388.0,16088.0,0.0
-5071.0,14915.0,15935.0,0.0
-5134.0,14758.0,16114.0,0.0
-5825.0,16367.0,18266.0,0.0
-5951.0,16342.0,18642.0,0.0
-5988.0,16070.0,18740.0,0.0
-5961.0,15629.0,18634.0,0.0
-5931.0,15194.0,18522.0,0.0
-5901.0,14769.0,18412.0,0.0
-5971.0,14594.0,18608.0,0.0
-5977.0,14267.0,18607.0,0.0
-5983.0,13944.0,18605.0,0.0
-6037.0,13736.0,18755.0,0.0
-9740.0,21625.0,30218.0,0.0
-9802.0,21236.0,30378.0,0.0
-9744.0,20593.0,30162.0,0.0
-9769.0,20138.0,30208.0,0.0
-9823.0,19745.0,30339.0,0.0
-9834.0,19269.0,30338.0,0.0
-9745.0,18607.0,30027.0,0.0
-9998.0,18596.0,30768.0,0.0
-10049.0,18202.0,30887.0,0.0
-10961.0,19330.0,33653.0,0.0
-10931.0,18760.0,33519.0,0.0
-10894.0,18185.0,33361.0,0.0
-10890.0,17676.0,33308.0,0.0
-10893.0,17184.0,33275.0,0.0
-10856.0,16637.0,33120.0,0.0
-10827.0,16110.0,32989.0,0.0
-9963.0,14387.0,30318.0,0.0
-10150.0,14215.0,30846.0,0.0
-9850.0,13369.0,29891.0,0.0
-9837.0,12935.0,29815.0,0.0
-9906.0,12608.0,29982.0,0.0
-9916.0,12207.0,29971.0,0.0
-10109.0,12027.0,30513.0,0.0
-10414.0,11965.0,31386.0,0.0
-10700.0,11860.0,32204.0,0.0
0.0,0.0,0.0,0.0
-10730.0,11038.0,32201.0,0.0
0.0,0.0,0.0,0.0
0.0,0.0,0.0,0.0
0.0,0.0,0.0,0.0
-10531.0,9199.0,31419.0,0.0
-8583.0,7172.0,25569.0,0.0
-8613.0,6871.0,25616.0,0.0
-9050.0,6882.0,26877.0,0.0
-9290.0,6720.0,27545.0,0.0
-9552.0,6558.0,28277.0,0.0
-9763.0,6347.0,28857.0,0.0
-9826.0,6030.0,28994.0,0.0
-9801.0,5662.0,28874.0,0.0
-9773.0,5295.0,28742.0,0.0
-9739.0,4931.0,28595.0,0.0
-9343.0,4400.0,27387.0,0.0
-9579.0,4175.0,28031.0,0.0
-9700.0,3890.0,28335.0,0.0
-9672.0,3543.0,28205.0,0.0
-9651.0,3202.0,28096.0,0.0
-9635.0,2865.0,27998.0,0.0
-9575.0,2521.0,27772.0,0.0
-6649.0,1524.0,19252.0,0.0
-6640.0,1298.0,19191.0,0.0
-6636.0,1074.0,19144.0,0.0
-6631.0,851.0,19092.0,0.0
-6619.0,628.0,19023.0,0.0
-6615.0,408.0,18974.0,0.0
-6611.0,189.0,18926.0,0.0
-6620.0,-28.0,18914.0,0.0
-6599.0,-245.0,18816.0,0.0
-6598.0,-461.0,18776.0,0.0
-6591.0,-675.0,18720.0,0.0
-6598.0,-891.0,18699.0,0.0
-6600.0,-1105.0,18666.0,0.0
-6597.0,-1318.0,18620.0,0.0
-6598.0,-1532.0,18582.0,0.0
-6596.0,-1744.0,18536.0,0.0
-6582.0,-1951.0,18456.0,0.0
-6591.0,-2166.0,18443.0,0.0
-6596.0,-2378.0,18413.0,0.0
-6594.0,-2588.0,18366.0,0.0
-6594.0,-2799.0,18323.0,0.0
-6596.0,-3010.0,18289.0,0.0
-6589.0,-3216.0,18224.0,0.0
-6595.0,-3429.0,18197.0,0.0
-6595.0,-3639.0,18154.0,0.0
-6594.0,-3848.0,18109.0,0.0
-6593.0,-4057.0,18061.0,0.0
-6598.0,-4268.0,18028.0,0.0
-6594.0,-4475.0,17974.0,0.0
-6594.0,-4684.0,17926.0,0.0
-6598.0,-4896.0,17892.0,0.0
-6597.0,-5105.0,17843.0,0.0
-6591.0,-5309.0,17778.0,0.0
-6603.0,-5530.0,17764.0,0.0
-6594.0,-5732.0,17691.0,0.0
-6593.0,-5940.0,17637.0,0.0
-6595.0,-6153.0,17594.0,0.0
-6567.0,-6338.0,17472.0,0.0
-6597.0,-6577.0,17500.0,0.0
-6601.0,-6792.0,17457.0,0.0
-6592.0,-6995.0,17383.0,0.0
-6601.0,-7218.0,17355.0,0.0
-6601.0,-7430.0,17299.0,0.0
-6600.0,-7643.0,17244.0,0.0
-6602.0,-7858.0,17195.0,0.0
-6601.0,-8073.0,17139.0,0.0
-6610.0,-8299.0,17106.0,0.0
-6610.0,-8516.0,17049.0,0.0
-6614.0,-8738.0,17004.0,0.0
-6616.0,-8958.0,16950.0,0.0
-6613.0,-9174.0,16885.0,0.0
-6619.0,-9402.0,16842.0,0.0
-6624.0,-9629.0,16793.0,0.0
-6628.0,-9858.0,16743.0,0.0
-6627.0,-10080.0,16680.0,0.0
-6640.0,-10324.0,16649.0,0.0
-6641.0,-10552.0,16590.0,0.0
-6639.0,-10774.0,16518.0,0.0
-6646.0,-11014.0,16473.0,0.0
-6651.0,-11252.0,16420.0,0.0
-6658.0,-11494.0,16368.0,0.0
-6657.0,-11726.0,16299.0,0.0
-6661.0,-11967.0,16240.0,0.0
-6664.0,-12207.0,16175.0,0.0
-6673.0,-12461.0,16126.0,0.0
-6679.0,-12711.0,16070.0,0.0
-6682.0,-12958.0,16003.0,0.0
-6690.0,-13216.0,15949.0,0.0
-6698.0,-13478.0,15893.0,0.0
-6700.0,-13727.0,15819.0,0.0
-6708.0,-13993.0,15761.0,0.0
-6722.0,-14275.0,15715.0,0.0
-6721.0,-14526.0,15632.0,0.0
-6724.0,-14787.0,15556.0,0.0
-6736.0,-15073.0,15502.0,0.0
-6736.0,-15335.0,15419.0,0.0
-6743.0,-15614.0,15350.0,0.0
-6752.0,-15899.0,15281.0,0.0
-6761.0,-16192.0,15214.0,0.0
-6760.0,-16460.0,15121.0,0.0
-6765.0,-16748.0,15041.0,0.0
-9934.0,-25000.0,21949.0,0.0
-28.0,-75.0,65.0,0.0
-31.0,-85.0,71.0,0.0
-37.0,-102.0,84.0,0.0
-36.0,-97.0,78.0,0.0
-31.0,-88.0,69.0,0.0
-31.0,-89.0,69.0,0.0
-40.0,-114.0,86.0,0.0
-42.0,-121.0,89.0,0.0
-42.0,-123.0,88.0,0.0
-44.0,-130.0,90.0,0.0
-41.0,-127.0,86.0,0.0
-44.0,-136.0,91.0,0.0
-44.0,-139.0,90.0,0.0
-49.0,-157.0,99.0,0.0
-51.0,-162.0,100.0,0.0
-44.0,-145.0,88.0,0.0
-48.0,-160.0,94.0,0.0
-50.0,-170.0,97.0,0.0
-48.0,-167.0,93.0,0.0
-49.0,-171.0,92.0,0.0
-47.0,-170.0,90.0,0.0
-52.0,-185.0,96.0,0.0
-55.0,-204.0,102.0,0.0
-51.0,-188.0,91.0,0.0
-55.0,-208.0,98.0,0.0
-53.0,-205.0,94.0,0.0
-53.0,-208.0,94.0,0.0
-55.0,-216.0,94.0,0.0
-55.0,-219.0,92.0,0.0
-55.0,-226.0,93.0,0.0
-57.0,-238.0,94.0,0.0
-59.0,-250.0,95.0,0.0
-73.0,-313.0,116.0,0.0
-74.0,-321.0,115.0,0.0
-73.0,-324.0,112.0,0.0
-72.0,-321.0,107.0,0.0
-71.0,-325.0,105.0,0.0
-69.0,-320.0,100.0,0.0
-68.0,-323.0,97.0,0.0
-68.0,-327.0,94.0,0.0
-66.0,-320.0,88.0,0.0
-65.0,-324.0,86.0,0.0
-4311.0,15822.0,14295.0,0.0
-4395.0,15767.0,14553.0,0.0
-4480.0,15712.0,14819.0,0.0
-4567.0,15657.0,15088.0,0.0
-4656.0,15602.0,15361.0,0.0
-4717.0,15451.0,15546.0,0.0
-4837.0,15483.0,15917.0,0.0
-4908.0,15356.0,16133.0,0.0
-4933.0,15081.0,16191.0,0.0
-4930.0,14731.0,16163.0,0.0
-4966.0,14501.0,16261.0,0.0
-5299.0,15117.0,17329.0,0.0
-5798.0,16159.0,18935.0,0.0
-5828.0,15866.0,19008.0,0.0
-5530.0,14705.0,18013.0,0.0
-5720.0,14856.0,18608.0,0.0
-5515.0,13986.0,17918.0,0.0
-5746.0,14227.0,18645.0,0.0
-5783.0,13979.0,18742.0,0.0
-5811.0,13709.0,18808.0,0.0
-9369.0,21564.0,30280.0,0.0
-9419.0,21148.0,30397.0,0.0
-7218.0,15809.0,23266.0,0.0
-7224.0,15428.0,23255.0,0.0
-7216.0,15023.0,23196.0,0.0
-7203.0,14613.0,23121.0,0.0
-7196.0,14225.0,23068.0,0.0
-9571.0,18429.0,30641.0,0.0
-7178.0,13459.0,22949.0,0.0
-7183.0,13108.0,22933.0,0.0
-10509.0,18658.0,33502.0,0.0
-10493.0,18121.0,33408.0,0.0
-10476.0,17587.0,33305.0,0.0
-10461.0,17065.0,33209.0,0.0
-10442.0,16544.0,33102.0,0.0
-10433.0,16046.0,33023.0,0.0
-10414.0,15542.0,32917.0,0.0
-10397.0,15046.0,32815.0,0.0
-9470.0,13280.0,29845.0,0.0
-9464.0,12855.0,29784.0,0.0
-9592.0,12609.0,30142.0,0.0
-9731.0,12370.0,30532.0,0.0
-9746.0,11972.0,30533.0,0.0
-10216.0,12118.0,31959.0,0.0
-10289.0,11771.0,32135.0,0.0
-10282.0,11336.0,32064.0,0.0
-10306.0,10939.0,32091.0,0.0
0.0,0.0,0.0,0.0
0.0,0.0,0.0,0.0
0.0,0.0,0.0,0.0
-10138.0,9130.0,31368.0,0.0
-10175.0,8763.0,31431.0,0.0
-8548.0,7029.0,26365.0,0.0
-8603.0,6741.0,26493.0,0.0
-9022.0,6723.0,27733.0,0.0
-9221.0,6520.0,28300.0,0.0
-9460.0,6332.0,28985.0,0.0
-9466.0,5980.0,28953.0,0.0
-9448.0,5617.0,28849.0,0.0
-9424.0,5255.0,28729.0,0.0
-9392.0,4890.0,28579.0,0.0
-9385.0,4544.0,28508.0,0.0
-9341.0,4184.0,28325.0,0.0
-9346.0,3850.0,28291.0,0.0
-9332.0,3509.0,28196.0,0.0
-9315.0,3171.0,28095.0,0.0
-9296.0,2834.0,27988.0,0.0
-9287.0,2504.0,27907.0,0.0
-6405.0,1502.0,19213.0,0.0
-6428.0,1284.0,19246.0,0.0
-6393.0,1054.0,19106.0,0.0
-6418.0,836.0,19141.0,0.0
-6421.0,615.0,19112.0,0.0
-6417.0,395.0,19063.0,0.0
-6410.0,175.0,19008.0,0.0
-6404.0,-41.0,18950.0,0.0
-6408.0,-259.0,18926.0,0.0
-6401.0,-475.0,18864.0,0.0
-6385.0,-689.0,18780.0,0.0
-6389.0,-904.0,18753.0,0.0
-6383.0,-1117.0,18696.0,0.0
-6384.0,-1330.0,18659.0,0.0
-6377.0,-1541.0,18597.0,0.0
-6382.0,-1755.0,18574.0,0.0
-6381.0,-1965.0,18529.0,0.0
-6375.0,-2174.0,18471.0,0.0
-6375.0,-2386.0,18430.0,0.0
-6371.0,-2594.0,18377.0,0.0
-6371.0,-2804.0,18332.0,0.0
-6366.0,-3011.0,18280.0,0.0
-6368.0,-3221.0,18242.0,0.0
-6372.0,-3432.0,18207.0,0.0
-6361.0,-3636.0,18136.0,0.0
-6365.0,-3846.0,18104.0,0.0
-6361.0,-4053.0,18047.0,0.0
-6365.0,-4264.0,18013.0,0.0
-6359.0,-4467.0,17949.0,0.0
-6355.0,-4672.0,17895.0,0.0
-6359.0,-4884.0,17862.0,0.0
-6359.0,-5092.0,17814.0,0.0
-6359.0,-5301.0,17766.0,0.0
-6362.0,-5512.0,17727.0,0.0
-6363.0,-5723.0,17684.0,0.0
-6369.0,-5937.0,17649.0,0.0
-6358.0,-6137.0,17573.0,0.0
-6360.0,-6349.0,17529.0,0.0
-6367.0,-6565.0,17496.0,0.0
-6366.0,-6776.0,17443.0,0.0
-6362.0,-6983.0,17382.0,0.0
-6370.0,-7203.0,17351.0,0.0
-6368.0,-7414.0,17295.0,0.0
-6371.0,-7630.0,17249.0,0.0
-6373.0,-7847.0,17203.0,0.0
-6369.0,-8056.0,17137.0,0.0
-6375.0,-8280.0,17101.0,0.0
-6379.0,-8499.0,17054.0,0.0
-6381.0,-8718.0,17002.0,0.0
-6379.0,-8934.0,16942.0,0.0
-6387.0,-9164.0,16906.0,0.0
-6390.0,-9388.0,16855.0,0.0
-6387.0,-9605.0,16790.0,0.0
-6396.0,-9841.0,16755.0,0.0
-6388.0,-10050.0,16673.0,0.0
-6395.0,-10285.0,16630.0,0.0
-6398.0,-10516.0,16577.0,0.0
-6399.0,-10744.0,16518.0,0.0
-6405.0,-10981.0,16468.0,0.0
-6416.0,-11230.0,16432.0,0.0
-6422.0,-11470.0,16379.0,0.0
-6418.0,-11696.0,16303.0,0.0
-6428.0,-11949.0,16263.0,0.0
-6424.0,-12176.0,16183.0,0.0
-6429.0,-12423.0,16128.0,0.0
-6433.0,-12672.0,16069.0,0.0
-6437.0,-12922.0,16009.0,0.0
-6440.0,-13171.0,15944.0,0.0
-6445.0,-13425.0,15882.0,0.0
-6457.0,-13697.0,15836.0,0.0
-6456.0,-13945.0,15759.0,0.0
-6467.0,-14220.0,15707.0,0.0
-6465.0,-14471.0,15626.0,0.0
-6475.0,-14750.0,15571.0,0.0
-6480.0,-15020.0,15501.0,0.0
-6487.0,-15297.0,15436.0,0.0
-6492.0,-15573.0,15365.0,0.0
-6503.0,-15868.0,15306.0,0.0
-6507.0,-16148.0,15230.0,0.0
-6471.0,-16329.0,15057.0,0.0
-6519.0,-16726.0,15080.0,0.0
-6503.0,-16966.0,14955.0,0.0
-31.0,-85.0,74.0,0.0
-34.0,-94.0,80.0,0.0
-30.0,-85.0,70.0,0.0
-36.0,-102.0,82.0,0.0
-39.0,-110.0,87.0,0.0
-39.0,-115.0,89.0,0.0
-38.0,-112.0,85.0,0.0
-41.0,-122.0,90.0,0.0
-46.0,-141.0,101.0,0.0
-44.0,-135.0,94.0,0.0
-41.0,-132.0,89.0,0.0
-45.0,-145.0,97.0,0.0
-45.0,-147.0,95.0,0.0
-44.0,-145.0,93.0,0.0
-47.0,-160.0,99.0,0.0
-49.0,-168.0,101.0,0.0
-47.0,-163.0,97.0,0.0
-49.0,-175.0,101.0,0.0
-48.0,-173.0,96.0,0.0
-51.0,-185.0,101.0,0.0
-50.0,-185.0,98.0,0.0
-53.0,-197.0,102.0,0.0
-53.0,-201.0,101.0,0.0
-53.0,-208.0,102.0,0.0
-52.0,-203.0,96.0,0.0
-50.0,-202.0,93.0,0.0
-55.0,-223.0,100.0,0.0
-54.0,-224.0,98.0,0.0
-56.0,-232.0,99.0,0.0
-53.0,-224.0,93.0,0.0
-55.0,-238.0,95.0,0.0
-58.0,-255.0,98.0,0.0
-65.0,-291.0,109.0,0.0
-70.0,-315.0,114.0,0.0
-69.0,-320.0,111.0,0.0
-67.0,-316.0,106.0,0.0
-66.0,-311.0,102.0,0.0
-65.0,-315.0,99.0,0.0
-65.0,-319.0,97.0,0.0
-64.0,-324.0,93.0,0.0
-62.0,-318.0,89.0,0.0
-61.0,-320.0,86.0,0.0
-4120.0,15796.0,14340.0,0.0
-4200.0,15733.0,14593.0,0.0
-4287.0,15690.0,14869.0,0.0
-4372.0,15637.0,15140.0,0.0
-4455.0,15570.0,15403.0,0.0
-4541.0,15507.0,15676.0,0.0
-4628.0,15441.0,15949.0,0.0
-4569.0,14894.0,15721.0,0.0
-4766.0,15180.0,16373.0,0.0
-4769.0,14838.0,16356.0,0.0
-4761.0,14471.0,16304.0,0.0
-5084.0,15092.0,17381.0,0.0
-5191.0,15054.0,17722.0,0.0
-5291.0,14982.0,18033.0,0.0
-5392.0,14911.0,18351.0,0.0
-5491.0,14824.0,18656.0,0.0
-5546.0,14616.0,18812.0,0.0
-5601.0,14411.0,18974.0,0.0
-5617.0,14103.0,18997.0,0.0
-5646.0,13830.0,19062.0,0.0
-8991.0,21486.0,30311.0,0.0
-9013.0,21007.0,30336.0,0.0
-8984.0,20420.0,30194.0,0.0
-9036.0,20022.0,30320.0,0.0
-7232.0,15619.0,24229.0,0.0
-7226.0,15206.0,24170.0,0.0
-7223.0,14806.0,24124.0,0.0
-7230.0,14432.0,24109.0,0.0
-7243.0,14074.0,24114.0,0.0
-7231.0,13675.0,24039.0,0.0
-7226.0,13292.0,23982.0,0.0
-7215.0,12906.0,23909.0,0.0
-7236.0,12581.0,23940.0,0.0
-10044.0,16966.0,33176.0,0.0
-10031.0,16455.0,33085.0,0.0
-10011.0,15938.0,32963.0,0.0
-10008.0,15458.0,32902.0,0.0
-9250.0,13849.0,30358.0,0.0
-9185.0,13326.0,30098.0,0.0
-9178.0,12894.0,30026.0,0.0
-9251.0,12576.0,30216.0,0.0
-9252.0,12163.0,30173.0,0.0
-9396.0,11931.0,30589.0,0.0
-9655.0,11836.0,31382.0,0.0
-9875.0,11676.0,32045.0,0.0
0.0,0.0,0.0,0.0
0.0,0.0,0.0,0.0
0.0,0.0,0.0,0.0
0.0,0.0,0.0,0.0
0.0,0.0,0.0,0.0
-9766.0,9081.0,31377.0,0.0
-9804.0,8715.0,31442.0,0.0
-9934.0,8430.0,31807.0,0.0
-8486.0,6861.0,27125.0,0.0
-8573.0,6590.0,27356.0,0.0
-8942.0,6521.0,28482.0,0.0
-9086.0,6271.0,28892.0,0.0
-9109.0,5933.0,28912.0,0.0
-9087.0,5567.0,28791.0,0.0
-9081.0,5215.0,28720.0,0.0
-9058.0,4858.0,28599.0,0.0
-9045.0,4509.0,28503.0,0.0
-9021.0,4158.0,28376.0,0.0
-9008.0,3817.0,28285.0,0.0
-8992.0,3476.0,28181.0,0.0
-8974.0,3138.0,28071.0,0.0
-8961.0,2804.0,27977.0,0.0
-6211.0,1717.0,19359.0,0.0
-6207.0,1491.0,19307.0,0.0
-6130.0,1251.0,19032.0,0.0
-6102.0,1027.0,18906.0,0.0
-6220.0,824.0,19237.0,0.0
-6234.0,604.0,19241.0,0.0
-6226.0,382.0,19177.0,0.0
-6244.0,164.0,19194.0,0.0
-6237.0,-56.0,19134.0,0.0
-6237.0,-274.0,19095.0,0.0
-6245.0,-492.0,19082.0,0.0
-6249.0,-710.0,19051.0,0.0
-6252.0,-927.0,19023.0,0.0
-6243.0,-1142.0,18955.0,0.0
-6256.0,-1360.0,18955.0,0.0
-6253.0,-1575.0,18905.0,0.0
-6254.0,-1789.0,18866.0,0.0
-6253.0,-2004.0,18824.0,0.0
-6261.0,-2220.0,18803.0,0.0
-6251.0,-2430.0,18733.0,0.0
-6270.0,-2651.0,18748.0,0.0
-6265.0,-2862.0,18689.0,0.0
-6273.0,-3079.0,18671.0,0.0
-6268.0,-3289.0,18612.0,0.0
-6264.0,-3499.0,18554.0,0.0
-6275.0,-3719.0,18545.0,0.0
-6283.0,-3936.0,18525.0,0.0
-6278.0,-4146.0,18465.0,0.0
-6276.0,-4357.0,18413.0,0.0
-6283.0,-4574.0,18387.0,0.0
-6287.0,-4789.0,18351.0,0.0
-6296.0,-5009.0,18332.0,0.0
-6298.0,-5224.0,18291.0,0.0
-6291.0,-5432.0,18224.0,0.0
-6299.0,-5652.0,18196.0,0.0
-6304.0,-5871.0,18163.0,0.0
-6284.0,-6067.0,18058.0,0.0
-6299.0,-6297.0,18053.0,0.0
-6092.0,-6296.0,17409.0,0.0
-6270.0,-6696.0,17869.0,0.0
-6300.0,-6944.0,17903.0,0.0
-6282.0,-7139.0,17800.0,0.0
-6262.0,-7331.0,17691.0,0.0
-6276.0,-7566.0,17679.0,0.0
-6277.0,-7783.0,17628.0,0.0
-6271.0,-7993.0,17557.0,0.0
-6288.0,-8235.0,17552.0,0.0
-6278.0,-8441.0,17468.0,0.0
-6267.0,-8645.0,17384.0,0.0
-6268.0,-8868.0,17329.0,0.0
-6259.0,-9077.0,17250.0,0.0
-6089.0,-9046.0,16726.0,0.0
-6255.0,-9515.0,17124.0,0.0
-6257.0,-9742.0,17070.0,0.0
-6249.0,-9954.0,16988.0,0.0
-6272.0,-10217.0,16992.0,0.0
-6274.0,-10449.0,16936.0,0.0
-6270.0,-10672.0,16866.0,0.0
-6279.0,-10917.0,16827.0,0.0
-6277.0,-11147.0,16760.0,0.0
-6296.0,-11414.0,16746.0,0.0
-6310.0,-11673.0,16716.0,0.0
-6294.0,-11883.0,16610.0,0.0
-6313.0,-12158.0,16594.0,0.0
-6314.0,-12399.0,16528.0,0.0
-6346.0,-12706.0,16543.0,0.0
-6333.0,-12924.0,16438.0,0.0
-6350.0,-13208.0,16412.0,0.0
-6346.0,-13449.0,16331.0,0.0
-6348.0,-13704.0,16263.0,0.0
-6368.0,-14001.0,16239.0,0.0
-6371.0,-14265.0,16172.0,0.0
-6373.0,-14529.0,16102.0,0.0
-6379.0,-14805.0,16040.0,0.0
-6377.0,-15064.0,15957.0,0.0
-6385.0,-15348.0,15895.0,0.0
-6385.0,-15616.0,15814.0,0.0
-6391.0,-15905.0,15747.0,0.0
-6405.0,-16212.0,15695.0,0.0
-6396.0,-16468.0,15588.0,0.0
-6251.0,-16368.0,15149.0,0.0
-6236.0,-16605.0,15027.0,0.0
-31.0,-87.0,78.0,0.0
-34.0,-95.0,83.0,0.0
-33.0,-94.0,81.0,0.0
-40.0,-114.0,94.0,0.0
-32.0,-93.0,76.0,0.0
-30.0,-92.0,73.0,0.0
-33.0,-102.0,79.0,0.0
-35.0,-108.0,81.0,0.0
-40.0,-125.0,92.0,0.0
-38.0,-120.0,87.0,0.0
-42.0,-139.0,97.0,0.0
-38.0,-123.0,84.0,0.0
-41.0,-135.0,91.0,0.0
-42.0,-144.0,94.0,0.0
-41.0,-144.0,92.0,0.0
-42.0,-148.0,92.0,0.0
-47.0,-165.0,100.0,0.0
-40.0,-146.0,87.0,0.0
-46.0,-169.0,98.0,0.0
-44.0,-168.0,94.0,0.0
-49.0,-184.0,101.0,0.0
-47.0,-181.0,97.0,0.0
-51.0,-199.0,104.0,0.0
-49.0,-194.0,98.0,0.0
-48.0,-195.0,96.0,0.0
-46.0,-190.0,92.0,0.0
-48.0,-202.0,94.0,0.0
-48.0,-203.0,92.0,0.0
-50.0,-214.0,94.0,0.0
-50.0,-223.0,95.0,0.0
-50.0,-223.0,93.0,0.0
-50.0,-228.0,92.0,0.0
-51.0,-233.0,91.0,0.0
-59.0,-274.0,103.0,0.0
-66.0,-312.0,114.0,0.0
-65.0,-317.0,112.0,0.0
-64.0,-315.0,107.0,0.0
-63.0,-317.0,104.0,0.0
-63.0,-322.0,102.0,0.0
-61.0,-317.0,96.0,0.0
-61.0,-321.0,94.0,0.0
-61.0,-324.0,91.0,0.0
-60.0,-327.0,88.0,0.0
-3938.0,15802.0,14413.0,0.0
-4016.0,15739.0,14667.0,0.0
-4099.0,15694.0,14942.0,0.0
-4181.0,15635.0,15208.0,0.0
-4262.0,15569.0,15474.0,0.0
-4349.0,15513.0,15754.0,0.0
-4405.0,15351.0,15928.0,0.0
-4496.0,15303.0,16227.0,0.0
-4442.0,14764.0,15998.0,0.0
-4513.0,14649.0,16223.0,0.0
-4604.0,14592.0,16517.0,0.0
-4738.0,14666.0,16968.0,0.0
-4981.0,15053.0,17802.0,0.0
-5078.0,14981.0,18113.0,0.0
-5182.0,14924.0,18450.0,0.0
-5283.0,14853.0,18778.0,0.0
-5333.0,14634.0,18921.0,0.0
-5425.0,14526.0,19211.0,0.0
-5341.0,13954.0,18881.0,0.0
-5422.0,13815.0,19130.0,0.0
-5529.0,13742.0,19473.0,0.0
-6664.0,16150.0,23428.0,0.0
-8610.0,20341.0,30214.0,0.0
-6900.0,15888.0,24169.0,0.0
-7008.0,15724.0,24504.0,0.0
-6992.0,15283.0,24406.0,0.0
-6979.0,14858.0,24318.0,0.0
-6978.0,14462.0,24271.0,0.0
-6970.0,14060.0,24202.0,0.0
-6938.0,13615.0,24045.0,0.0
-6932.0,13231.0,23983.0,0.0
-6894.0,12794.0,23811.0,0.0
-9645.0,17392.0,33251.0,0.0
-9646.0,16897.0,33197.0,0.0
-9623.0,16365.0,33058.0,0.0
-9624.0,15885.0,33008.0,0.0
-9606.0,15378.0,32889.0,0.0
-9610.0,14911.0,32842.0,0.0
-8989.0,13511.0,30665.0,0.0
-8872.0,12911.0,30214.0,0.0
-9037.0,12724.0,30723.0,0.0
-8939.0,12167.0,30335.0,0.0
-9055.0,11905.0,30675.0,0.0
-9270.0,11764.0,31349.0,0.0
-9429.0,11539.0,31830.0,0.0
0.0,0.0,0.0,0.0
0.0,0.0,0.0,0.0
0.0,0.0,0.0,0.0
0.0,0.0,0.0,0.0
0.0,0.0,0.0,0.0
-9386.0,9022.0,31347.0,0.0
-9404.0,8640.0,31350.0,0.0
-9612.0,8428.0,31985.0,0.0
-7712.0,6441.0,25617.0,0.0
-8448.0,6707.0,28010.0,0.0
-8514.0,6412.0,28179.0,0.0
-8749.0,6233.0,28904.0,0.0
-8759.0,5887.0,28882.0,0.0
-8753.0,5534.0,28811.0,0.0
-8736.0,5176.0,28702.0,0.0
-8721.0,4823.0,28596.0,0.0
-8700.0,4471.0,28473.0,0.0
-8692.0,4129.0,28394.0,0.0
-8681.0,3788.0,28306.0,0.0
-8661.0,3447.0,28187.0,0.0
-8643.0,3109.0,28074.0,0.0
-8638.0,2780.0,28003.0,0.0
-5949.0,1689.0,19250.0,0.0
-5938.0,1464.0,19176.0,0.0
-5965.0,1247.0,19224.0,0.0
-5955.0,1024.0,19154.0,0.0
-5949.0,803.0,19098.0,0.0
-5962.0,585.0,19101.0,0.0
-5955.0,365.0,19039.0,0.0
-5953.0,148.0,18995.0,0.0
-5944.0,-67.0,18926.0,0.0
-5949.0,-283.0,18903.0,0.0
-5939.0,-497.0,18835.0,0.0
-5943.0,-711.0,18805.0,0.0
-5938.0,-924.0,18751.0,0.0
-5941.0,-1137.0,18719.0,0.0
-5933.0,-1347.0,18653.0,0.0
-5932.0,-1558.0,18611.0,0.0
-5926.0,-1767.0,18554.0,0.0
-5922.0,-1975.0,18496.0,0.0
-5927.0,-2187.0,18474.0,0.0
-5931.0,-2398.0,18443.0,0.0
-5920.0,-2602.0,18369.0,0.0
-5920.0,-2809.0,18324.0,0.0
-5912.0,-3014.0,18260.0,0.0
-5914.0,-3223.0,18224.0,0.0
-5911.0,-3428.0,18168.0,0.0
-5904.0,-3631.0,18109.0,0.0
-5908.0,-3841.0,18076.0,0.0
-5904.0,-4045.0,18019.0,0.0
-5903.0,-4251.0,17972.0,0.0
-5899.0,-4455.0,17916.0,0.0
-5908.0,-4667.0,17898.0,0.0
-5902.0,-4870.0,17834.0,0.0
-5896.0,-5071.0,17771.0,0.0
-5902.0,-5284.0,17743.0,0.0
-5893.0,-5484.0,17672.0,0.0
-5898.0,-5695.0,17640.0,0.0
-5897.0,-5902.0,17588.0,0.0
-5897.0,-6110.0,17542.0,0.0
-5875.0,-6295.0,17429.0,0.0
-5894.0,-6523.0,17435.0,0.0
-5893.0,-6733.0,17386.0,0.0
-5892.0,-6940.0,17332.0,0.0
-5895.0,-7155.0,17293.0,0.0
-5888.0,-7357.0,17222.0,0.0
-5889.0,-7569.0,17174.0,0.0
-5890.0,-7782.0,17127.0,0.0
-5887.0,-7991.0,17067.0,0.0
-5897.0,-8218.0,17043.0,0.0
-5887.0,-8418.0,16961.0,0.0
-5882.0,-8627.0,16895.0,0.0
-5886.0,-8849.0,16852.0,0.0
-5881.0,-9057.0,16783.0,0.0
-5889.0,-9287.0,16751.0,0.0
-5899.0,-9523.0,16724.0,0.0
-5890.0,-9727.0,16640.0,0.0
-5882.0,-9935.0,16561.0,0.0
-5895.0,-10180.0,16541.0,0.0
-5891.0,-10397.0,16473.0,0.0
-5893.0,-10624.0,16417.0,0.0
-5898.0,-10862.0,16373.0,0.0
-5896.0,-11085.0,16306.0,0.0
-5900.0,-11322.0,16256.0,0.0
-5897.0,-11546.0,16183.0,0.0
-5901.0,-11787.0,16132.0,0.0
-5915.0,-12050.0,16107.0,0.0
-5910.0,-12275.0,16028.0,0.0
-5915.0,-12525.0,15977.0,0.0
-5919.0,-12774.0,15919.0,0.0
-5912.0,-13003.0,15836.0,0.0
-5926.0,-13277.0,15802.0,0.0
-5929.0,-13532.0,15742.0,0.0
-5928.0,-13780.0,15670.0,0.0
-5936.0,-14047.0,15618.0,0.0
-5940.0,-14312.0,15555.0,0.0
-5944.0,-14578.0,15493.0,0.0
-5951.0,-14854.0,15435.0,0.0
-5966.0,-15155.0,15397.0,0.0
-5969.0,-15428.0,15328.0,0.0
-5970.0,-15700.0,15252.0,0.0
-5979.0,-15995.0,15195.0,0.0
-5982.0,-16277.0,15118.0,0.0
-31.0,-88.0,80.0,0.0
-30.0,-89.0,79.0,0.0
-30.0,-91.0,78.0,0.0
-34.0,-103.0,88.0,0.0
-37.0,-112.0,92.0,0.0
-34.0,-106.0,86.0,0.0
-40.0,-124.0,98.0,0.0
-37.0,-116.0,90.0,0.0
-38.0,-122.0,93.0,0.0
-39.0,-127.0,94.0,0.0
-40.0,-131.0,95.0,0.0
-41.0,-139.0,98.0,0.0
-41.0,-141.0,98.0,0.0
-44.0,-156.0,106.0,0.0
-43.0,-152.0,100.0,0.0
-43.0,-157.0,101.0,0.0
-42.0,-153.0,96.0,0.0
-49.0,-181.0,110.0,0.0
-46.0,-177.0,105.0,0.0
-49.0,-186.0,108.0,0.0
-49.0,-190.0,108.0,0.0
-51.0,-199.0,109.0,0.0
-47.0,-189.0,101.0,0.0
-50.0,-203.0,106.0,0.0
-48.0,-201.0,102.0,0.0
-51.0,-218.0,109.0,0.0
-50.0,-217.0,105.0,0.0
-47.0,-209.0,98.0,0.0
-51.0,-226.0,104.0,0.0
-48.0,-217.0,96.0,0.0
-51.0,-236.0,101.0,0.0
-51.0,-237.0,98.0,0.0
-48.0,-233.0,94.0,0.0
-51.0,-247.0,97.0,0.0
-54.0,-268.0,102.0,0.0
-63.0,-317.0,117.0,0.0
-66.0,-333.0,118.0,0.0
-64.0,-328.0,112.0,0.0
-61.0,-323.0,107.0,0.0
-61.0,-327.0,105.0,0.0
-60.0,-330.0,101.0,0.0
-59.0,-328.0,97.0,0.0
-58.0,-330.0,93.0,0.0
-58.0,-332.0,90.0,0.0
-3745.0,15770.0,14450.0,0.0
-3823.0,15717.0,14712.0,0.0
-3904.0,15669.0,14985.0,0.0
-3981.0,15597.0,15240.0,0.0
-4063.0,15544.0,15518.0,0.0
-4146.0,15488.0,15799.0,0.0
-4201.0,15320.0,15968.0,0.0
-4313.0,15358.0,16357.0,0.0
-4291.0,14917.0,16236.0,0.0
-4427.0,15021.0,16709.0,0.0
-4392.0,14549.0,16540.0,0.0
-4444.0,14369.0,16698.0,0.0
-4761.0,15026.0,17849.0,0.0
-4854.0,14952.0,18157.0,0.0
-4956.0,14898.0,18500.0,0.0
-5016.0,14715.0,18685.0,0.0
-5143.0,14717.0,19112.0,0.0
-5088.0,14206.0,18872.0,0.0
-5191.0,14136.0,19211.0,0.0
-5220.0,13863.0,19280.0,0.0
-5567.0,14416.0,20519.0,0.0
-5685.0,14350.0,20909.0,0.0
-5799.0,14268.0,21287.0,0.0
-5901.0,14146.0,21614.0,0.0
-6703.0,15654.0,24504.0,0.0
-6687.0,15211.0,24398.0,0.0
-6677.0,14786.0,24309.0,0.0
-6585.0,14195.0,23929.0,0.0
-6651.0,13950.0,24120.0,0.0
-6643.0,13553.0,24043.0,0.0
-6561.0,13017.0,23701.0,0.0
-6625.0,12776.0,23886.0,0.0
-9239.0,17309.0,33244.0,0.0
-9233.0,16798.0,33156.0,0.0
-9219.0,16281.0,33040.0,0.0
-9211.0,15783.0,32950.0,0.0
-9203.0,15293.0,32859.0,0.0
-9198.0,14812.0,32777.0,0.0
-8498.0,13255.0,30224.0,0.0
-8507.0,12842.0,30196.0,0.0
-8478.0,12381.0,30038.0,0.0
-8605.0,12146.0,30431.0,0.0
-8729.0,11900.0,30811.0,0.0
-9149.0,12034.0,32230.0,0.0
0.0,0.0,0.0,0.0
0.0,0.0,0.0,0.0
0.0,0.0,0.0,0.0
0.0,0.0,0.0,0.0
-9103.0,9871.0,31767.0,0.0
0.0,0.0,0.0,0.0
-9013.0,8968.0,31331.0,0.0
-9010.0,8568.0,31261.0,0.0
-9341.0,8476.0,32347.0,0.0
-7431.0,6421.0,25683.0,0.0
-8058.0,6618.0,27801.0,0.0
-8275.0,6444.0,28492.0,0.0
-8423.0,6205.0,28946.0,0.0
-8419.0,5850.0,28878.0,0.0
-8399.0,5487.0,28752.0,0.0
-8391.0,5136.0,28669.0,0.0
-8372.0,4781.0,28548.0,0.0
-8359.0,4434.0,28451.0,0.0
-8350.0,4093.0,28362.0,0.0
-8343.0,3755.0,28283.0,0.0
-8320.0,3413.0,28152.0,0.0
-8314.0,3082.0,28075.0,0.0
-8306.0,2752.0,27992.0,0.0
-5716.0,1670.0,19224.0,0.0
-5715.0,1447.0,19183.0,0.0
-5689.0,1220.0,19056.0,0.0
-5673.0,998.0,18965.0,0.0
-5677.0,781.0,18938.0,0.0
-5679.0,565.0,18907.0,0.0
-5677.0,348.0,18862.0,0.0
-5668.0,133.0,18795.0,0.0
-5663.0,-78.0,18739.0,0.0
-5663.0,-291.0,18700.0,0.0
-5661.0,-503.0,18651.0,0.0
-5655.0,-714.0,18592.0,0.0
-5662.0,-925.0,18574.0,0.0
-5651.0,-1132.0,18500.0,0.0
-5650.0,-1341.0,18459.0,0.0
-5641.0,-1547.0,18388.0,0.0
-5637.0,-1753.0,18334.0,0.0
-5637.0,-1960.0,18295.0,0.0
-5640.0,-2167.0,18264.0,0.0
-5634.0,-2371.0,18200.0,0.0
-5630.0,-2575.0,18148.0,0.0
-5628.0,-2779.0,18099.0,0.0
-5628.0,-2984.0,18057.0,0.0
-5629.0,-3189.0,18021.0,0.0
-5619.0,-3388.0,17947.0,0.0
-5628.0,-3596.0,17930.0,0.0
-5626.0,-3799.0,17882.0,0.0
-5630.0,-4006.0,17851.0,0.0
-5620.0,-4204.0,17779.0,0.0
-5620.0,-4408.0,17733.0,0.0
-5630.0,-4618.0,17720.0,0.0
-5625.0,-4819.0,17663.0,0.0
-5630.0,-5028.0,17633.0,0.0
-5622.0,-5225.0,17562.0,0.0
-5619.0,-5427.0,17511.0,0.0
-5626.0,-5639.0,17484.0,0.0
-5622.0,-5841.0,17430.0,0.0
-5624.0,-6048.0,17386.0,0.0
-5628.0,-6259.0,17353.0,0.0
-5620.0,-6456.0,17279.0,0.0
-5623.0,-6666.0,17241.0,0.0
-5624.0,-6875.0,17197.0,0.0
-5624.0,-7083.0,17149.0,0.0
-5628.0,-7298.0,17114.0,0.0
-5629.0,-7509.0,17067.0,0.0
-5626.0,-7714.0,17006.0,0.0
-5634.0,-7936.0,16981.0,0.0
-5630.0,-8141.0,16917.0,0.0
-5634.0,-8362.0,16881.0,0.0
-5634.0,-8575.0,16828.0,0.0
-5637.0,-8794.0,16783.0,0.0
-5635.0,-9009.0,16728.0,0.0
-5640.0,-9231.0,16687.0,0.0
-5642.0,-9454.0,16640.0,0.0
-5645.0,-9678.0,16594.0,0.0
-5646.0,-9902.0,16543.0,0.0
-5644.0,-10119.0,16480.0,0.0
-5656.0,-10363.0,16458.0,0.0
-5652.0,-10580.0,16388.0,0.0
-5652.0,-10808.0,16333.0,0.0
-5663.0,-11057.0,16305.0,0.0
-5658.0,-11276.0,16232.0,0.0
-5664.0,-11520.0,16190.0,0.0
-5661.0,-11746.0,16118.0,0.0
-5666.0,-11991.0,16071.0,0.0
-5668.0,-12231.0,16013.0,0.0
-5672.0,-12479.0,15961.0,0.0
-5667.0,-12709.0,15885.0,0.0
-5667.0,-12948.0,15816.0,0.0
-5670.0,-13202.0,15760.0,0.0
-5678.0,-13468.0,15715.0,0.0
-5680.0,-13721.0,15651.0,0.0
-5684.0,-13984.0,15595.0,0.0
-5684.0,-14237.0,15523.0,0.0
-5690.0,-14511.0,15470.0,0.0
-5689.0,-14768.0,15395.0,0.0
-5697.0,-15051.0,15342.0,0.0
-5691.0,-15303.0,15254.0,0.0
-5690.0,-15567.0,15174.0,0.0
-5706.0,-15882.0,15139.0,0.0
-26.0,-77.0,72.0,0.0
-31.0,-94.0,86.0,0.0
-33.0,-97.0,87.0,0.0
-29.0,-90.0,79.0,0.0
-30.0,-92.0,79.0,0.0
-29.0,-93.0,78.0,0.0
-39.0,-124.0,101.0,0.0
-32.0,-104.0,83.0,0.0
-34.0,-115.0,90.0,0.0
-36.0,-121.0,92.0,0.0
-38.0,-133.0,98.0,0.0
-37.0,-127.0,93.0,0.0
-38.0,-134.0,96.0,0.0
-36.0,-130.0,90.0,0.0
-38.0,-139.0,95.0,0.0
-37.0,-141.0,92.0,0.0
-41.0,-153.0,99.0,0.0
-43.0,-164.0,103.0,0.0
-41.0,-162.0,100.0,0.0
-44.0,-173.0,104.0,0.0
-43.0,-174.0,102.0,0.0
-43.0,-174.0,99.0,0.0
-42.0,-175.0,97.0,0.0
-42.0,-180.0,97.0,0.0
-47.0,-202.0,106.0,0.0
-45.0,-193.0,99.0,0.0
-45.0,-198.0,98.0,0.0
-45.0,-203.0,99.0,0.0
-44.0,-199.0,94.0,0.0
-47.0,-220.0,101.0,0.0
-44.0,-209.0,93.0,0.0
-45.0,-217.0,94.0,0.0
-44.0,-217.0,92.0,0.0
-47.0,-235.0,96.0,0.0
-47.0,-237.0,93.0,0.0
-49.0,-251.0,96.0,0.0
-59.0,-309.0,114.0,0.0
-61.0,-329.0,117.0,0.0
-60.0,-325.0,112.0,0.0
-58.0,-321.0,106.0,0.0
-58.0,-325.0,104.0,0.0
-57.0,-330.0,102.0,0.0
-56.0,-323.0,96.0,0.0
-55.0,-328.0,94.0,0.0
-55.0,-330.0,91.0,0.0
-3559.0,15769.0,14512.0,0.0
-3635.0,15713.0,14774.0,0.0
-3711.0,15656.0,15038.0,0.0
-3791.0,15605.0,15314.0,0.0
-3869.0,15544.0,15586.0,0.0
-3945.0,15465.0,15844.0,0.0
-4028.0,15409.0,16130.0,0.0
-4108.0,15338.0,16407.0,0.0
-4069.0,14825.0,16206.0,0.0
-4254.0,15129.0,16900.0,0.0
-4274.0,14830.0,16932.0,0.0
-4249.0,14384.0,16787.0,0.0
-4539.0,14995.0,17888.0,0.0
-4637.0,14945.0,18226.0,0.0
-4733.0,14881.0,18558.0,0.0
-4827.0,14806.0,18880.0,0.0
-4926.0,14735.0,19217.0,0.0
-4971.0,14501.0,19346.0,0.0
-5042.0,14344.0,19578.0,0.0
-5050.0,14004.0,19559.0,0.0
-5070.0,13703.0,19588.0,0.0
-5445.0,14343.0,20988.0,0.0
-5560.0,14271.0,21382.0,0.0
-5672.0,14182.0,21762.0,0.0
-5794.0,14108.0,22178.0,0.0
-5914.0,14023.0,22589.0,0.0
-6025.0,13905.0,22961.0,0.0
-6143.0,13798.0,23360.0,0.0
-6303.0,13771.0,23913.0,0.0
-6205.0,13184.0,23491.0,0.0
-6333.0,13080.0,23922.0,0.0
-6352.0,12750.0,23943.0,0.0
-8829.0,17214.0,33208.0,0.0
-8816.0,16689.0,33085.0,0.0
-8821.0,16205.0,33034.0,0.0
-8801.0,15683.0,32888.0,0.0
-8797.0,15199.0,32806.0,0.0
-8821.0,14767.0,32826.0,0.0
-8229.0,13340.0,30561.0,0.0
-8194.0,12855.0,30365.0,0.0
-8215.0,12464.0,30381.0,0.0
-8256.0,12105.0,30470.0,0.0
-8637.0,12228.0,31812.0,0.0
-8776.0,11987.0,32256.0,0.0
-8802.0,11589.0,32285.0,0.0
0.0,0.0,0.0,0.0
0.0,0.0,0.0,0.0
0.0,0.0,0.0,0.0
0.0,0.0,0.0,0.0
0.0,0.0,0.0,0.0
-8652.0,8926.0,31349.0,0.0
-8695.0,8571.0,31440.0,0.0
-8917.0,8386.0,32179.0,0.0
-7184.0,6433.0,25874.0,0.0
-9403.0,8000.0,33797.0,0.0
-7974.0,6432.0,28605.0,0.0
-8071.0,6155.0,28891.0,0.0
-8077.0,5810.0,28858.0,0.0
-8063.0,5450.0,28745.0,0.0
-8052.0,5098.0,28650.0,0.0
-8037.0,4747.0,28538.0,0.0
-8015.0,4397.0,28405.0,0.0
-8009.0,4057.0,28323.0,0.0
-7995.0,3717.0,28218.0,0.0
-7995.0,3386.0,28161.0,0.0
-7979.0,3051.0,28046.0,0.0
-7964.0,2720.0,27931.0,0.0
-5448.0,1639.0,19072.0,0.0
-5508.0,1435.0,19241.0,0.0
-5509.0,1214.0,19208.0,0.0
-5499.0,991.0,19131.0,0.0
-5497.0,773.0,19081.0,0.0
-5498.0,555.0,19044.0,0.0
-5492.0,337.0,18983.0,0.0
-5490.0,123.0,18940.0,0.0
-5489.0,-92.0,18895.0,0.0
-5487.0,-305.0,18849.0,0.0
-5492.0,-519.0,18825.0,0.0
-5482.0,-729.0,18747.0,0.0
-5481.0,-940.0,18705.0,0.0
-5481.0,-1151.0,18666.0,0.0
-5478.0,-1360.0,18617.0,0.0
-5476.0,-1569.0,18569.0,0.0
-5475.0,-1778.0,18522.0,0.0
-5468.0,-1984.0,18459.0,0.0
-5480.0,-2195.0,18457.0,0.0
-5469.0,-2398.0,18377.0,0.0
-5471.0,-2606.0,18343.0,0.0
-5462.0,-2808.0,18274.0,0.0
-5473.0,-3021.0,18266.0,0.0
-5462.0,-3221.0,18189.0,0.0
-5468.0,-3430.0,18163.0,0.0
-5467.0,-3636.0,18120.0,0.0
-5460.0,-3836.0,18051.0,0.0
-5460.0,-4041.0,18009.0,0.0
-5461.0,-4248.0,17971.0,0.0
-5456.0,-4449.0,17910.0,0.0
-5455.0,-4653.0,17864.0,0.0
-5458.0,-4861.0,17830.0,0.0
-5451.0,-5060.0,17761.0,0.0
-5453.0,-5269.0,17725.0,0.0
-5454.0,-5475.0,17680.0,0.0
-5458.0,-5686.0,17652.0,0.0
-5451.0,-5885.0,17581.0,0.0
-5448.0,-6089.0,17525.0,0.0
-5448.0,-6296.0,17479.0,0.0
-5450.0,-6507.0,17441.0,0.0
-5456.0,-6722.0,17412.0,0.0
-5448.0,-6921.0,17336.0,0.0
-5448.0,-7131.0,17290.0,0.0
-5451.0,-7345.0,17254.0,0.0
-5450.0,-7555.0,17203.0,0.0
-5446.0,-7760.0,17139.0,0.0
-5451.0,-7979.0,17105.0,0.0
-5440.0,-8175.0,17019.0,0.0
-5445.0,-8398.0,16985.0,0.0
-5449.0,-8619.0,16949.0,0.0
-5444.0,-8828.0,16882.0,0.0
-5452.0,-9056.0,16852.0,0.0
-5449.0,-9272.0,16795.0,0.0
-5450.0,-9492.0,16744.0,0.0
-5448.0,-9709.0,16684.0,0.0
-5453.0,-9939.0,16645.0,0.0
-5450.0,-10158.0,16583.0,0.0
-5456.0,-10394.0,16546.0,0.0
-5454.0,-10616.0,16483.0,0.0
-5456.0,-10849.0,16435.0,0.0
-5457.0,-11078.0,16378.0,0.0
-5452.0,-11302.0,16309.0,0.0
-5454.0,-11536.0,16253.0,0.0
-5456.0,-11774.0,16200.0,0.0
-5462.0,-12024.0,16159.0,0.0
-5467.0,-12274.0,16113.0,0.0
-5463.0,-12506.0,16040.0,0.0
-5468.0,-12759.0,15991.0,0.0
-5457.0,-12978.0,15896.0,0.0
-5464.0,-13241.0,15852.0,0.0
-5471.0,-13508.0,15808.0,0.0
-5470.0,-13756.0,15738.0,0.0
-5467.0,-14003.0,15663.0,0.0
-5472.0,-14275.0,15612.0,0.0
-5472.0,-14532.0,15541.0,0.0
-5480.0,-14816.0,15494.0,0.0
-23.0,-65.0,66.0,0.0
-25.0,-71.0,72.0,0.0
-23.0,-67.0,66.0,0.0
-28.0,-82.0,79.0,0.0
-26.0,-79.0,75.0,0.0
-28.0,-86.0,79.0,0.0
-31.0,-98.0,88.0,0.0
-34.0,-106.0,93.0,0.0
-29.0,-93.0,79.0,0.0
-29.0,-94.0,79.0,0.0
-30.0,-103.0,85.0,0.0
-34.0,-115.0,91.0,0.0
-34.0,-119.0,92.0,0.0
-35.0,-123.0,94.0,0.0
-34.0,-123.0,92.0,0.0
-37.0,-132.0,97.0,0.0
-35.0,-133.0,95.0,0.0
-36.0,-135.0,94.0,0.0
-40.0,-155.0,106.0,0.0
-39.0,-154.0,102.0,0.0
-42.0,-163.0,106.0,0.0
-43.0,-170.0,108.0,0.0
-44.0,-180.0,111.0,0.0
-43.0,-177.0,106.0,0.0
-43.0,-183.0,108.0,0.0
-43.0,-184.0,105.0,0.0
-43.0,-189.0,105.0,0.0
-42.0,-189.0,102.0,0.0
-41.0,-183.0,97.0,0.0
-44.0,-203.0,105.0,0.0
-44.0,-206.0,103.0,0.0
-45.0,-214.0,104.0,0.0
-43.0,-207.0,98.0,0.0
-45.0,-222.0,103.0,0.0
-44.0,-224.0,100.0,0.0
-44.0,-224.0,97.0,0.0
-47.0,-241.0,102.0,0.0
-46.0,-240.0,98.0,0.0
-45.0,-243.0,96.0,0.0
-45.0,-244.0,94.0,0.0
-54.0,-301.0,112.0,0.0
-57.0,-323.0,117.0,0.0
-56.0,-321.0,112.0,0.0
-54.0,-319.0,107.0,0.0
-53.0,-321.0,104.0,0.0
-53.0,-324.0,101.0,0.0
-53.0,-328.0,98.0,0.0
-51.0,-324.0,94.0,0.0
-50.0,-327.0,91.0,0.0
-3372.0,15761.0,14565.0,0.0
-3443.0,15695.0,14819.0,0.0
-3517.0,15633.0,15080.0,0.0
-3593.0,15582.0,15356.0,0.0
-3669.0,15517.0,15624.0,0.0
-3746.0,15456.0,15900.0,0.0
-3826.0,15396.0,16183.0,0.0
-3905.0,15330.0,16466.0,0.0
-3981.0,15240.0,16728.0,0.0
-4059.0,15159.0,17005.0,0.0
-4048.0,14748.0,16908.0,0.0
-4103.0,14580.0,17085.0,0.0
-4142.0,14355.0,17195.0,0.0
-4416.0,14925.0,18278.0,0.0
-4513.0,14874.0,18625.0,0.0
-4603.0,14793.0,18943.0,0.0
-4695.0,14713.0,19268.0,0.0
-4778.0,14596.0,19553.0,0.0
-4850.0,14442.0,19793.0,0.0
-4852.0,14080.0,19747.0,0.0
-4840.0,13687.0,19645.0,0.0
-5194.0,14309.0,21025.0,0.0
-5308.0,14246.0,21434.0,0.0
-5415.0,14152.0,21807.0,0.0
-5529.0,14069.0,22210.0,0.0
-5648.0,13989.0,22628.0,0.0
-5765.0,13894.0,23038.0,0.0
-5886.0,13802.0,23465.0,0.0
-6002.0,13687.0,23867.0,0.0
-6128.0,13587.0,24311.0,0.0
-6132.0,13212.0,24265.0,0.0
-6122.0,12816.0,24168.0,0.0
-8415.0,17108.0,33144.0,0.0
-8420.0,16617.0,33085.0,0.0
-7065.0,13529.0,27698.0,0.0
-8408.0,15611.0,32880.0,0.0
-8399.0,15118.0,32775.0,0.0
-8408.0,14660.0,32732.0,0.0
-7806.0,13177.0,30320.0,0.0
-7826.0,12783.0,30331.0,0.0
-7932.0,12526.0,30672.0,0.0
-8115.0,12380.0,31305.0,0.0
-8216.0,12101.0,31627.0,0.0
-8383.0,11910.0,32197.0,0.0
0.0,0.0,0.0,0.0
-8356.0,11015.0,31953.0,0.0
0.0,0.0,0.0,0.0
0.0,0.0,0.0,0.0
0.0,0.0,0.0,0.0
0.0,0.0,0.0,0.0
-8272.0,8865.0,31294.0,0.0
-8351.0,8550.0,31524.0,0.0
-8561.0,8359.0,32245.0,0.0
-8800.0,8178.0,33074.0,0.0
-7008.0,6188.0,26284.0,0.0
-7720.0,6460.0,28891.0,0.0
-7714.0,6102.0,28808.0,0.0
-7728.0,5763.0,28799.0,0.0
-7463.0,5230.0,27752.0,0.0
-7370.0,4836.0,27349.0,0.0
-7521.0,4602.0,27851.0,0.0
-7629.0,4333.0,28190.0,0.0
-7682.0,4028.0,28325.0,0.0
-7667.0,3688.0,28210.0,0.0
-7663.0,3356.0,28138.0,0.0
-7642.0,3021.0,28001.0,0.0
-7632.0,2692.0,27905.0,0.0
-5320.0,1652.0,19407.0,0.0
-5281.0,1417.0,19225.0,0.0
-5269.0,1195.0,19143.0,0.0
-5271.0,975.0,19109.0,0.0
-5271.0,757.0,19069.0,0.0
-5267.0,540.0,19014.0,0.0
-5266.0,325.0,18968.0,0.0
-5266.0,110.0,18928.0,0.0
-5264.0,-102.0,18879.0,0.0
-5265.0,-315.0,18840.0,0.0
-5263.0,-527.0,18794.0,0.0
-5261.0,-738.0,18745.0,0.0
-5249.0,-947.0,18659.0,0.0
-5253.0,-1157.0,18633.0,0.0
-5253.0,-1366.0,18596.0,0.0
-5251.0,-1573.0,18543.0,0.0
-5252.0,-1783.0,18511.0,0.0
-5255.0,-1991.0,18478.0,0.0
-5252.0,-2197.0,18422.0,0.0
-5254.0,-2404.0,18389.0,0.0
-5254.0,-2611.0,18347.0,0.0
-5252.0,-2816.0,18303.0,0.0
-5260.0,-3026.0,18288.0,0.0
-5261.0,-3233.0,18248.0,0.0
-5257.0,-3435.0,18188.0,0.0
-5265.0,-3647.0,18176.0,0.0
-5265.0,-3853.0,18133.0,0.0
-5275.0,-4067.0,18125.0,0.0
-5272.0,-4270.0,18073.0,0.0
-5268.0,-4472.0,18011.0,0.0
-5268.0,-4678.0,17972.0,0.0
-5279.0,-4894.0,17962.0,0.0
-5276.0,-5098.0,17907.0,0.0
-5274.0,-5303.0,17857.0,0.0
-5273.0,-5510.0,17813.0,0.0
-5277.0,-5722.0,17780.0,0.0
-5281.0,-5935.0,17749.0,0.0
-5284.0,-6146.0,17714.0,0.0
-5276.0,-6345.0,17639.0,0.0
-5285.0,-6566.0,17623.0,0.0
-5292.0,-6785.0,17601.0,0.0
-5289.0,-6992.0,17541.0,0.0
-5289.0,-7204.0,17495.0,0.0
-5291.0,-7419.0,17455.0,0.0
-5300.0,-7645.0,17438.0,0.0
-5287.0,-7841.0,17347.0,0.0
-5288.0,-8058.0,17302.0,0.0
-5294.0,-8281.0,17270.0,0.0
-5300.0,-8509.0,17242.0,0.0
-5308.0,-8739.0,17217.0,0.0
-5299.0,-8943.0,17137.0,0.0
-5304.0,-9173.0,17103.0,0.0
-5310.0,-9404.0,17070.0,0.0
-5303.0,-9615.0,16997.0,0.0
-5307.0,-9847.0,16957.0,0.0
-5301.0,-10059.0,16881.0,0.0
-5311.0,-10305.0,16860.0,0.0
-5321.0,-10553.0,16836.0,0.0
-5315.0,-10773.0,16765.0,0.0
-5317.0,-11008.0,16715.0,0.0
-5328.0,-11264.0,16693.0,0.0
-5319.0,-11481.0,16609.0,0.0
-5320.0,-11720.0,16554.0,0.0
-5330.0,-11983.0,16529.0,0.0
-5329.0,-12224.0,16469.0,0.0
-5330.0,-12469.0,16412.0,0.0
-5333.0,-12723.0,16361.0,0.0
-5333.0,-12970.0,16299.0,0.0
-5341.0,-13240.0,16261.0,0.0
-5331.0,-13467.0,16168.0,0.0
-5340.0,-13747.0,16133.0,0.0
-5346.0,-14021.0,16087.0,0.0
-5341.0,-14268.0,16005.0,0.0
-5346.0,-14543.0,15952.0,0.0
-5350.0,-14824.0,15900.0,0.0
-5357.0,-15111.0,15851.0,0.0
-5363.0,-15404.0,15801.0,0.0
-5356.0,-15659.0,15709.0,0.0
-28.0,-86.0,84.0,0.0
-25.0,-80.0,77.0,0.0
-29.0,-90.0,85.0,0.0
-26.0,-85.0,78.0,0.0
-30.0,-100.0,90.0,0.0
-31.0,-103.0,91.0,0.0
-28.0,-93.0,80.0,0.0
-30.0,-103.0,87.0,0.0
-31.0,-108.0,89.0,0.0
-29.0,-104.0,83.0,0.0
-32.0,-115.0,91.0,0.0
-30.0,-111.0,86.0,0.0
-30.0,-114.0,86.0,0.0
-35.0,-132.0,97.0,0.0
-34.0,-129.0,93.0,0.0
-34.0,-135.0,94.0,0.0
-36.0,-144.0,98.0,0.0
-35.0,-144.0,96.0,0.0
-37.0,-154.0,101.0,0.0
-37.0,-158.0,101.0,0.0
-36.0,-153.0,95.0,0.0
-38.0,-164.0,98.0,0.0
-39.0,-172.0,101.0,0.0
-41.0,-183.0,105.0,0.0
-39.0,-179.0,100.0,0.0
-40.0,-184.0,101.0,0.0
-40.0,-192.0,102.0,0.0
-41.0,-200.0,104.0,0.0
-39.0,-196.0,98.0,0.0
-40.0,-203.0,99.0,0.0
-40.0,-205.0,98.0,0.0
-40.0,-207.0,96.0,0.0
-42.0,-222.0,100.0,0.0
-40.0,-215.0,94.0,0.0
-41.0,-221.0,93.0,0.0
-40.0,-222.0,91.0,0.0
-41.0,-232.0,93.0,0.0
-39.0,-221.0,85.0,0.0
-47.0,-282.0,105.0,0.0
-52.0,-313.0,114.0,0.0
-52.0,-320.0,112.0,0.0
-51.0,-317.0,107.0,0.0
-50.0,-318.0,104.0,0.0
-50.0,-322.0,102.0,0.0
-49.0,-326.0,99.0,0.0
-47.0,-319.0,93.0,0.0
-47.0,-325.0,91.0,0.0
-3178.0,15725.0,14593.0,0.0
-3250.0,15675.0,14860.0,0.0
-3325.0,15629.0,15138.0,0.0
-3399.0,15576.0,15412.0,0.0
-3473.0,15514.0,15684.0,0.0
-3549.0,15451.0,15960.0,0.0
-3625.0,15388.0,16240.0,0.0
-3682.0,15239.0,16434.0,0.0
-3779.0,15247.0,16803.0,0.0
-3724.0,14654.0,16503.0,0.0
-3902.0,14968.0,17229.0,0.0
-3927.0,14686.0,17278.0,0.0
-3919.0,14287.0,17182.0,0.0
-4187.0,14879.0,18293.0,0.0
-4285.0,14844.0,18660.0,0.0
-4376.0,14775.0,18995.0,0.0
-4434.0,14592.0,19187.0,0.0
-4537.0,14548.0,19566.0,0.0
-4420.0,13813.0,19006.0,0.0
-4563.0,13890.0,19559.0,0.0
-4641.0,13762.0,19832.0,0.0
-4946.0,14284.0,21072.0,0.0
-5058.0,14223.0,21484.0,0.0
-5168.0,14148.0,21889.0,0.0
-5278.0,14064.0,22290.0,0.0
-5392.0,13981.0,22708.0,0.0
-5506.0,13888.0,23121.0,0.0
-5620.0,13787.0,23537.0,0.0
-5710.0,13621.0,23849.0,0.0
-5843.0,13547.0,24337.0,0.0
-5788.0,13037.0,24043.0,0.0
-5895.0,12898.0,24424.0,0.0
-5940.0,12618.0,24547.0,0.0
-6386.0,13165.0,26321.0,0.0
-6531.0,13059.0,26848.0,0.0
-6667.0,12924.0,27335.0,0.0
-8012.0,15051.0,32770.0,0.0
-6927.0,12604.0,28262.0,0.0
-7418.0,13063.0,30188.0,0.0
-7436.0,12668.0,30191.0,0.0
-7620.0,12547.0,30857.0,0.0
-7765.0,12351.0,31371.0,0.0
-7872.0,12086.0,31727.0,0.0
-8002.0,11849.0,32176.0,0.0
-8026.0,11449.0,32193.0,0.0
0.0,0.0,0.0,0.0
0.0,0.0,0.0,0.0
-7998.0,10144.0,31859.0,0.0
0.0,0.0,0.0,0.0
0.0,0.0,0.0,0.0
-7928.0,8840.0,31359.0,0.0
-8004.0,8524.0,31587.0,0.0
-8220.0,8347.0,32367.0,0.0
-8426.0,8142.0,33101.0,0.0
-6729.0,6176.0,26375.0,0.0
-7386.0,6424.0,28889.0,0.0
-7403.0,6085.0,28888.0,0.0
-7399.0,5732.0,28807.0,0.0
-7137.0,5194.0,27727.0,0.0
-7354.0,5009.0,28507.0,0.0
-7345.0,4664.0,28408.0,0.0
-7327.0,4317.0,28272.0,0.0
-7349.0,3996.0,28298.0,0.0
-7341.0,3660.0,28206.0,0.0
-7327.0,3325.0,28089.0,0.0
-7316.0,2993.0,27985.0,0.0
-7307.0,2667.0,27891.0,0.0
-7301.0,2344.0,27808.0,0.0
-5190.0,1439.0,19725.0,0.0
-5191.0,1212.0,19682.0,0.0
-5187.0,988.0,19624.0,0.0
-5188.0,764.0,19585.0,0.0
-5195.0,543.0,19569.0,0.0
-5194.0,322.0,19525.0,0.0
-5200.0,101.0,19504.0,0.0
-5195.0,-117.0,19440.0,0.0
-5193.0,-335.0,19390.0,0.0
-5202.0,-554.0,19381.0,0.0
-5200.0,-771.0,19332.0,0.0
-5195.0,-987.0,19272.0,0.0
-5206.0,-1204.0,19266.0,0.0
-5210.0,-1421.0,19238.0,0.0
-5204.0,-1634.0,19173.0,0.0
-5212.0,-1851.0,19158.0,0.0
-5205.0,-2063.0,19092.0,0.0
-5213.0,-2279.0,19081.0,0.0
-5214.0,-2494.0,19040.0,0.0
-5212.0,-2706.0,18988.0,0.0
-5215.0,-2920.0,18957.0,0.0
-5221.0,-3136.0,18931.0,0.0
-5220.0,-3347.0,18887.0,0.0
-5219.0,-3559.0,18840.0,0.0
-5227.0,-3777.0,18824.0,0.0
-5219.0,-3984.0,18753.0,0.0
-5224.0,-4201.0,18724.0,0.0
-5224.0,-4413.0,18682.0,0.0
-5225.0,-4626.0,18639.0,0.0
-5219.0,-4832.0,18573.0,0.0
-5227.0,-5052.0,18555.0,0.0
-5233.0,-5271.0,18531.0,0.0
-5230.0,-5482.0,18477.0,0.0
-5238.0,-5704.0,18457.0,0.0
-5243.0,-5925.0,18430.0,0.0
-5245.0,-6143.0,18393.0,0.0
-5235.0,-6347.0,18311.0,0.0
-5246.0,-6576.0,18305.0,0.0
-5251.0,-6799.0,18274.0,0.0
-5246.0,-7011.0,18211.0,0.0
-5249.0,-7233.0,18174.0,0.0
-5243.0,-7443.0,18104.0,0.0
-5249.0,-7672.0,18079.0,0.0
-5253.0,-7899.0,18044.0,0.0
-5248.0,-8111.0,17975.0,0.0
-5260.0,-8353.0,17967.0,0.0
-5256.0,-8571.0,17905.0,0.0
-5258.0,-8798.0,17860.0,0.0
-5259.0,-9026.0,17816.0,0.0
-5263.0,-9260.0,17778.0,0.0
-5271.0,-9502.0,17751.0,0.0
-5263.0,-9719.0,17676.0,0.0
-5259.0,-9941.0,17609.0,0.0
-5270.0,-10195.0,17594.0,0.0
-5280.0,-10449.0,17574.0,0.0
-5272.0,-10670.0,17495.0,0.0
-5278.0,-10918.0,17458.0,0.0
-5270.0,-11141.0,17376.0,0.0
-5280.0,-11403.0,17354.0,0.0
-5281.0,-11650.0,17305.0,0.0
-5283.0,-11899.0,17255.0,0.0
-5288.0,-12158.0,17214.0,0.0
-5293.0,-12418.0,17171.0,0.0
-5290.0,-12662.0,17102.0,0.0
-5295.0,-12928.0,17059.0,0.0
-5287.0,-13166.0,16976.0,0.0
-5299.0,-13456.0,16953.0,0.0
-5293.0,-13700.0,16873.0,0.0
-5306.0,-13999.0,16852.0,0.0
-5296.0,-14241.0,16758.0,0.0
-5308.0,-14540.0,16729.0,0.0
-5307.0,-14810.0,16661.0,0.0
-5316.0,-15114.0,16626.0,0.0
-5315.0,-15391.0,16557.0,0.0
-5315.0,-15675.0,16490.0,0.0
-5326.0,-15992.0,16453.0,0.0
-5329.0,-16293.0,16394.0,0.0
-27.0,-89.0,88.0,0.0
-24.0,-79.0,76.0,0.0
-27.0,-90.0,85.0,0.0
-30.0,-102.0,93.0,0.0
-30.0,-102.0,92.0,0.0
-31.0,-106.0,93.0,0.0
-30.0,-106.0,91.0,0.0
-30.0,-106.0,89.0,0.0
-30.0,-109.0,89.0,0.0
-27.0,-103.0,83.0,0.0
-27.0,-105.0,83.0,0.0
-33.0,-127.0,98.0,0.0
-31.0,-123.0,92.0,0.0
-32.0,-130.0,95.0,0.0
-33.0,-133.0,95.0,0.0
-31.0,-129.0,90.0,0.0
-34.0,-144.0,99.0,0.0
-36.0,-154.0,103.0,0.0
-40.0,-174.0,114.0,0.0
-41.0,-181.0,115.0,0.0
-38.0,-169.0,105.0,0.0
-39.0,-180.0,110.0,0.0
-38.0,-177.0,104.0,0.0
-38.0,-181.0,104.0,0.0
-35.0,-169.0,95.0,0.0
-38.0,-187.0,103.0,0.0
-37.0,-187.0,100.0,0.0
-39.0,-199.0,104.0,0.0
-38.0,-200.0,102.0,0.0
-38.0,-201.0,99.0,0.0
-37.0,-203.0,97.0,0.0
-37.0,-202.0,94.0,0.0
-39.0,-220.0,100.0,0.0
-39.0,-222.0,98.0,0.0
-38.0,-220.0,94.0,0.0
-38.0,-227.0,94.0,0.0
-40.0,-236.0,95.0,0.0
-37.0,-228.0,88.0,0.0
-43.0,-272.0,102.0,0.0
-49.0,-310.0,114.0,0.0
-49.0,-316.0,111.0,0.0
