//X,Y,Z,Classification
492.0,-473.0,2153.0,0.0
8067.0,-7353.0,35416.0,1.0
478.0,-412.0,2102.0,0.0
483.0,-393.0,2132.0,0.0
488.0,-373.0,2158.0,0.0
489.0,-350.0,2166.0,0.0
479.0,-319.0,2128.0,0.0
494.0,-306.0,2204.0,0.0
488.0,-278.0,2184.0,0.0
488.0,-253.0,2188.0,0.0
482.0,-227.0,2168.0,0.0
494.0,-208.0,2224.0,0.0
486.0,-180.0,2194.0,0.0
481.0,-154.0,2180.0,0.0
5251.0,-1421.0,23846.0,0.0
4952.0,-1092.0,22551.0,0.0
4804.0,-817.0,21939.0,0.0
6.0,-1.0,29.0,0.0
6.0,0.0,26.0,0.0
2.0,0.0,9.0,0.0
4.0,0.0,18.0,0.0
2.0,0.0,8.0,0.0
7.0,1.0,32.0,0.0
8.0,1.0,35.0,0.0
6.0,1.0,27.0,0.0
9.0,2.0,45.0,0.0
6.0,1.0,28.0,0.0
9.0,4.0,45.0,0.0
10.0,4.0,48.0,0.0
10.0,4.0,47.0,0.0
11.0,6.0,54.0,0.0
13.0,7.0,59.0,0.0
14.0,9.0,68.0,0.0
15.0,11.0,73.0,0.0
15.0,11.0,71.0,0.0
16.0,12.0,76.0,0.0
15.0,13.0,73.0,0.0
17.0,15.0,80.0,0.0
18.0,17.0,84.0,0.0
18.0,19.0,89.0,0.0
18.0,21.0,91.0,0.0
18.0,21.0,85.0,0.0
21.0,25.0,101.0,0.0
18.0,24.0,92.0,0.0
20.0,27.0,98.0,0.0
21.0,30.0,103.0,0.0
20.0,30.0,98.0,0.0
18.0,29.0,93.0,0.0
20.0,32.0,101.0,0.0
20.0,34.0,102.0,0.0
21.0,36.0,106.0,0.0
19.0,35.0,97.0,0.0
19.0,36.0,98.0,0.0
19.0,38.0,98.0,0.0
18.0,38.0,95.0,0.0
17.0,38.0,91.0,0.0
16.0,37.0,87.0,0.0
16.0,36.0,83.0,0.0
16.0,37.0,81.0,0.0
15.0,36.0,78.0,0.0
16.0,41.0,86.0,0.0
16.0,43.0,86.0,0.0
15.0,41.0,81.0,0.0
13.0,37.0,71.0,0.0
14.0,40.0,76.0,0.0
14.0,43.0,77.0,0.0
16.0,50.0,88.0,0.0
15.0,45.0,79.0,0.0
14.0,46.0,77.0,0.0
15.0,52.0,85.0,0.0
13.0,47.0,74.0,0.0
14.0,53.0,83.0,0.0
15.0,53.0,80.0,0.0
14.0,53.0,79.0,0.0
14.0,53.0,77.0,0.0
14.0,59.0,84.0,0.0
14.0,59.0,82.0,0.0
14.0,63.0,86.0,0.0
13.0,61.0,81.0,0.0
15.0,70.0,91.0,0.0
14.0,68.0,87.0,0.0
16.0,78.0,97.0,0.0
15.0,75.0,92.0,0.0
15.0,82.0,97.0,0.0
15.0,84.0,98.0,0.0
15.0,83.0,94.0,0.0
15.0,87.0,96.0,0.0
15.0,90.0,98.0,0.0
15.0,91.0,97.0,0.0
15.0,98.0,102.0,0.0
15.0,101.0,102.0,0.0
15.0,101.0,100.0,0.0
16.0,111.0,108.0,0.0
16.0,110.0,105.0,0.0
15.0,110.0,102.0,0.0
24.0,-265.0,78.0,0.0
24.0,-259.0,81.0,0.0
25.0,-272.0,87.0,0.0
26.0,-263.0,87.0,0.0
27.0,-271.0,94.0,0.0
28.0,-270.0,96.0,0.0
28.0,-266.0,98.0,0.0
29.0,-269.0,102.0,0.0
29.0,-263.0,104.0,0.0
30.0,-265.0,107.0,0.0
31.0,-271.0,113.0,0.0
32.0,-267.0,115.0,0.0
32.0,-261.0,115.0,0.0
33.0,-258.0,118.0,0.0
33.0,-263.0,124.0,0.0
33.0,-259.0,125.0,0.0
35.0,-264.0,131.0,0.0
36.0,-262.0,133.0,0.0
35.0,-251.0,131.0,0.0
37.0,-257.0,138.0,0.0
38.0,-260.0,143.0,0.0
39.0,-264.0,150.0,0.0
40.0,-257.0,149.0,0.0
38.0,-239.0,142.0,0.0
37.0,-229.0,140.0,0.0
36.0,-221.0,138.0,0.0
33.0,-200.0,128.0,0.0
33.0,-192.0,126.0,0.0
33.0,-188.0,127.0,0.0
32.0,-181.0,124.0,0.0
31.0,-175.0,124.0,0.0
33.0,-180.0,129.0,0.0
29.0,-157.0,116.0,0.0
28.0,-146.0,110.0,0.0
27.0,-141.0,109.0,0.0
30.0,-147.0,116.0,0.0
26.0,-127.0,102.0,0.0
26.0,-124.0,102.0,0.0
23.0,-109.0,92.0,0.0
24.0,-110.0,96.0,0.0
22.0,-98.0,86.0,0.0
22.0,-99.0,90.0,0.0
20.0,-88.0,82.0,0.0
18.0,-77.0,74.0,0.0
19.0,-78.0,75.0,0.0
19.0,-81.0,80.0,0.0
18.0,-72.0,73.0,0.0
409.0,-1626.0,1675.0,0.0
407.0,-1587.0,1671.0,0.0
407.0,-1556.0,1676.0,0.0
411.0,-1543.0,1699.0,0.0
412.0,-1513.0,1702.0,0.0
412.0,-1486.0,1711.0,0.0
419.0,-1484.0,1745.0,0.0
425.0,-1471.0,1770.0,0.0
419.0,-1422.0,1751.0,0.0
425.0,-1416.0,1784.0,0.0
418.0,-1363.0,1756.0,0.0
423.0,-1351.0,1782.0,0.0
434.0,-1358.0,1831.0,0.0
423.0,-1298.0,1791.0,0.0
422.0,-1266.0,1789.0,0.0
426.0,-1253.0,1813.0,0.0
432.0,-1242.0,1840.0,0.0
432.0,-1216.0,1844.0,0.0
435.0,-1197.0,1860.0,0.0
437.0,-1177.0,1875.0,0.0
425.0,-1119.0,1827.0,0.0
438.0,-1128.0,1890.0,0.0
454.0,-1143.0,1963.0,0.0
444.0,-1089.0,1919.0,0.0
445.0,-1068.0,1930.0,0.0
453.0,-1060.0,1969.0,0.0
442.0,-1009.0,1925.0,0.0
8074.0,-18006.0,35278.0,1.0
451.0,-980.0,1976.0,0.0
3701.0,-7843.0,16247.0,0.0
3867.0,-7981.0,17014.0,0.0
3875.0,-7784.0,17088.0,0.0
3866.0,-7557.0,17088.0,0.0
3871.0,-7356.0,17149.0,0.0
3682.0,-6800.0,16352.0,0.0
3703.0,-6641.0,16484.0,0.0
3708.0,-6451.0,16542.0,0.0
3719.0,-6273.0,16630.0,0.0
3725.0,-6087.0,16698.0,0.0
3687.0,-5831.0,16567.0,0.0
3755.0,-5743.0,16916.0,0.0
3769.0,-5568.0,17019.0,0.0
3702.0,-5275.0,16755.0,0.0
3660.0,-5026.0,16605.0,0.0
3799.0,-5020.0,17280.0,0.0
3851.0,-4889.0,17556.0,0.0
467.0,-567.0,2132.0,0.0
459.0,-534.0,2103.0,0.0
468.0,-520.0,2145.0,0.0
469.0,-498.0,2160.0,0.0
473.0,-478.0,2183.0,0.0
470.0,-451.0,2172.0,0.0
460.0,-418.0,2132.0,0.0
459.0,-394.0,2134.0,0.0
467.0,-377.0,2178.0,0.0
468.0,-353.0,2187.0,0.0
455.0,-320.0,2132.0,0.0
457.0,-298.0,2147.0,0.0
465.0,-279.0,2188.0,0.0
458.0,-251.0,2161.0,0.0
7227.0,-3590.0,34234.0,1.0
449.0,-200.0,2136.0,0.0
459.0,-180.0,2185.0,0.0
6939.0,-2360.0,33144.0,1.0
454.0,-130.0,2173.0,0.0
4742.0,-1112.0,22772.0,0.0
3.0,-1.0,14.0,0.0
0.0,0.0,2.0,0.0
2.0,0.0,10.0,0.0
0.0,0.0,0.0,0.0
3.0,0.0,19.0,0.0
2.0,0.0,9.0,0.0
5.0,0.0,25.0,0.0
6.0,0.0,28.0,0.0
8.0,1.0,39.0,0.0
6.0,1.0,29.0,0.0
10.0,3.0,53.0,0.0
11.0,4.0,55.0,0.0
7.0,3.0,38.0,0.0
8.0,4.0,41.0,0.0
10.0,5.0,49.0,0.0
14.0,8.0,68.0,0.0
14.0,9.0,69.0,0.0
12.0,8.0,62.0,0.0
14.0,10.0,68.0,0.0
14.0,12.0,70.0,0.0
16.0,14.0,80.0,0.0
17.0,17.0,89.0,0.0
18.0,20.0,94.0,0.0
16.0,17.0,82.0,0.0
18.0,20.0,88.0,0.0
14.0,17.0,69.0,0.0
16.0,21.0,84.0,0.0
16.0,22.0,84.0,0.0
17.0,24.0,87.0,0.0
17.0,24.0,86.0,0.0
20.0,31.0,104.0,0.0
18.0,30.0,98.0,0.0
19.0,33.0,100.0,0.0
19.0,34.0,102.0,0.0
16.0,29.0,83.0,0.0
16.0,31.0,87.0,0.0
19.0,38.0,102.0,0.0
16.0,35.0,91.0,0.0
15.0,33.0,81.0,0.0
16.0,36.0,88.0,0.0
13.0,31.0,73.0,0.0
15.0,36.0,84.0,0.0
14.0,35.0,79.0,0.0
14.0,37.0,80.0,0.0
13.0,36.0,75.0,0.0
15.0,40.0,83.0,0.0
14.0,40.0,79.0,0.0
13.0,38.0,73.0,0.0
12.0,38.0,71.0,0.0
14.0,44.0,81.0,0.0
13.0,43.0,76.0,0.0
14.0,48.0,84.0,0.0
14.0,50.0,83.0,0.0
13.0,47.0,77.0,0.0
12.0,45.0,72.0,0.0
12.0,47.0,74.0,0.0
12.0,46.0,71.0,0.0
11.0,46.0,68.0,0.0
12.0,52.0,76.0,0.0
13.0,58.0,83.0,0.0
12.0,52.0,72.0,0.0
13.0,62.0,84.0,0.0
13.0,60.0,79.0,0.0
14.0,68.0,88.0,0.0
14.0,70.0,89.0,0.0
14.0,71.0,89.0,0.0
13.0,71.0,86.0,0.0
14.0,77.0,92.0,0.0
14.0,78.0,90.0,0.0
13.0,78.0,88.0,0.0
13.0,85.0,95.0,0.0
14.0,93.0,101.0,0.0
14.0,92.0,99.0,0.0
14.0,95.0,99.0,0.0
13.0,95.0,97.0,0.0
14.0,101.0,101.0,0.0
13.0,101.0,99.0,0.0
14.0,104.0,100.0,0.0
13.0,111.0,104.0,0.0
23.0,-277.0,83.0,0.0
22.0,-266.0,83.0,0.0
23.0,-268.0,87.0,0.0
23.0,-274.0,91.0,0.0
24.0,-271.0,94.0,0.0
25.0,-267.0,96.0,0.0
26.0,-275.0,102.0,0.0
27.0,-274.0,105.0,0.0
26.0,-266.0,105.0,0.0
28.0,-272.0,111.0,0.0
29.0,-276.0,116.0,0.0
29.0,-273.0,119.0,0.0
30.0,-267.0,119.0,0.0
31.0,-264.0,121.0,0.0
31.0,-267.0,127.0,0.0
32.0,-266.0,129.0,0.0
34.0,-270.0,135.0,0.0
32.0,-258.0,132.0,0.0
32.0,-249.0,131.0,0.0
34.0,-256.0,138.0,0.0
36.0,-267.0,148.0,0.0
39.0,-277.0,157.0,0.0
37.0,-261.0,152.0,0.0
35.0,-246.0,147.0,0.0
35.0,-241.0,147.0,0.0
32.0,-213.0,133.0,0.0
32.0,-205.0,132.0,0.0
35.0,-219.0,144.0,0.0
33.0,-202.0,135.0,0.0
31.0,-187.0,129.0,0.0
32.0,-192.0,136.0,0.0
30.0,-174.0,126.0,0.0
29.0,-163.0,121.0,0.0
29.0,-162.0,122.0,0.0
25.0,-134.0,104.0,0.0
27.0,-145.0,115.0,0.0
25.0,-131.0,107.0,0.0
26.0,-134.0,111.0,0.0
24.0,-119.0,101.0,0.0
24.0,-118.0,102.0,0.0
22.0,-105.0,93.0,0.0
22.0,-104.0,94.0,0.0
19.0,-88.0,82.0,0.0
19.0,-88.0,83.0,0.0
19.0,-83.0,81.0,0.0
17.0,-78.0,77.0,0.0
17.0,-73.0,75.0,0.0
386.0,-1632.0,1685.0,0.0
382.0,-1583.0,1672.0,0.0
389.0,-1581.0,1706.0,0.0
0.0,0.0,0.0,0.0
384.0,-1499.0,1692.0,0.0
392.0,-1501.0,1730.0,0.0
390.0,-1465.0,1727.0,0.0
399.0,-1468.0,1770.0,0.0
397.0,-1429.0,1762.0,0.0
400.0,-1411.0,1780.0,0.0
394.0,-1364.0,1760.0,0.0
399.0,-1351.0,1784.0,0.0
399.0,-1322.0,1786.0,0.0
407.0,-1320.0,1825.0,0.0
404.0,-1285.0,1819.0,0.0
0.0,0.0,0.0,0.0
411.0,-1251.0,1858.0,0.0
414.0,-1235.0,1877.0,0.0
411.0,-1198.0,1866.0,0.0
417.0,-1190.0,1898.0,0.0
415.0,-1155.0,1889.0,0.0
0.0,0.0,0.0,0.0
414.0,-1102.0,1895.0,0.0
425.0,-1103.0,1946.0,0.0
418.0,-1059.0,1920.0,0.0
425.0,-1054.0,1959.0,0.0
0.0,0.0,0.0,0.0
426.0,-1003.0,1969.0,0.0
3475.0,-7983.0,16102.0,0.0
3482.0,-7798.0,16177.0,0.0
3587.0,-7822.0,16699.0,0.0
3514.0,-7458.0,16393.0,0.0
3528.0,-7283.0,16491.0,0.0
3545.0,-7118.0,16614.0,0.0
3468.0,-6765.0,16286.0,0.0
3487.0,-6604.0,16411.0,0.0
3486.0,-6408.0,16449.0,0.0
3436.0,-6123.0,16249.0,0.0
3504.0,-6049.0,16610.0,0.0
3492.0,-5833.0,16589.0,0.0
3496.0,-5646.0,16645.0,0.0
3498.0,-5458.0,16696.0,0.0
3412.0,-5135.0,16322.0,0.0
3449.0,-5001.0,16535.0,0.0
3542.0,-4943.0,17024.0,0.0
441.0,-591.0,2128.0,0.0
435.0,-558.0,2100.0,0.0
435.0,-535.0,2106.0,0.0
444.0,-522.0,2152.0,0.0
7345.0,-8255.0,35737.0,1.0
432.0,-463.0,2107.0,0.0
431.0,-438.0,2107.0,0.0
7276.0,-6996.0,35671.0,1.0
7208.0,-6540.0,35424.0,1.0
437.0,-372.0,2153.0,0.0
444.0,-354.0,2190.0,0.0
444.0,-330.0,2199.0,0.0
444.0,-306.0,2206.0,0.0
0.0,0.0,0.0,0.0
436.0,-254.0,2177.0,0.0
434.0,-229.0,2175.0,0.0
438.0,-207.0,2202.0,0.0
427.0,-178.0,2150.0,0.0
6527.0,-2358.0,32954.0,1.0
422.0,-129.0,2140.0,0.0
4481.0,-1121.0,22756.0,0.0
4304.0,-836.0,21923.0,0.0
6.0,0.0,26.0,0.0
4.0,0.0,19.0,0.0
4.0,0.0,19.0,0.0
1.0,0.0,5.0,0.0
4.0,0.0,19.0,0.0
3.0,0.0,18.0,0.0
6.0,0.0,27.0,0.0
6.0,1.0,34.0,0.0
6.0,1.0,34.0,0.0
6.0,1.0,33.0,0.0
11.0,4.0,61.0,0.0
11.0,4.0,56.0,0.0
12.0,6.0,63.0,0.0
11.0,6.0,61.0,0.0
12.0,7.0,63.0,0.0
11.0,8.0,62.0,0.0
11.0,8.0,62.0,0.0
14.0,11.0,72.0,0.0
17.0,15.0,88.0,0.0
16.0,15.0,86.0,0.0
17.0,18.0,93.0,0.0
15.0,16.0,81.0,0.0
16.0,18.0,84.0,0.0
16.0,20.0,87.0,0.0
15.0,19.0,82.0,0.0
18.0,25.0,101.0,0.0
17.0,25.0,96.0,0.0
16.0,25.0,92.0,0.0
17.0,28.0,97.0,0.0
19.0,32.0,108.0,0.0
16.0,28.0,92.0,0.0
17.0,32.0,98.0,0.0
19.0,36.0,108.0,0.0
19.0,38.0,109.0,0.0
17.0,36.0,99.0,0.0
17.0,39.0,104.0,0.0
17.0,39.0,103.0,0.0
16.0,37.0,93.0,0.0
16.0,40.0,96.0,0.0
17.0,42.0,99.0,0.0
14.0,37.0,84.0,0.0
15.0,42.0,92.0,0.0
14.0,41.0,87.0,0.0
15.0,44.0,92.0,0.0
14.0,42.0,84.0,0.0
14.0,42.0,84.0,0.0
13.0,40.0,79.0,0.0
12.0,41.0,77.0,0.0
13.0,45.0,82.0,0.0
13.0,49.0,87.0,0.0
13.0,47.0,82.0,0.0
14.0,52.0,89.0,0.0
13.0,48.0,80.0,0.0
13.0,54.0,87.0,0.0
12.0,50.0,78.0,0.0
13.0,56.0,86.0,0.0
11.0,50.0,75.0,0.0
14.0,62.0,91.0,0.0
12.0,59.0,86.0,0.0
13.0,63.0,87.0,0.0
13.0,67.0,90.0,0.0
12.0,64.0,86.0,0.0
14.0,71.0,93.0,0.0
13.0,75.0,95.0,0.0
14.0,78.0,98.0,0.0
13.0,79.0,96.0,0.0
12.0,79.0,94.0,0.0
14.0,85.0,99.0,0.0
12.0,82.0,94.0,0.0
12.0,83.0,93.0,0.0
13.0,90.0,99.0,0.0
13.0,94.0,100.0,0.0
12.0,93.0,97.0,0.0
13.0,96.0,99.0,0.0
14.0,110.0,110.0,0.0
13.0,106.0,104.0,0.0
12.0,107.0,103.0,0.0
13.0,113.0,106.0,0.0
18.0,-257.0,77.0,0.0
18.0,-253.0,79.0,0.0
20.0,-260.0,84.0,0.0
21.0,-262.0,87.0,0.0
21.0,-268.0,93.0,0.0
22.0,-263.0,95.0,0.0
23.0,-267.0,99.0,0.0
24.0,-267.0,102.0,0.0
24.0,-261.0,104.0,0.0
24.0,-265.0,109.0,0.0
25.0,-263.0,111.0,0.0
26.0,-268.0,116.0,0.0
27.0,-264.0,118.0,0.0
27.0,-260.0,120.0,0.0
27.0,-257.0,122.0,0.0
29.0,-261.0,127.0,0.0
29.0,-258.0,129.0,0.0
29.0,-254.0,130.0,0.0
30.0,-250.0,132.0,0.0
31.0,-257.0,139.0,0.0
31.0,-255.0,142.0,0.0
34.0,-266.0,152.0,0.0
34.0,-258.0,151.0,0.0
33.0,-245.0,147.0,0.0
30.0,-221.0,136.0,0.0
29.0,-208.0,130.0,0.0
29.0,-205.0,133.0,0.0
29.0,-199.0,131.0,0.0
30.0,-197.0,133.0,0.0
28.0,-180.0,125.0,0.0
28.0,-178.0,126.0,0.0
26.0,-163.0,118.0,0.0
27.0,-170.0,125.0,0.0
24.0,-141.0,107.0,0.0
24.0,-144.0,112.0,0.0
25.0,-145.0,115.0,0.0
24.0,-139.0,112.0,0.0
21.0,-119.0,99.0,0.0
21.0,-112.0,94.0,0.0
20.0,-108.0,94.0,0.0
21.0,-112.0,100.0,0.0
18.0,-88.0,80.0,0.0
18.0,-90.0,84.0,0.0
18.0,-89.0,85.0,0.0
17.0,-81.0,78.0,0.0
14.0,-66.0,66.0,0.0
350.0,-1614.0,1634.0,0.0
352.0,-1588.0,1645.0,0.0
355.0,-1572.0,1663.0,0.0
361.0,-1563.0,1690.0,0.0
365.0,-1549.0,1713.0,0.0
364.0,-1512.0,1709.0,0.0
368.0,-1502.0,1737.0,0.0
367.0,-1467.0,1733.0,0.0
366.0,-1434.0,1732.0,0.0
376.0,-1442.0,1783.0,0.0
382.0,-1434.0,1814.0,0.0
373.0,-1372.0,1774.0,0.0
377.0,-1359.0,1799.0,0.0
386.0,-1358.0,1839.0,0.0
386.0,-1332.0,1845.0,0.0
384.0,-1298.0,1839.0,0.0
387.0,-1279.0,1856.0,0.0
389.0,-1259.0,1872.0,0.0
392.0,-1240.0,1888.0,0.0
389.0,-1201.0,1874.0,0.0
395.0,-1193.0,1908.0,0.0
396.0,-1171.0,1919.0,0.0
402.0,-1160.0,1949.0,0.0
391.0,-1105.0,1905.0,0.0
7038.0,-19404.0,34290.0,1.0
0.0,0.0,0.0,0.0
402.0,-1055.0,1966.0,0.0
402.0,-1030.0,1971.0,0.0
414.0,-1033.0,2031.0,0.0
3331.0,-8116.0,16393.0,0.0
3337.0,-7921.0,16456.0,0.0
3396.0,-7849.0,16778.0,0.0
3368.0,-7578.0,16676.0,0.0
3320.0,-7265.0,16472.0,0.0
3319.0,-7062.0,16503.0,0.0
3307.0,-6836.0,16476.0,0.0
3291.0,-6604.0,16430.0,0.0
3289.0,-6405.0,16459.0,0.0
3291.0,-6212.0,16503.0,0.0
3334.0,-6098.0,16759.0,0.0
3339.0,-5908.0,16814.0,0.0
3335.0,-5707.0,16837.0,0.0
3326.0,-5496.0,16827.0,0.0
3325.0,-5301.0,16862.0,0.0
3267.0,-5019.0,16605.0,0.0
3358.0,-4964.0,17107.0,0.0
408.0,-580.0,2088.0,0.0
417.0,-569.0,2137.0,0.0
418.0,-546.0,2149.0,0.0
423.0,-528.0,2179.0,0.0
415.0,-493.0,2139.0,0.0
7007.0,-7946.0,36225.0,1.0
415.0,-447.0,2150.0,0.0
6973.0,-7109.0,36231.0,1.0
416.0,-400.0,2165.0,0.0
412.0,-372.0,2147.0,0.0
6819.0,-5781.0,35711.0,1.0
418.0,-331.0,2197.0,0.0
411.0,-301.0,2165.0,0.0
415.0,-281.0,2192.0,0.0
413.0,-255.0,2186.0,0.0
413.0,-231.0,2190.0,0.0
411.0,-206.0,2186.0,0.0
416.0,-185.0,2222.0,0.0
412.0,-159.0,2209.0,0.0
405.0,-132.0,2174.0,0.0
4236.0,-1134.0,22818.0,0.0
4062.0,-847.0,21948.0,0.0
3911.0,-583.0,21198.0,0.0
2.0,-1.0,13.0,0.0
0.0,0.0,1.0,0.0
2.0,0.0,15.0,0.0
4.0,0.0,26.0,0.0
5.0,0.0,23.0,0.0
4.0,0.0,26.0,0.0
9.0,1.0,51.0,0.0
4.0,1.0,26.0,0.0
5.0,2.0,27.0,0.0
7.0,3.0,41.0,0.0
9.0,4.0,48.0,0.0
9.0,5.0,50.0,0.0
11.0,7.0,60.0,0.0
9.0,6.0,54.0,0.0
13.0,10.0,77.0,0.0
12.0,10.0,70.0,0.0
12.0,11.0,70.0,0.0
10.0,9.0,56.0,0.0
13.0,13.0,74.0,0.0
14.0,15.0,80.0,0.0
13.0,15.0,74.0,0.0
14.0,17.0,81.0,0.0
11.0,14.0,66.0,0.0
14.0,20.0,84.0,0.0
15.0,22.0,90.0,0.0
16.0,25.0,94.0,0.0
15.0,23.0,86.0,0.0
17.0,29.0,103.0,0.0
15.0,27.0,92.0,0.0
17.0,31.0,99.0,0.0
14.0,27.0,84.0,0.0
16.0,34.0,102.0,0.0
14.0,29.0,85.0,0.0
15.0,31.0,87.0,0.0
15.0,36.0,95.0,0.0
14.0,35.0,90.0,0.0
14.0,34.0,86.0,0.0
14.0,35.0,85.0,0.0
11.0,32.0,75.0,0.0
11.0,33.0,76.0,0.0
11.0,32.0,71.0,0.0
12.0,36.0,77.0,0.0
13.0,41.0,85.0,0.0
13.0,40.0,83.0,0.0
11.0,35.0,70.0,0.0
10.0,33.0,65.0,0.0
10.0,39.0,73.0,0.0
11.0,43.0,78.0,0.0
12.0,44.0,79.0,0.0
11.0,44.0,76.0,0.0
11.0,44.0,75.0,0.0
12.0,50.0,82.0,0.0
10.0,46.0,75.0,0.0
11.0,53.0,83.0,0.0
11.0,49.0,76.0,0.0
11.0,52.0,78.0,0.0
11.0,55.0,81.0,0.0
11.0,58.0,83.0,0.0
11.0,56.0,78.0,0.0
12.0,64.0,88.0,0.0
11.0,62.0,83.0,0.0
11.0,65.0,86.0,0.0
11.0,67.0,87.0,0.0
11.0,70.0,87.0,0.0
12.0,74.0,90.0,0.0
10.0,70.0,84.0,0.0
11.0,74.0,87.0,0.0
11.0,77.0,88.0,0.0
10.0,81.0,91.0,0.0
12.0,88.0,96.0,0.0
11.0,93.0,100.0,0.0
11.0,92.0,96.0,0.0
11.0,98.0,101.0,0.0
11.0,102.0,103.0,0.0
11.0,105.0,103.0,0.0
10.0,102.0,98.0,0.0
11.0,111.0,105.0,0.0
16.0,-268.0,81.0,0.0
18.0,-272.0,86.0,0.0
18.0,-279.0,91.0,0.0
19.0,-276.0,93.0,0.0
20.0,-275.0,96.0,0.0
21.0,-277.0,100.0,0.0
21.0,-273.0,103.0,0.0
21.0,-275.0,107.0,0.0
21.0,-271.0,108.0,0.0
24.0,-280.0,115.0,0.0
24.0,-275.0,117.0,0.0
25.0,-274.0,120.0,0.0
25.0,-278.0,126.0,0.0
25.0,-273.0,127.0,0.0
26.0,-272.0,129.0,0.0
28.0,-275.0,134.0,0.0
28.0,-274.0,138.0,0.0
28.0,-269.0,139.0,0.0
28.0,-262.0,138.0,0.0
30.0,-268.0,146.0,0.0
30.0,-266.0,149.0,0.0
32.0,-273.0,156.0,0.0
33.0,-270.0,159.0,0.0
29.0,-241.0,145.0,0.0
30.0,-234.0,144.0,0.0
28.0,-218.0,137.0,0.0
29.0,-219.0,141.0,0.0
29.0,-220.0,146.0,0.0
28.0,-201.0,136.0,0.0
27.0,-188.0,131.0,0.0
26.0,-181.0,128.0,0.0
26.0,-180.0,131.0,0.0
25.0,-169.0,126.0,0.0
23.0,-149.0,113.0,0.0
23.0,-148.0,115.0,0.0
23.0,-141.0,112.0,0.0
23.0,-137.0,111.0,0.0
22.0,-131.0,109.0,0.0
22.0,-128.0,110.0,0.0
20.0,-114.0,99.0,0.0
19.0,-108.0,96.0,0.0
18.0,-98.0,90.0,0.0
18.0,-96.0,91.0,0.0
16.0,-86.0,82.0,0.0
14.0,-76.0,74.0,0.0
16.0,-80.0,79.0,0.0
15.0,-72.0,74.0,0.0
332.0,-1610.0,1670.0,0.0
328.0,-1558.0,1652.0,0.0
333.0,-1545.0,1675.0,0.0
343.0,-1562.0,1730.0,0.0
339.0,-1514.0,1714.0,0.0
339.0,-1484.0,1718.0,0.0
346.0,-1475.0,1747.0,0.0
349.0,-1462.0,1770.0,0.0
5933.0,-24327.0,30121.0,1.0
348.0,-1394.0,1765.0,0.0
348.0,-1368.0,1771.0,0.0
0.0,0.0,0.0,0.0
362.0,-1362.0,1846.0,0.0
355.0,-1306.0,1813.0,0.0
360.0,-1299.0,1846.0,0.0
362.0,-1278.0,1859.0,0.0
0.0,0.0,0.0,0.0
366.0,-1234.0,1883.0,0.0
369.0,-1217.0,1902.0,0.0
364.0,-1173.0,1878.0,0.0
370.0,-1165.0,1914.0,0.0
373.0,-1148.0,1933.0,0.0
372.0,-1119.0,1932.0,0.0
0.0,0.0,0.0,0.0
376.0,-1078.0,1960.0,0.0
380.0,-1060.0,1977.0,0.0
376.0,-1025.0,1965.0,0.0
379.0,-1008.0,1983.0,0.0
385.0,-995.0,2014.0,0.0
383.0,-967.0,2011.0,0.0
3372.0,-8291.0,17746.0,0.0
3376.0,-8079.0,17801.0,0.0
3442.0,-8010.0,18179.0,0.0
3452.0,-7810.0,18272.0,0.0
3446.0,-7575.0,18279.0,0.0
3433.0,-7325.0,18244.0,0.0
3409.0,-7056.0,18151.0,0.0
3400.0,-6824.0,18143.0,0.0
3375.0,-6561.0,18047.0,0.0
3362.0,-6325.0,18020.0,0.0
3368.0,-6125.0,18087.0,0.0
3354.0,-5892.0,18051.0,0.0
3353.0,-5684.0,18091.0,0.0
3357.0,-5484.0,18155.0,0.0
3339.0,-5247.0,18090.0,0.0
3363.0,-5080.0,18269.0,0.0
395.0,-573.0,2154.0,0.0
388.0,-538.0,2119.0,0.0
384.0,-510.0,2102.0,0.0
6641.0,-8413.0,36422.0,1.0
389.0,-469.0,2137.0,0.0
0.0,0.0,0.0,0.0
399.0,-433.0,2207.0,0.0
408.0,-418.0,2261.0,0.0
389.0,-375.0,2158.0,0.0
394.0,-356.0,2194.0,0.0
396.0,-333.0,2210.0,0.0
396.0,-309.0,2214.0,0.0
395.0,-284.0,2218.0,0.0
6166.0,-4059.0,34722.0,1.0
383.0,-229.0,2165.0,0.0
388.0,-208.0,2201.0,0.0
387.0,-183.0,2199.0,0.0
391.0,-161.0,2231.0,0.0
391.0,-136.0,2234.0,0.0
3994.0,-1147.0,22897.0,0.0
3818.0,-856.0,21953.0,0.0
3685.0,-594.0,21258.0,0.0
4.0,-1.0,23.0,0.0
7.0,0.0,38.0,0.0
8.0,0.0,49.0,0.0
4.0,0.0,19.0,0.0
8.0,0.0,46.0,0.0
7.0,1.0,40.0,0.0
9.0,2.0,56.0,0.0
9.0,3.0,54.0,0.0
10.0,3.0,58.0,0.0
10.0,4.0,60.0,0.0
11.0,5.0,70.0,0.0
11.0,6.0,64.0,0.0
11.0,6.0,66.0,0.0
13.0,9.0,77.0,0.0
12.0,10.0,75.0,0.0
13.0,11.0,81.0,0.0
15.0,13.0,89.0,0.0
13.0,14.0,83.0,0.0
16.0,17.0,96.0,0.0
14.0,17.0,91.0,0.0
15.0,19.0,96.0,0.0
15.0,19.0,89.0,0.0
17.0,24.0,106.0,0.0
15.0,22.0,95.0,0.0
16.0,25.0,99.0,0.0
16.0,27.0,104.0,0.0
14.0,24.0,91.0,0.0
17.0,32.0,112.0,0.0
17.0,31.0,107.0,0.0
17.0,34.0,113.0,0.0
15.0,32.0,101.0,0.0
17.0,38.0,113.0,0.0
17.0,38.0,109.0,0.0
17.0,41.0,116.0,0.0
15.0,37.0,102.0,0.0
16.0,40.0,106.0,0.0
16.0,42.0,105.0,0.0
14.0,39.0,97.0,0.0
14.0,40.0,97.0,0.0
14.0,40.0,94.0,0.0
14.0,43.0,96.0,0.0
11.0,35.0,78.0,0.0
14.0,45.0,96.0,0.0
13.0,44.0,91.0,0.0
12.0,43.0,85.0,0.0
11.0,42.0,81.0,0.0
11.0,41.0,79.0,0.0
11.0,45.0,83.0,0.0
11.0,48.0,86.0,0.0
10.0,43.0,75.0,0.0
12.0,52.0,89.0,0.0
13.0,56.0,94.0,0.0
11.0,54.0,88.0,0.0
11.0,56.0,88.0,0.0
12.0,58.0,91.0,0.0
11.0,60.0,89.0,0.0
12.0,64.0,95.0,0.0
11.0,65.0,93.0,0.0
12.0,65.0,92.0,0.0
12.0,72.0,100.0,0.0
12.0,76.0,103.0,0.0
12.0,76.0,100.0,0.0
12.0,78.0,100.0,0.0
11.0,81.0,102.0,0.0
11.0,78.0,95.0,0.0
11.0,81.0,97.0,0.0
11.0,86.0,100.0,0.0
10.0,85.0,98.0,0.0
11.0,92.0,104.0,0.0
11.0,100.0,111.0,0.0
11.0,104.0,112.0,0.0
10.0,97.0,102.0,0.0
10.0,102.0,106.0,0.0
11.0,110.0,111.0,0.0
10.0,110.0,109.0,0.0
10.0,117.0,113.0,0.0
11.0,124.0,117.0,0.0
14.0,-272.0,83.0,0.0
14.0,-262.0,83.0,0.0
15.0,-259.0,85.0,0.0
16.0,-267.0,91.0,0.0
16.0,-263.0,93.0,0.0
17.0,-269.0,97.0,0.0
17.0,-268.0,101.0,0.0
18.0,-269.0,105.0,0.0
19.0,-267.0,107.0,0.0
20.0,-266.0,110.0,0.0
20.0,-265.0,112.0,0.0
21.0,-268.0,118.0,0.0
22.0,-270.0,122.0,0.0
22.0,-268.0,124.0,0.0
23.0,-266.0,127.0,0.0
24.0,-264.0,130.0,0.0
24.0,-259.0,131.0,0.0
24.0,-264.0,137.0,0.0
25.0,-255.0,136.0,0.0
27.0,-267.0,146.0,0.0
27.0,-261.0,146.0,0.0
28.0,-266.0,153.0,0.0
28.0,-261.0,154.0,0.0
26.0,-241.0,146.0,0.0
26.0,-232.0,143.0,0.0
26.0,-222.0,141.0,0.0
26.0,-212.0,138.0,0.0
24.0,-198.0,131.0,0.0
24.0,-195.0,132.0,0.0
25.0,-188.0,131.0,0.0
22.0,-166.0,118.0,0.0
23.0,-172.0,125.0,0.0
22.0,-159.0,118.0,0.0
22.0,-155.0,118.0,0.0
21.0,-146.0,114.0,0.0
20.0,-136.0,109.0,0.0
19.0,-127.0,104.0,0.0
19.0,-122.0,102.0,0.0
18.0,-113.0,96.0,0.0
19.0,-115.0,101.0,0.0
21.0,-125.0,111.0,0.0
17.0,-98.0,90.0,0.0
19.0,-107.0,99.0,0.0
16.0,-92.0,87.0,0.0
16.0,-87.0,85.0,0.0
16.0,-90.0,89.0,0.0
303.0,-1615.0,1643.0,0.0
14.0,-74.0,77.0,0.0
306.0,-1562.0,1659.0,0.0
315.0,-1575.0,1711.0,0.0
315.0,-1546.0,1715.0,0.0
318.0,-1525.0,1731.0,0.0
315.0,-1479.0,1716.0,0.0
321.0,-1473.0,1747.0,0.0
328.0,-1471.0,1786.0,0.0
328.0,-1446.0,1794.0,0.0
326.0,-1405.0,1783.0,0.0
5637.0,-23777.0,30857.0,1.0
331.0,-1367.0,1816.0,0.0
0.0,0.0,0.0,0.0
340.0,-1341.0,1864.0,0.0
341.0,-1317.0,1875.0,0.0
334.0,-1260.0,1837.0,0.0
341.0,-1258.0,1877.0,0.0
342.0,-1236.0,1889.0,0.0
338.0,-1192.0,1867.0,0.0
346.0,-1192.0,1912.0,0.0
347.0,-1170.0,1923.0,0.0
349.0,-1148.0,1935.0,0.0
360.0,-1159.0,2004.0,0.0
349.0,-1096.0,1943.0,0.0
352.0,-1076.0,1959.0,0.0
349.0,-1043.0,1949.0,0.0
360.0,-1051.0,2016.0,0.0
352.0,-1000.0,1972.0,0.0
0.0,0.0,0.0,0.0
358.0,-965.0,2012.0,0.0
357.0,-935.0,2004.0,0.0
361.0,-922.0,2037.0,0.0
6283.0,-15612.0,35475.0,1.0
358.0,-863.0,2024.0,0.0
3013.0,-7069.0,17074.0,0.0
3028.0,-6897.0,17195.0,0.0
3018.0,-6667.0,17167.0,0.0
3015.0,-6458.0,17189.0,0.0
3012.0,-6248.0,17204.0,0.0
3008.0,-6038.0,17216.0,0.0
2998.0,-5820.0,17197.0,0.0
3004.0,-5631.0,17264.0,0.0
2991.0,-5411.0,17231.0,0.0
2955.0,-5150.0,17056.0,0.0
2954.0,-4954.0,17088.0,0.0
369.0,-594.0,2139.0,0.0
376.0,-580.0,2185.0,0.0
366.0,-541.0,2131.0,0.0
365.0,-516.0,2129.0,0.0
366.0,-494.0,2142.0,0.0
370.0,-477.0,2170.0,0.0
365.0,-446.0,2146.0,0.0
372.0,-431.0,2195.0,0.0
362.0,-396.0,2141.0,0.0
372.0,-383.0,2206.0,0.0
368.0,-355.0,2191.0,0.0
372.0,-334.0,2217.0,0.0
366.0,-306.0,2190.0,0.0
369.0,-285.0,2214.0,0.0
364.0,-257.0,2194.0,0.0
5717.0,-3653.0,34475.0,1.0
364.0,-209.0,2202.0,0.0
370.0,-187.0,2241.0,0.0
365.0,-162.0,2223.0,0.0
359.0,-135.0,2194.0,0.0
3739.0,-1155.0,22904.0,0.0
3574.0,-865.0,21961.0,0.0
3447.0,-602.0,21251.0,0.0
3.0,0.0,16.0,0.0
5.0,0.0,31.0,0.0
6.0,0.0,37.0,0.0
3.0,0.0,18.0,0.0
5.0,0.0,32.0,0.0
9.0,1.0,56.0,0.0
7.0,1.0,38.0,0.0
3.0,0.0,21.0,0.0
6.0,2.0,36.0,0.0
9.0,4.0,55.0,0.0
7.0,4.0,46.0,0.0
8.0,4.0,52.0,0.0
7.0,5.0,49.0,0.0
9.0,7.0,62.0,0.0
12.0,10.0,81.0,0.0
11.0,10.0,69.0,0.0
12.0,11.0,76.0,0.0
13.0,14.0,84.0,0.0
12.0,14.0,81.0,0.0
13.0,16.0,85.0,0.0
15.0,20.0,98.0,0.0
15.0,21.0,100.0,0.0
14.0,20.0,89.0,0.0
12.0,18.0,78.0,0.0
15.0,25.0,98.0,0.0
16.0,28.0,107.0,0.0
14.0,26.0,96.0,0.0
16.0,30.0,107.0,0.0
15.0,30.0,105.0,0.0
15.0,32.0,104.0,0.0
12.0,29.0,89.0,0.0
15.0,35.0,107.0,0.0
14.0,35.0,100.0,0.0
15.0,37.0,106.0,0.0
14.0,36.0,97.0,0.0
13.0,38.0,100.0,0.0
12.0,34.0,87.0,0.0
12.0,35.0,86.0,0.0
11.0,34.0,80.0,0.0
11.0,36.0,84.0,0.0
12.0,38.0,85.0,0.0
10.0,35.0,75.0,0.0
11.0,41.0,87.0,0.0
11.0,41.0,84.0,0.0
9.0,39.0,78.0,0.0
10.0,41.0,80.0,0.0
9.0,39.0,72.0,0.0
9.0,42.0,77.0,0.0
11.0,47.0,84.0,0.0
11.0,48.0,85.0,0.0
9.0,44.0,76.0,0.0
9.0,47.0,79.0,0.0
10.0,51.0,82.0,0.0
10.0,54.0,85.0,0.0
9.0,54.0,84.0,0.0
10.0,54.0,82.0,0.0
9.0,57.0,85.0,0.0
10.0,60.0,87.0,0.0
10.0,68.0,94.0,0.0
9.0,61.0,85.0,0.0
9.0,68.0,92.0,0.0
9.0,68.0,91.0,0.0
11.0,76.0,98.0,0.0
10.0,76.0,96.0,0.0
10.0,76.0,94.0,0.0
10.0,80.0,96.0,0.0
10.0,86.0,102.0,0.0
9.0,81.0,93.0,0.0
9.0,85.0,96.0,0.0
9.0,92.0,101.0,0.0
10.0,94.0,103.0,0.0
9.0,102.0,107.0,0.0
9.0,101.0,104.0,0.0
9.0,104.0,106.0,0.0
9.0,112.0,111.0,0.0
8.0,100.0,97.0,0.0
8.0,114.0,108.0,0.0
12.0,-272.0,83.0,0.0
12.0,-268.0,85.0,0.0
12.0,-271.0,90.0,0.0
13.0,-272.0,92.0,0.0
14.0,-269.0,95.0,0.0
14.0,-268.0,98.0,0.0
16.0,-270.0,102.0,0.0
16.0,-274.0,107.0,0.0
17.0,-272.0,110.0,0.0
17.0,-268.0,111.0,0.0
18.0,-275.0,118.0,0.0
18.0,-272.0,120.0,0.0
19.0,-268.0,122.0,0.0
20.0,-274.0,127.0,0.0
20.0,-261.0,125.0,0.0
21.0,-265.0,131.0,0.0
22.0,-266.0,134.0,0.0
21.0,-258.0,134.0,0.0
22.0,-260.0,138.0,0.0
24.0,-267.0,146.0,0.0
26.0,-283.0,159.0,0.0
25.0,-266.0,153.0,0.0
26.0,-266.0,157.0,0.0
25.0,-248.0,150.0,0.0
26.0,-246.0,153.0,0.0
24.0,-225.0,142.0,0.0
22.0,-205.0,134.0,0.0
23.0,-216.0,143.0,0.0
23.0,-201.0,137.0,0.0
21.0,-186.0,130.0,0.0
21.0,-177.0,126.0,0.0
22.0,-181.0,132.0,0.0
20.0,-165.0,124.0,0.0
21.0,-163.0,125.0,0.0
20.0,-152.0,118.0,0.0
19.0,-141.0,113.0,0.0
19.0,-133.0,109.0,0.0
18.0,-124.0,104.0,0.0
17.0,-120.0,103.0,0.0
17.0,-114.0,100.0,0.0
15.0,-102.0,90.0,0.0
16.0,-107.0,98.0,0.0
15.0,-95.0,89.0,0.0
15.0,-94.0,90.0,0.0
15.0,-88.0,86.0,0.0
15.0,-89.0,89.0,0.0
281.0,-1625.0,1656.0,0.0
286.0,-1621.0,1689.0,0.0
281.0,-1556.0,1657.0,0.0
288.0,-1562.0,1699.0,0.0
291.0,-1547.0,1721.0,0.0
290.0,-1505.0,1711.0,0.0
294.0,-1496.0,1740.0,0.0
295.0,-1467.0,1744.0,0.0
306.0,-1486.0,1806.0,0.0
304.0,-1449.0,1801.0,0.0
5152.0,-23970.0,30467.0,1.0
304.0,-1387.0,1803.0,0.0
5260.0,-23409.0,31135.0,1.0
307.0,-1335.0,1816.0,0.0
311.0,-1322.0,1841.0,0.0
306.0,-1276.0,1820.0,0.0
316.0,-1284.0,1874.0,0.0
309.0,-1228.0,1836.0,0.0
313.0,-1216.0,1861.0,0.0
319.0,-1210.0,1898.0,0.0
328.0,-1216.0,1953.0,0.0
0.0,0.0,0.0,0.0
328.0,-1158.0,1955.0,0.0
329.0,-1136.0,1967.0,0.0
322.0,-1084.0,1925.0,0.0
324.0,-1065.0,1942.0,0.0
328.0,-1051.0,1968.0,0.0
336.0,-1050.0,2018.0,0.0
332.0,-1014.0,2000.0,0.0
335.0,-995.0,2018.0,0.0
340.0,-981.0,2049.0,0.0
338.0,-951.0,2041.0,0.0
5833.0,-15984.0,35303.0,1.0
338.0,-899.0,2047.0,0.0
336.0,-871.0,2043.0,0.0
5867.0,-14762.0,35693.0,1.0
337.0,-823.0,2054.0,0.0
338.0,-799.0,2061.0,0.0
344.0,-789.0,2103.0,0.0
348.0,-772.0,2129.0,0.0
339.0,-728.0,2081.0,0.0
2836.0,-5900.0,17446.0,0.0
2827.0,-5681.0,17429.0,0.0
2821.0,-5469.0,17430.0,0.0
2809.0,-5247.0,17391.0,0.0
2802.0,-5036.0,17381.0,0.0
343.0,-591.0,2131.0,0.0
345.0,-572.0,2152.0,0.0
349.0,-553.0,2179.0,0.0
347.0,-526.0,2173.0,0.0
348.0,-504.0,2188.0,0.0
5800.0,-8006.0,36495.0,1.0
5782.0,-7582.0,36474.0,1.0
0.0,0.0,0.0,0.0
348.0,-407.0,2203.0,0.0
344.0,-380.0,2188.0,0.0
344.0,-357.0,2197.0,0.0
348.0,-336.0,2225.0,0.0
342.0,-307.0,2193.0,0.0
333.0,-275.0,2143.0,0.0
332.0,-250.0,2138.0,0.0
347.0,-238.0,2241.0,0.0
349.0,-216.0,2263.0,0.0
338.0,-185.0,2202.0,0.0
343.0,-163.0,2238.0,0.0
344.0,-139.0,2252.0,0.0
3490.0,-1166.0,22943.0,0.0
3327.0,-873.0,21946.0,0.0
5.0,-1.0,37.0,0.0
1.0,0.0,8.0,0.0
4.0,0.0,30.0,0.0
3.0,0.0,21.0,0.0
7.0,0.0,47.0,0.0
7.0,1.0,50.0,0.0
8.0,1.0,57.0,0.0
7.0,1.0,47.0,0.0
9.0,3.0,64.0,0.0
9.0,3.0,60.0,0.0
8.0,4.0,57.0,0.0
9.0,5.0,61.0,0.0
9.0,6.0,64.0,0.0
9.0,6.0,65.0,0.0
7.0,6.0,54.0,0.0
10.0,9.0,69.0,0.0
11.0,10.0,76.0,0.0
12.0,12.0,80.0,0.0
13.0,15.0,88.0,0.0
13.0,17.0,93.0,0.0
14.0,18.0,96.0,0.0
13.0,18.0,89.0,0.0
15.0,23.0,107.0,0.0
15.0,24.0,106.0,0.0
12.0,21.0,91.0,0.0
15.0,27.0,112.0,0.0
13.0,26.0,100.0,0.0
15.0,29.0,107.0,0.0
14.0,30.0,106.0,0.0
13.0,30.0,101.0,0.0
16.0,36.0,120.0,0.0
14.0,35.0,108.0,0.0
13.0,33.0,102.0,0.0
14.0,36.0,106.0,0.0
14.0,40.0,113.0,0.0
13.0,39.0,107.0,0.0
13.0,39.0,103.0,0.0
13.0,39.0,101.0,0.0
11.0,37.0,93.0,0.0
11.0,38.0,92.0,0.0
12.0,43.0,99.0,0.0
11.0,41.0,91.0,0.0
10.0,40.0,87.0,0.0
11.0,41.0,86.0,0.0
9.0,39.0,80.0,0.0
10.0,42.0,85.0,0.0
10.0,43.0,85.0,0.0
10.0,46.0,88.0,0.0
10.0,49.0,90.0,0.0
10.0,53.0,95.0,0.0
9.0,49.0,86.0,0.0
9.0,51.0,88.0,0.0
10.0,53.0,89.0,0.0
9.0,51.0,82.0,0.0
9.0,55.0,88.0,0.0
10.0,58.0,90.0,0.0
9.0,58.0,89.0,0.0
9.0,63.0,95.0,0.0
9.0,65.0,94.0,0.0
8.0,60.0,85.0,0.0
9.0,69.0,95.0,0.0
9.0,69.0,93.0,0.0
9.0,76.0,101.0,0.0
9.0,73.0,94.0,0.0
8.0,74.0,93.0,0.0
9.0,82.0,101.0,0.0
9.0,84.0,102.0,0.0
9.0,89.0,105.0,0.0
8.0,89.0,103.0,0.0
9.0,90.0,102.0,0.0
9.0,96.0,107.0,0.0
8.0,100.0,109.0,0.0
7.0,96.0,101.0,0.0
8.0,106.0,111.0,0.0
8.0,110.0,112.0,0.0
7.0,105.0,105.0,0.0
7.0,112.0,109.0,0.0
7.0,119.0,114.0,0.0
9.0,-278.0,85.0,0.0
9.0,-262.0,83.0,0.0
10.0,-266.0,88.0,0.0
11.0,-269.0,93.0,0.0
11.0,-262.0,93.0,0.0
12.0,-271.0,99.0,0.0
12.0,-266.0,101.0,0.0
13.0,-265.0,104.0,0.0
13.0,-256.0,103.0,0.0
14.0,-269.0,112.0,0.0
14.0,-265.0,114.0,0.0
16.0,-269.0,119.0,0.0
16.0,-264.0,120.0,0.0
17.0,-265.0,124.0,0.0
17.0,-262.0,126.0,0.0
18.0,-266.0,132.0,0.0
18.0,-255.0,130.0,0.0
19.0,-260.0,135.0,0.0
19.0,-252.0,135.0,0.0
20.0,-259.0,142.0,0.0
22.0,-270.0,152.0,0.0
23.0,-270.0,156.0,0.0
23.0,-271.0,160.0,0.0
22.0,-250.0,152.0,0.0
21.0,-232.0,145.0,0.0
21.0,-226.0,144.0,0.0
21.0,-222.0,145.0,0.0
21.0,-209.0,139.0,0.0
20.0,-202.0,139.0,0.0
20.0,-189.0,132.0,0.0
18.0,-175.0,126.0,0.0
19.0,-169.0,124.0,0.0
19.0,-164.0,122.0,0.0
17.0,-146.0,112.0,0.0
18.0,-150.0,118.0,0.0
18.0,-149.0,119.0,0.0
16.0,-127.0,105.0,0.0
17.0,-134.0,112.0,0.0
15.0,-117.0,100.0,0.0
15.0,-114.0,100.0,0.0
17.0,-122.0,110.0,0.0
16.0,-111.0,102.0,0.0
14.0,-94.0,88.0,0.0
15.0,-101.0,97.0,0.0
15.0,-98.0,96.0,0.0
13.0,-84.0,83.0,0.0
10.0,-59.0,61.0,0.0
258.0,-1600.0,1671.0,0.0
264.0,-1599.0,1706.0,0.0
264.0,-1560.0,1701.0,0.0
270.0,-1564.0,1743.0,0.0
266.0,-1507.0,1717.0,0.0
276.0,-1523.0,1774.0,0.0
280.0,-1511.0,1800.0,0.0
4598.0,-24311.0,29599.0,1.0
276.0,-1430.0,1781.0,0.0
279.0,-1407.0,1791.0,0.0
285.0,-1405.0,1831.0,0.0
289.0,-1393.0,1856.0,0.0
281.0,-1328.0,1811.0,0.0
289.0,-1335.0,1863.0,0.0
288.0,-1299.0,1856.0,0.0
285.0,-1254.0,1834.0,0.0
287.0,-1233.0,1845.0,0.0
291.0,-1227.0,1880.0,0.0
303.0,-1244.0,1954.0,0.0
301.0,-1206.0,1940.0,0.0
297.0,-1162.0,1915.0,0.0
300.0,-1149.0,1943.0,0.0
301.0,-1124.0,1949.0,0.0
306.0,-1116.0,1985.0,0.0
305.0,-1080.0,1972.0,0.0
303.0,-1051.0,1969.0,0.0
303.0,-1025.0,1971.0,0.0
311.0,-1022.0,2021.0,0.0
306.0,-982.0,1994.0,0.0
311.0,-970.0,2026.0,0.0
313.0,-949.0,2039.0,0.0
0.0,0.0,0.0,0.0
312.0,-893.0,2036.0,0.0
307.0,-856.0,2010.0,0.0
316.0,-857.0,2075.0,0.0
315.0,-831.0,2076.0,0.0
320.0,-815.0,2104.0,0.0
0.0,0.0,0.0,0.0
321.0,-768.0,2121.0,0.0
313.0,-724.0,2070.0,0.0
319.0,-716.0,2121.0,0.0
320.0,-691.0,2124.0,0.0
312.0,-651.0,2080.0,0.0
316.0,-635.0,2106.0,0.0
317.0,-613.0,2118.0,0.0
320.0,-595.0,2147.0,0.0
325.0,-579.0,2179.0,0.0
323.0,-553.0,2177.0,0.0
0.0,0.0,0.0,0.0
318.0,-497.0,2153.0,0.0
5381.0,-8005.0,36481.0,1.0
320.0,-452.0,2174.0,0.0
5309.0,-7108.0,36177.0,1.0
317.0,-401.0,2165.0,0.0
321.0,-382.0,2199.0,0.0
312.0,-348.0,2144.0,0.0
317.0,-330.0,2184.0,0.0
314.0,-303.0,2168.0,0.0
316.0,-282.0,2195.0,0.0
321.0,-262.0,2232.0,0.0
4879.0,-3621.0,34019.0,1.0
315.0,-210.0,2202.0,0.0
317.0,-187.0,2227.0,0.0
315.0,-162.0,2222.0,0.0
313.0,-137.0,2211.0,0.0
3254.0,-1180.0,23068.0,0.0
3087.0,-882.0,21965.0,0.0
2992.0,-623.0,21369.0,0.0
3.0,0.0,22.0,0.0
4.0,0.0,27.0,0.0
4.0,0.0,24.0,0.0
2.0,0.0,14.0,0.0
3.0,0.0,21.0,0.0
5.0,1.0,36.0,0.0
4.0,1.0,29.0,0.0
6.0,2.0,46.0,0.0
5.0,3.0,41.0,0.0
7.0,3.0,51.0,0.0
7.0,4.0,54.0,0.0
7.0,5.0,58.0,0.0
11.0,8.0,80.0,0.0
9.0,8.0,69.0,0.0
9.0,9.0,68.0,0.0
11.0,10.0,79.0,0.0
11.0,13.0,84.0,0.0
11.0,13.0,82.0,0.0
12.0,16.0,89.0,0.0
13.0,18.0,97.0,0.0
11.0,18.0,92.0,0.0
12.0,21.0,100.0,0.0
12.0,19.0,90.0,0.0
13.0,24.0,102.0,0.0
13.0,27.0,108.0,0.0
12.0,25.0,97.0,0.0
12.0,27.0,101.0,0.0
12.0,28.0,99.0,0.0
10.0,26.0,90.0,0.0
12.0,32.0,106.0,0.0
13.0,33.0,104.0,0.0
12.0,34.0,102.0,0.0
12.0,36.0,106.0,0.0
12.0,37.0,104.0,0.0
12.0,38.0,106.0,0.0
12.0,36.0,97.0,0.0
11.0,37.0,97.0,0.0
10.0,37.0,93.0,0.0
9.0,34.0,82.0,0.0
10.0,37.0,86.0,0.0
10.0,39.0,87.0,0.0
10.0,40.0,86.0,0.0
9.0,36.0,78.0,0.0
9.0,43.0,89.0,0.0
9.0,44.0,89.0,0.0
8.0,40.0,79.0,0.0
9.0,44.0,84.0,0.0
9.0,44.0,83.0,0.0
8.0,47.0,86.0,0.0
8.0,46.0,81.0,0.0
8.0,46.0,80.0,0.0
8.0,50.0,83.0,0.0
8.0,53.0,87.0,0.0
8.0,51.0,82.0,0.0
8.0,57.0,88.0,0.0
7.0,52.0,79.0,0.0
7.0,54.0,81.0,0.0
7.0,58.0,84.0,0.0
8.0,67.0,96.0,0.0
7.0,65.0,90.0,0.0
7.0,66.0,91.0,0.0
7.0,66.0,87.0,0.0
8.0,73.0,94.0,0.0
7.0,76.0,97.0,0.0
8.0,82.0,102.0,0.0
7.0,80.0,97.0,0.0
7.0,82.0,96.0,0.0
7.0,84.0,98.0,0.0
7.0,87.0,99.0,0.0
7.0,92.0,102.0,0.0
6.0,92.0,100.0,0.0
6.0,95.0,100.0,0.0
6.0,98.0,102.0,0.0
5.0,97.0,99.0,0.0
5.0,104.0,104.0,0.0
6.0,111.0,109.0,0.0
6.0,111.0,106.0,0.0
6.0,-273.0,85.0,0.0
7.0,-271.0,87.0,0.0
7.0,-264.0,87.0,0.0
8.0,-269.0,92.0,0.0
8.0,-259.0,93.0,0.0
9.0,-262.0,96.0,0.0
10.0,-267.0,102.0,0.0
10.0,-261.0,102.0,0.0
11.0,-266.0,108.0,0.0
12.0,-267.0,112.0,0.0
12.0,-260.0,113.0,0.0
12.0,-266.0,118.0,0.0
13.0,-257.0,117.0,0.0
14.0,-267.0,125.0,0.0
15.0,-264.0,128.0,0.0
15.0,-258.0,128.0,0.0
16.0,-262.0,133.0,0.0
16.0,-257.0,134.0,0.0
16.0,-252.0,135.0,0.0
18.0,-269.0,148.0,0.0
19.0,-271.0,154.0,0.0
19.0,-269.0,156.0,0.0
19.0,-265.0,157.0,0.0
20.0,-258.0,157.0,0.0
19.0,-237.0,148.0,0.0
19.0,-232.0,148.0,0.0
18.0,-219.0,143.0,0.0
18.0,-215.0,144.0,0.0
18.0,-207.0,142.0,0.0
18.0,-198.0,139.0,0.0
18.0,-186.0,134.0,0.0
16.0,-168.0,124.0,0.0
17.0,-173.0,129.0,0.0
17.0,-166.0,128.0,0.0
17.0,-158.0,125.0,0.0
17.0,-155.0,125.0,0.0
15.0,-136.0,111.0,0.0
16.0,-134.0,113.0,0.0
15.0,-125.0,108.0,0.0
13.0,-108.0,95.0,0.0
15.0,-118.0,106.0,0.0
12.0,-91.0,84.0,0.0
13.0,-96.0,90.0,0.0
13.0,-96.0,92.0,0.0
9.0,-69.0,67.0,0.0
12.0,-82.0,83.0,0.0
11.0,-71.0,73.0,0.0
3809.0,-25995.0,27182.0,1.0
238.0,-1589.0,1698.0,0.0
240.0,-1562.0,1707.0,0.0
241.0,-1533.0,1712.0,0.0
247.0,-1533.0,1750.0,0.0
249.0,-1510.0,1763.0,0.0
248.0,-1471.0,1755.0,0.0
251.0,-1456.0,1775.0,0.0
253.0,-1431.0,1786.0,0.0
256.0,-1418.0,1810.0,0.0
4336.0,-23438.0,30573.0,1.0
261.0,-1376.0,1838.0,0.0
263.0,-1354.0,1850.0,0.0
264.0,-1330.0,1859.0,0.0
0.0,0.0,0.0,0.0
271.0,-1301.0,1905.0,0.0
266.0,-1250.0,1874.0,0.0
270.0,-1237.0,1898.0,0.0
4602.0,-20604.0,32382.0,1.0
0.0,0.0,0.0,0.0
0.0,0.0,0.0,0.0
277.0,-1151.0,1948.0,0.0
4699.0,-19079.0,33098.0,1.0
274.0,-1083.0,1929.0,0.0
279.0,-1077.0,1968.0,0.0
282.0,-1062.0,1992.0,0.0
287.0,-1056.0,2033.0,0.0
282.0,-1007.0,1991.0,0.0
283.0,-986.0,2005.0,0.0
0.0,0.0,0.0,0.0
283.0,-934.0,2009.0,0.0
292.0,-935.0,2071.0,0.0
290.0,-905.0,2062.0,0.0
0.0,0.0,0.0,0.0
288.0,-844.0,2047.0,0.0
287.0,-818.0,2046.0,0.0
293.0,-810.0,2094.0,0.0
296.0,-794.0,2120.0,0.0
286.0,-743.0,2053.0,0.0
288.0,-722.0,2065.0,0.0
0.0,0.0,0.0,0.0
296.0,-694.0,2132.0,0.0
0.0,0.0,0.0,0.0
292.0,-636.0,2113.0,0.0
298.0,-626.0,2162.0,0.0
302.0,-608.0,2193.0,0.0
297.0,-575.0,2167.0,0.0
293.0,-542.0,2139.0,0.0
293.0,-518.0,2140.0,0.0
300.0,-507.0,2201.0,0.0
295.0,-477.0,2169.0,0.0
294.0,-450.0,2167.0,0.0
298.0,-434.0,2207.0,0.0
294.0,-403.0,2173.0,0.0
296.0,-382.0,2196.0,0.0
296.0,-358.0,2204.0,0.0
293.0,-332.0,2190.0,0.0
293.0,-307.0,2196.0,0.0
298.0,-288.0,2232.0,0.0
295.0,-262.0,2224.0,0.0
297.0,-239.0,2244.0,0.0
294.0,-213.0,2226.0,0.0
296.0,-191.0,2257.0,0.0
291.0,-164.0,2228.0,0.0
289.0,-138.0,2213.0,0.0
2988.0,-1184.0,22991.0,0.0
2844.0,-890.0,21960.0,0.0
2757.0,-631.0,21369.0,0.0
3.0,-1.0,23.0,0.0
5.0,0.0,39.0,0.0
2.0,0.0,17.0,0.0
3.0,0.0,22.0,0.0
3.0,0.0,23.0,0.0
4.0,0.0,33.0,0.0
6.0,1.0,45.0,0.0
5.0,1.0,35.0,0.0
8.0,3.0,58.0,0.0
6.0,4.0,50.0,0.0
8.0,5.0,64.0,0.0
7.0,5.0,55.0,0.0
8.0,7.0,68.0,0.0
10.0,10.0,84.0,0.0
10.0,11.0,83.0,0.0
9.0,11.0,79.0,0.0
8.0,10.0,68.0,0.0
8.0,11.0,71.0,0.0
9.0,15.0,84.0,0.0
11.0,18.0,99.0,0.0
10.0,17.0,87.0,0.0
10.0,19.0,92.0,0.0
11.0,22.0,100.0,0.0
11.0,23.0,100.0,0.0
11.0,24.0,98.0,0.0
11.0,26.0,102.0,0.0
10.0,25.0,93.0,0.0
11.0,29.0,105.0,0.0
12.0,33.0,115.0,0.0
12.0,32.0,104.0,0.0
12.0,36.0,115.0,0.0
12.0,37.0,113.0,0.0
11.0,36.0,104.0,0.0
10.0,36.0,100.0,0.0
11.0,37.0,101.0,0.0
10.0,36.0,95.0,0.0
10.0,38.0,98.0,0.0
11.0,44.0,111.0,0.0
9.0,38.0,92.0,0.0
9.0,40.0,93.0,0.0
8.0,37.0,84.0,0.0
8.0,41.0,90.0,0.0
9.0,45.0,96.0,0.0
8.0,41.0,86.0,0.0
7.0,40.0,81.0,0.0
8.0,43.0,85.0,0.0
8.0,48.0,92.0,0.0
8.0,47.0,88.0,0.0
7.0,48.0,87.0,0.0
7.0,47.0,83.0,0.0
8.0,49.0,85.0,0.0
7.0,51.0,85.0,0.0
6.0,48.0,78.0,0.0
7.0,56.0,88.0,0.0
7.0,57.0,90.0,0.0
6.0,55.0,85.0,0.0
7.0,59.0,87.0,0.0
6.0,61.0,90.0,0.0
7.0,65.0,93.0,0.0
6.0,65.0,92.0,0.0
6.0,66.0,90.0,0.0
6.0,69.0,93.0,0.0
6.0,74.0,96.0,0.0
6.0,75.0,95.0,0.0
6.0,78.0,97.0,0.0
7.0,82.0,100.0,0.0
6.0,86.0,103.0,0.0
5.0,83.0,96.0,0.0
6.0,90.0,103.0,0.0
6.0,97.0,108.0,0.0
5.0,97.0,105.0,0.0
5.0,97.0,102.0,0.0
5.0,99.0,104.0,0.0
4.0,106.0,109.0,0.0
4.0,110.0,110.0,0.0
4.0,107.0,104.0,0.0
4.0,113.0,108.0,0.0
3.0,-260.0,81.0,0.0
5.0,-258.0,83.0,0.0
5.0,-258.0,86.0,0.0
5.0,-258.0,89.0,0.0
6.0,-255.0,92.0,0.0
6.0,-260.0,96.0,0.0
7.0,-251.0,97.0,0.0
8.0,-264.0,104.0,0.0
8.0,-254.0,103.0,0.0
9.0,-260.0,109.0,0.0
9.0,-258.0,112.0,0.0
9.0,-255.0,113.0,0.0
10.0,-258.0,119.0,0.0
11.0,-252.0,119.0,0.0
12.0,-253.0,123.0,0.0
12.0,-253.0,126.0,0.0
13.0,-254.0,130.0,0.0
13.0,-245.0,129.0,0.0
13.0,-247.0,133.0,0.0
14.0,-259.0,143.0,0.0
16.0,-267.0,151.0,0.0
16.0,-258.0,150.0,0.0
17.0,-266.0,159.0,0.0
15.0,-240.0,147.0,0.0
15.0,-231.0,144.0,0.0
16.0,-229.0,147.0,0.0
17.0,-226.0,148.0,0.0
16.0,-215.0,145.0,0.0
15.0,-194.0,134.0,0.0
15.0,-186.0,131.0,0.0
14.0,-180.0,129.0,0.0
16.0,-188.0,138.0,0.0
14.0,-159.0,119.0,0.0
14.0,-158.0,122.0,0.0
13.0,-145.0,114.0,0.0
13.0,-143.0,115.0,0.0
13.0,-130.0,107.0,0.0
14.0,-140.0,118.0,0.0
13.0,-125.0,107.0,0.0
12.0,-119.0,104.0,0.0
11.0,-106.0,95.0,0.0
10.0,-89.0,82.0,0.0
12.0,-103.0,97.0,0.0
10.0,-87.0,83.0,0.0
9.0,-74.0,73.0,0.0
9.0,-72.0,71.0,0.0
8.0,-63.0,66.0,0.0
210.0,-1598.0,1674.0,0.0
211.0,-1565.0,1675.0,0.0
218.0,-1579.0,1728.0,0.0
219.0,-1543.0,1726.0,0.0
220.0,-1516.0,1733.0,0.0
223.0,-1502.0,1756.0,0.0
223.0,-1470.0,1755.0,0.0
230.0,-1473.0,1800.0,0.0
230.0,-1436.0,1795.0,0.0
233.0,-1424.0,1820.0,0.0
0.0,0.0,0.0,0.0
234.0,-1365.0,1824.0,0.0
235.0,-1333.0,1822.0,0.0
243.0,-1350.0,1889.0,0.0
0.0,0.0,0.0,0.0
240.0,-1268.0,1859.0,0.0
240.0,-1241.0,1863.0,0.0
0.0,0.0,0.0,0.0
244.0,-1197.0,1883.0,0.0
249.0,-1192.0,1924.0,0.0
4209.0,-19692.0,32540.0,1.0
0.0,0.0,0.0,0.0
4236.0,-18854.0,32750.0,1.0
0.0,0.0,0.0,0.0
252.0,-1064.0,1947.0,0.0
258.0,-1063.0,1997.0,0.0
255.0,-1023.0,1974.0,0.0
263.0,-1028.0,2035.0,0.0
0.0,0.0,0.0,0.0
260.0,-963.0,2016.0,0.0
0.0,0.0,0.0,0.0
0.0,0.0,0.0,0.0
0.0,0.0,0.0,0.0
261.0,-861.0,2026.0,0.0
4563.0,-14650.0,35520.0,1.0
266.0,-826.0,2069.0,0.0
265.0,-801.0,2073.0,0.0
0.0,0.0,0.0,0.0
272.0,-772.0,2133.0,0.0
0.0,0.0,0.0,0.0
0.0,0.0,0.0,0.0
269.0,-686.0,2111.0,0.0
4476.0,-11046.0,35258.0,1.0
265.0,-629.0,2090.0,0.0
4447.0,-10175.0,35159.0,1.0
266.0,-586.0,2114.0,0.0
272.0,-574.0,2161.0,0.0
271.0,-548.0,2157.0,0.0
4553.0,-8805.0,36316.0,1.0
0.0,0.0,0.0,0.0
268.0,-471.0,2144.0,0.0
266.0,-446.0,2141.0,0.0
269.0,-427.0,2172.0,0.0
271.0,-405.0,2187.0,0.0
269.0,-379.0,2179.0,0.0
269.0,-355.0,2187.0,0.0
4345.0,-5361.0,35403.0,1.0
267.0,-307.0,2188.0,0.0
272.0,-288.0,2233.0,0.0
272.0,-264.0,2237.0,0.0
266.0,-235.0,2200.0,0.0
267.0,-212.0,2212.0,0.0
268.0,-189.0,2229.0,0.0
263.0,-162.0,2201.0,0.0
263.0,-139.0,2202.0,0.0
2745.0,-1196.0,23075.0,0.0
2603.0,-897.0,21970.0,0.0
2525.0,-639.0,21401.0,0.0
2470.0,-399.0,21031.0,0.0
1.0,0.0,15.0,0.0
5.0,0.0,40.0,0.0
4.0,0.0,31.0,0.0
3.0,0.0,23.0,0.0
5.0,0.0,43.0,0.0
4.0,1.0,42.0,0.0
4.0,1.0,38.0,0.0
5.0,2.0,43.0,0.0
6.0,3.0,53.0,0.0
5.0,4.0,50.0,0.0
6.0,5.0,53.0,0.0
7.0,6.0,60.0,0.0
9.0,9.0,80.0,0.0
8.0,9.0,68.0,0.0
7.0,9.0,71.0,0.0
7.0,11.0,70.0,0.0
9.0,13.0,85.0,0.0
8.0,14.0,78.0,0.0
8.0,14.0,78.0,0.0
9.0,17.0,87.0,0.0
10.0,20.0,93.0,0.0
8.0,18.0,85.0,0.0
10.0,22.0,96.0,0.0
10.0,23.0,96.0,0.0
10.0,25.0,97.0,0.0
9.0,23.0,87.0,0.0
10.0,27.0,100.0,0.0
9.0,29.0,99.0,0.0
10.0,31.0,103.0,0.0
10.0,32.0,101.0,0.0
10.0,31.0,96.0,0.0
10.0,34.0,102.0,0.0
8.0,31.0,88.0,0.0
9.0,33.0,92.0,0.0
8.0,34.0,92.0,0.0
8.0,37.0,97.0,0.0
7.0,34.0,84.0,0.0
8.0,40.0,95.0,0.0
8.0,39.0,91.0,0.0
8.0,38.0,87.0,0.0
7.0,38.0,82.0,0.0
6.0,38.0,81.0,0.0
8.0,44.0,91.0,0.0
6.0,41.0,82.0,0.0
6.0,36.0,71.0,0.0
7.0,41.0,79.0,0.0
6.0,44.0,82.0,0.0
6.0,43.0,78.0,0.0
6.0,46.0,81.0,0.0
6.0,44.0,77.0,0.0
6.0,46.0,78.0,0.0
6.0,49.0,81.0,0.0
6.0,52.0,83.0,0.0
5.0,51.0,80.0,0.0
5.0,56.0,86.0,0.0
6.0,55.0,82.0,0.0
5.0,55.0,80.0,0.0
6.0,62.0,88.0,0.0
5.0,65.0,91.0,0.0
5.0,59.0,81.0,0.0
5.0,63.0,85.0,0.0
5.0,71.0,92.0,0.0
5.0,74.0,94.0,0.0
5.0,77.0,96.0,0.0
4.0,77.0,94.0,0.0
5.0,85.0,102.0,0.0
4.0,78.0,91.0,0.0
5.0,85.0,96.0,0.0
4.0,86.0,96.0,0.0
4.0,91.0,100.0,0.0
3.0,92.0,97.0,0.0
4.0,94.0,99.0,0.0
3.0,96.0,97.0,0.0
3.0,109.0,109.0,0.0
2.0,101.0,100.0,0.0
3.0,108.0,103.0,0.0
1.0,-276.0,85.0,0.0
2.0,-265.0,85.0,0.0
2.0,-265.0,89.0,0.0
3.0,-265.0,92.0,0.0
4.0,-262.0,94.0,0.0
4.0,-261.0,98.0,0.0
5.0,-258.0,99.0,0.0
5.0,-267.0,105.0,0.0
6.0,-268.0,109.0,0.0
6.0,-263.0,111.0,0.0
7.0,-269.0,117.0,0.0
8.0,-267.0,120.0,0.0
8.0,-262.0,121.0,0.0
8.0,-259.0,122.0,0.0
8.0,-255.0,124.0,0.0
9.0,-254.0,126.0,0.0
10.0,-262.0,134.0,0.0
11.0,-262.0,138.0,0.0
11.0,-256.0,138.0,0.0
11.0,-259.0,143.0,0.0
13.0,-275.0,157.0,0.0
14.0,-264.0,155.0,0.0
13.0,-247.0,148.0,0.0
14.0,-257.0,157.0,0.0
15.0,-251.0,157.0,0.0
13.0,-225.0,145.0,0.0
13.0,-222.0,146.0,0.0
13.0,-215.0,144.0,0.0
14.0,-215.0,148.0,0.0
13.0,-200.0,140.0,0.0
13.0,-182.0,130.0,0.0
14.0,-191.0,141.0,0.0
12.0,-170.0,128.0,0.0
14.0,-172.0,132.0,0.0
13.0,-157.0,124.0,0.0
12.0,-144.0,116.0,0.0
12.0,-140.0,116.0,0.0
12.0,-137.0,115.0,0.0
12.0,-131.0,113.0,0.0
12.0,-127.0,112.0,0.0
11.0,-116.0,104.0,0.0
11.0,-108.0,100.0,0.0
11.0,-108.0,103.0,0.0
9.0,-87.0,84.0,0.0
9.0,-89.0,87.0,0.0
9.0,-82.0,83.0,0.0
185.0,-1632.0,1676.0,0.0
186.0,-1598.0,1677.0,0.0
190.0,-1591.0,1706.0,0.0
194.0,-1584.0,1737.0,0.0
196.0,-1552.0,1739.0,0.0
199.0,-1535.0,1757.0,0.0
198.0,-1490.0,1744.0,0.0
201.0,-1483.0,1776.0,0.0
205.0,-1473.0,1801.0,0.0
206.0,-1441.0,1804.0,0.0
207.0,-1411.0,1806.0,0.0
3492.0,-23239.0,30405.0,1.0
210.0,-1365.0,1828.0,0.0
214.0,-1353.0,1853.0,0.0
217.0,-1335.0,1871.0,0.0
217.0,-1305.0,1871.0,0.0
217.0,-1277.0,1874.0,0.0
222.0,-1267.0,1905.0,0.0
222.0,-1245.0,1917.0,0.0
219.0,-1198.0,1889.0,0.0
220.0,-1168.0,1887.0,0.0
226.0,-1172.0,1939.0,0.0
228.0,-1150.0,1951.0,0.0
229.0,-1129.0,1964.0,0.0
3812.0,-18286.0,32619.0,1.0
234.0,-1094.0,2004.0,0.0
234.0,-1065.0,2002.0,0.0
0.0,0.0,0.0,0.0
3922.0,-16925.0,33543.0,1.0
3976.0,-16695.0,34005.0,1.0
0.0,0.0,0.0,0.0
243.0,-963.0,2076.0,0.0
239.0,-921.0,2045.0,0.0
0.0,0.0,0.0,0.0
240.0,-876.0,2063.0,0.0
245.0,-865.0,2102.0,0.0
0.0,0.0,0.0,0.0
243.0,-809.0,2093.0,0.0
245.0,-787.0,2105.0,0.0
0.0,0.0,0.0,0.0
0.0,0.0,0.0,0.0
244.0,-709.0,2106.0,0.0
244.0,-685.0,2109.0,0.0
246.0,-667.0,2131.0,0.0
246.0,-642.0,2133.0,0.0
244.0,-612.0,2122.0,0.0
256.0,-618.0,2228.0,0.0
4128.0,-9578.0,36045.0,1.0
249.0,-552.0,2177.0,0.0
0.0,0.0,0.0,0.0
253.0,-513.0,2226.0,0.0
250.0,-483.0,2201.0,0.0
249.0,-458.0,2199.0,0.0
248.0,-431.0,2192.0,0.0
247.0,-407.0,2198.0,0.0
251.0,-388.0,2233.0,0.0
3959.0,-5758.0,35377.0,1.0
250.0,-340.0,2244.0,0.0
249.0,-314.0,2234.0,0.0
246.0,-288.0,2227.0,0.0
244.0,-261.0,2207.0,0.0
246.0,-240.0,2241.0,0.0
245.0,-214.0,2229.0,0.0
246.0,-192.0,2254.0,0.0
242.0,-165.0,2231.0,0.0
241.0,-140.0,2220.0,0.0
2496.0,-1205.0,23122.0,0.0
2354.0,-902.0,21908.0,0.0
2.0,0.0,18.0,0.0
2230.0,-404.0,20938.0,0.0
2228.0,-177.0,21022.0,0.0
4.0,0.0,42.0,0.0
3.0,0.0,30.0,0.0
3.0,0.0,34.0,0.0
4.0,0.0,37.0,0.0
3.0,1.0,30.0,0.0
6.0,3.0,50.0,0.0
4.0,3.0,46.0,0.0
6.0,4.0,51.0,0.0
8.0,6.0,77.0,0.0
8.0,8.0,82.0,0.0
8.0,8.0,80.0,0.0
7.0,8.0,72.0,0.0
6.0,7.0,65.0,0.0
7.0,11.0,78.0,0.0
7.0,10.0,72.0,0.0
8.0,13.0,81.0,0.0
9.0,15.0,90.0,0.0
9.0,18.0,96.0,0.0
9.0,18.0,95.0,0.0
9.0,20.0,97.0,0.0
9.0,22.0,100.0,0.0
9.0,22.0,100.0,0.0
9.0,25.0,104.0,0.0
10.0,29.0,114.0,0.0
10.0,29.0,108.0,0.0
9.0,29.0,105.0,0.0
9.0,31.0,107.0,0.0
10.0,34.0,113.0,0.0
10.0,37.0,119.0,0.0
9.0,37.0,112.0,0.0
9.0,38.0,112.0,0.0
9.0,37.0,106.0,0.0
9.0,40.0,110.0,0.0
9.0,41.0,110.0,0.0
7.0,37.0,97.0,0.0
8.0,42.0,104.0,0.0
7.0,37.0,90.0,0.0
7.0,41.0,96.0,0.0
7.0,40.0,90.0,0.0
6.0,40.0,88.0,0.0
6.0,44.0,94.0,0.0
6.0,42.0,89.0,0.0
6.0,43.0,87.0,0.0
6.0,44.0,87.0,0.0
6.0,47.0,91.0,0.0
6.0,47.0,89.0,0.0
6.0,49.0,89.0,0.0
6.0,51.0,93.0,0.0
6.0,55.0,96.0,0.0
5.0,51.0,87.0,0.0
5.0,50.0,82.0,0.0
5.0,57.0,92.0,0.0
5.0,60.0,94.0,0.0
5.0,56.0,87.0,0.0
5.0,65.0,97.0,0.0
5.0,61.0,89.0,0.0
4.0,66.0,96.0,0.0
5.0,69.0,97.0,0.0
5.0,68.0,93.0,0.0
5.0,78.0,103.0,0.0
5.0,76.0,99.0,0.0
4.0,79.0,101.0,0.0
4.0,76.0,95.0,0.0
4.0,83.0,101.0,0.0
3.0,88.0,105.0,0.0
4.0,88.0,102.0,0.0
3.0,88.0,101.0,0.0
3.0,91.0,103.0,0.0
2.0,98.0,108.0,0.0
3.0,98.0,105.0,0.0
2.0,109.0,113.0,0.0
2.0,108.0,111.0,0.0
2.0,112.0,113.0,0.0
1.0,110.0,109.0,0.0
1.0,111.0,106.0,0.0
0.0,-281.0,88.0,0.0
0.0,-270.0,87.0,0.0
0.0,-271.0,91.0,0.0
0.0,-265.0,92.0,0.0
0.0,-267.0,96.0,0.0
2.0,-262.0,98.0,0.0
1.0,-263.0,101.0,0.0
2.0,-262.0,104.0,0.0
2.0,-259.0,106.0,0.0
3.0,-270.0,114.0,0.0
4.0,-265.0,115.0,0.0
5.0,-258.0,115.0,0.0
5.0,-264.0,122.0,0.0
6.0,-259.0,123.0,0.0
6.0,-256.0,125.0,0.0
7.0,-267.0,133.0,0.0
7.0,-260.0,133.0,0.0
8.0,-268.0,141.0,0.0
8.0,-253.0,137.0,0.0
9.0,-266.0,147.0,0.0
10.0,-281.0,160.0,0.0
11.0,-276.0,161.0,0.0
10.0,-258.0,155.0,0.0
10.0,-241.0,148.0,0.0
10.0,-236.0,148.0,0.0
11.0,-236.0,152.0,0.0
11.0,-227.0,150.0,0.0
11.0,-220.0,148.0,0.0
11.0,-203.0,140.0,0.0
11.0,-197.0,139.0,0.0
11.0,-189.0,137.0,0.0
11.0,-182.0,134.0,0.0
11.0,-168.0,127.0,0.0
10.0,-158.0,122.0,0.0
11.0,-162.0,129.0,0.0
10.0,-148.0,120.0,0.0
10.0,-147.0,122.0,0.0
10.0,-132.0,111.0,0.0
10.0,-131.0,114.0,0.0
10.0,-119.0,105.0,0.0
9.0,-103.0,93.0,0.0
10.0,-113.0,104.0,0.0
9.0,-97.0,91.0,0.0
9.0,-100.0,96.0,0.0
8.0,-89.0,88.0,0.0
8.0,-79.0,79.0,0.0
161.0,-1632.0,1679.0,0.0
163.0,-1610.0,1692.0,0.0
168.0,-1608.0,1727.0,0.0
2689.0,-25057.0,27507.0,1.0
2742.0,-24859.0,27892.0,1.0
174.0,-1537.0,1763.0,0.0
175.0,-1503.0,1762.0,0.0
175.0,-1468.0,1759.0,0.0
179.0,-1455.0,1784.0,0.0
181.0,-1432.0,1795.0,0.0
183.0,-1414.0,1812.0,0.0
3080.0,-23184.0,30376.0,1.0
187.0,-1374.0,1842.0,0.0
190.0,-1355.0,1859.0,0.0
192.0,-1342.0,1883.0,0.0
194.0,-1319.0,1895.0,0.0
3242.0,-21428.0,31488.0,1.0
197.0,-1269.0,1910.0,0.0
200.0,-1251.0,1927.0,0.0
202.0,-1238.0,1956.0,0.0
202.0,-1204.0,1946.0,0.0
200.0,-1164.0,1930.0,0.0
202.0,-1145.0,1945.0,0.0
206.0,-1134.0,1974.0,0.0
0.0,0.0,0.0,0.0
210.0,-1094.0,2005.0,0.0
212.0,-1077.0,2028.0,0.0
210.0,-1037.0,2005.0,0.0
211.0,-1015.0,2014.0,0.0
3526.0,-16508.0,33657.0,1.0
0.0,0.0,0.0,0.0
219.0,-969.0,2090.0,0.0
0.0,0.0,0.0,0.0
215.0,-898.0,2055.0,0.0
0.0,0.0,0.0,0.0
218.0,-855.0,2078.0,0.0
0.0,0.0,0.0,0.0
0.0,0.0,0.0,0.0
218.0,-780.0,2088.0,0.0
223.0,-771.0,2136.0,0.0
0.0,0.0,0.0,0.0
3647.0,-11808.0,35028.0,1.0
218.0,-682.0,2102.0,0.0
223.0,-671.0,2144.0,0.0
225.0,-651.0,2164.0,0.0
0.0,0.0,0.0,0.0
0.0,0.0,0.0,0.0
225.0,-579.0,2183.0,0.0
222.0,-548.0,2160.0,0.0
225.0,-530.0,2188.0,0.0
3700.0,-8341.0,36126.0,1.0
227.0,-488.0,2223.0,0.0
226.0,-460.0,2211.0,0.0
223.0,-433.0,2201.0,0.0
3603.0,-6590.0,35550.0,1.0
220.0,-380.0,2181.0,0.0
224.0,-363.0,2225.0,0.0
221.0,-335.0,2203.0,0.0
226.0,-317.0,2259.0,0.0
223.0,-289.0,2232.0,0.0
221.0,-264.0,2226.0,0.0
223.0,-242.0,2253.0,0.0
222.0,-216.0,2246.0,0.0
218.0,-189.0,2218.0,0.0
217.0,-165.0,2221.0,0.0
217.0,-141.0,2225.0,0.0
2253.0,-1218.0,23236.0,0.0
2117.0,-910.0,21943.0,0.0
2056.0,-655.0,21414.0,0.0
2009.0,-413.0,21031.0,0.0
2.0,0.0,25.0,0.0
2.0,0.0,25.0,0.0
3.0,0.0,32.0,0.0
2.0,0.0,22.0,0.0
4.0,1.0,43.0,0.0
3.0,0.0,28.0,0.0
3.0,1.0,42.0,0.0
2.0,1.0,20.0,0.0
4.0,3.0,50.0,0.0
6.0,5.0,64.0,0.0
6.0,6.0,68.0,0.0
5.0,5.0,52.0,0.0
6.0,8.0,73.0,0.0
6.0,8.0,68.0,0.0
6.0,11.0,74.0,0.0
7.0,12.0,83.0,0.0
7.0,14.0,87.0,0.0
7.0,15.0,88.0,0.0
8.0,17.0,89.0,0.0
7.0,17.0,87.0,0.0
8.0,21.0,105.0,0.0
9.0,24.0,107.0,0.0
7.0,22.0,93.0,0.0
9.0,26.0,107.0,0.0
9.0,27.0,107.0,0.0
8.0,26.0,101.0,0.0
8.0,31.0,109.0,0.0
8.0,30.0,104.0,0.0
8.0,34.0,115.0,0.0
8.0,36.0,114.0,0.0
8.0,37.0,115.0,0.0
8.0,39.0,114.0,0.0
8.0,39.0,112.0,0.0
8.0,38.0,107.0,0.0
7.0,39.0,104.0,0.0
7.0,39.0,100.0,0.0
7.0,41.0,102.0,0.0
6.0,38.0,91.0,0.0
6.0,43.0,101.0,0.0
6.0,42.0,95.0,0.0
6.0,42.0,93.0,0.0
6.0,47.0,101.0,0.0
5.0,45.0,95.0,0.0
5.0,44.0,90.0,0.0
5.0,47.0,93.0,0.0
5.0,45.0,88.0,0.0
4.0,46.0,87.0,0.0
5.0,47.0,86.0,0.0
5.0,55.0,99.0,0.0
4.0,54.0,93.0,0.0
4.0,52.0,88.0,0.0
4.0,53.0,87.0,0.0
4.0,52.0,83.0,0.0
4.0,57.0,91.0,0.0
4.0,61.0,95.0,0.0
3.0,60.0,90.0,0.0
4.0,65.0,94.0,0.0
3.0,62.0,90.0,0.0
3.0,68.0,95.0,0.0
3.0,69.0,96.0,0.0
3.0,75.0,101.0,0.0
4.0,79.0,104.0,0.0
2.0,77.0,99.0,0.0
3.0,81.0,100.0,0.0
3.0,83.0,102.0,0.0
2.0,88.0,105.0,0.0
2.0,85.0,99.0,0.0
1.0,89.0,101.0,0.0
1.0,95.0,107.0,0.0
1.0,98.0,108.0,0.0
1.0,99.0,107.0,0.0
1.0,109.0,115.0,0.0
0.0,101.0,104.0,0.0
0.0,109.0,110.0,0.0
0.0,115.0,114.0,0.0
0.0,111.0,107.0,0.0
-3.0,-284.0,89.0,0.0
-2.0,-285.0,93.0,0.0
-2.0,-278.0,93.0,0.0
-2.0,-272.0,95.0,0.0
-1.0,-263.0,95.0,0.0
0.0,-270.0,100.0,0.0
0.0,-262.0,101.0,0.0
0.0,-277.0,110.0,0.0
0.0,-268.0,110.0,0.0
1.0,-271.0,114.0,0.0
2.0,-273.0,119.0,0.0
2.0,-271.0,122.0,0.0
3.0,-262.0,121.0,0.0
2.0,-267.0,127.0,0.0
4.0,-265.0,129.0,0.0
4.0,-265.0,133.0,0.0
4.0,-261.0,135.0,0.0
5.0,-263.0,139.0,0.0
5.0,-263.0,142.0,0.0
6.0,-276.0,154.0,0.0
8.0,-284.0,162.0,0.0
8.0,-270.0,158.0,0.0
8.0,-270.0,162.0,0.0
8.0,-253.0,155.0,0.0
8.0,-247.0,156.0,0.0
8.0,-241.0,155.0,0.0
8.0,-232.0,154.0,0.0
8.0,-214.0,145.0,0.0
9.0,-214.0,148.0,0.0
8.0,-190.0,135.0,0.0
9.0,-186.0,134.0,0.0
9.0,-197.0,145.0,0.0
8.0,-173.0,132.0,0.0
9.0,-165.0,128.0,0.0
10.0,-168.0,133.0,0.0
8.0,-153.0,123.0,0.0
9.0,-151.0,126.0,0.0
8.0,-132.0,111.0,0.0
9.0,-138.0,119.0,0.0
8.0,-123.0,109.0,0.0
8.0,-122.0,111.0,0.0
7.0,-107.0,99.0,0.0
7.0,-98.0,92.0,0.0
