//X,Y,Z,Classification
23.0,32.0,100.0,0.0
24.0,34.0,103.0,0.0
22.0,32.0,96.0,0.0
22.0,34.0,97.0,0.0
22.0,36.0,99.0,0.0
24.0,39.0,103.0,0.0
20.0,34.0,88.0,0.0
20.0,37.0,90.0,0.0
20.0,37.0,89.0,0.0
18.0,36.0,83.0,0.0
20.0,40.0,90.0,0.0
18.0,37.0,81.0,0.0
18.0,39.0,83.0,0.0
18.0,39.0,81.0,0.0
17.0,38.0,76.0,0.0
17.0,39.0,75.0,0.0
17.0,39.0,75.0,0.0
17.0,43.0,80.0,0.0
18.0,46.0,83.0,0.0
19.0,51.0,90.0,0.0
17.0,47.0,81.0,0.0
17.0,46.0,76.0,0.0
16.0,49.0,79.0,0.0
16.0,47.0,73.0,0.0
17.0,53.0,83.0,0.0
17.0,50.0,76.0,0.0
17.0,56.0,82.0,0.0
17.0,56.0,82.0,0.0
18.0,61.0,86.0,0.0
17.0,60.0,82.0,0.0
17.0,64.0,85.0,0.0
17.0,64.0,83.0,0.0
16.0,64.0,82.0,0.0
19.0,75.0,94.0,0.0
18.0,72.0,88.0,0.0
19.0,79.0,94.0,0.0
18.0,78.0,92.0,0.0
18.0,79.0,90.0,0.0
19.0,86.0,97.0,0.0
19.0,90.0,99.0,0.0
20.0,94.0,101.0,0.0
20.0,98.0,103.0,0.0
21.0,104.0,107.0,0.0
19.0,99.0,100.0,0.0
20.0,108.0,106.0,0.0
20.0,110.0,106.0,0.0
20.0,114.0,107.0,0.0
19.0,113.0,104.0,0.0
33.0,-281.0,82.0,0.0
33.0,-281.0,85.0,0.0
34.0,-277.0,88.0,0.0
35.0,-277.0,91.0,0.0
36.0,-281.0,95.0,0.0
37.0,-278.0,97.0,0.0
39.0,-288.0,104.0,0.0
38.0,-278.0,103.0,0.0
38.0,-272.0,105.0,0.0
41.0,-283.0,112.0,0.0
42.0,-280.0,116.0,0.0
42.0,-275.0,117.0,0.0
42.0,-279.0,122.0,0.0
43.0,-277.0,125.0,0.0
43.0,-272.0,127.0,0.0
45.0,-278.0,133.0,0.0
45.0,-275.0,135.0,0.0
46.0,-271.0,137.0,0.0
46.0,-267.0,138.0,0.0
45.0,-254.0,134.0,0.0
48.0,-268.0,146.0,0.0
51.0,-277.0,155.0,0.0
50.0,-270.0,155.0,0.0
50.0,-267.0,157.0,0.0
48.0,-244.0,146.0,0.0
46.0,-231.0,142.0,0.0
44.0,-219.0,138.0,0.0
41.0,-203.0,132.0,0.0
41.0,-193.0,129.0,0.0
41.0,-191.0,130.0,0.0
41.0,-188.0,131.0,0.0
37.0,-167.0,119.0,0.0
37.0,-164.0,120.0,0.0
37.0,-161.0,120.0,0.0
35.0,-147.0,112.0,0.0
34.0,-142.0,111.0,0.0
36.0,-145.0,115.0,0.0
30.0,-121.0,99.0,0.0
32.0,-127.0,107.0,0.0
27.0,-107.0,92.0,0.0
28.0,-107.0,94.0,0.0
29.0,-109.0,98.0,0.0
27.0,-98.0,90.0,0.0
28.0,-102.0,95.0,0.0
28.0,-97.0,93.0,0.0
22.0,-78.0,77.0,0.0
22.0,-76.0,76.0,0.0
482.0,-1629.0,1665.0,0.0
479.0,-1586.0,1658.0,0.0
483.0,-1569.0,1677.0,0.0
8096.0,-25847.0,28235.0,1.0
483.0,-1512.0,1690.0,0.0
489.0,-1501.0,1714.0,0.0
494.0,-1490.0,1740.0,0.0
489.0,-1447.0,1728.0,0.0
493.0,-1428.0,1746.0,0.0
499.0,-1418.0,1772.0,0.0
490.0,-1364.0,1744.0,0.0
8698.0,-23774.0,31116.0,1.0
506.0,-1356.0,1818.0,0.0
8833.0,-23187.0,31790.0,1.0
507.0,-1302.0,1829.0,0.0
504.0,-1268.0,1824.0,0.0
519.0,-1280.0,1884.0,0.0
514.0,-1240.0,1871.0,0.0
505.0,-1192.0,1842.0,0.0
517.0,-1196.0,1895.0,0.0
512.0,-1157.0,1879.0,0.0
509.0,-1125.0,1873.0,0.0
517.0,-1117.0,1907.0,0.0
521.0,-1098.0,1926.0,0.0
515.0,-1064.0,1914.0,0.0
533.0,-1073.0,1982.0,0.0
9377.0,-18445.0,34996.0,1.0
522.0,-1001.0,1952.0,0.0
533.0,-997.0,2000.0,0.0
530.0,-967.0,1996.0,0.0
540.0,-959.0,2038.0,0.0
524.0,-906.0,1982.0,0.0
524.0,-881.0,1986.0,0.0
520.0,-851.0,1977.0,0.0
533.0,-849.0,2034.0,0.0
536.0,-828.0,2050.0,0.0
535.0,-801.0,2050.0,0.0
0.0,0.0,0.0,0.0
539.0,-759.0,2076.0,0.0
534.0,-726.0,2059.0,0.0
546.0,-720.0,2116.0,0.0
532.0,-677.0,2065.0,0.0
6793.0,-8341.0,26428.0,0.0
6775.0,-8014.0,26425.0,0.0
6460.0,-7351.0,25255.0,0.0
7535.0,-8239.0,29537.0,0.0
7576.0,-7945.0,29773.0,0.0
7602.0,-7632.0,29948.0,0.0
7741.0,-7427.0,30572.0,0.0
7737.0,-7079.0,30636.0,0.0
533.0,-465.0,2117.0,0.0
538.0,-444.0,2138.0,0.0
8941.0,-6985.0,35669.0,1.0
538.0,-396.0,2149.0,0.0
548.0,-379.0,2196.0,0.0
534.0,-346.0,2144.0,0.0
541.0,-326.0,2180.0,0.0
541.0,-302.0,2186.0,0.0
537.0,-276.0,2175.0,0.0
537.0,-252.0,2181.0,0.0
528.0,-223.0,2151.0,0.0
532.0,-201.0,2169.0,0.0
529.0,-176.0,2164.0,0.0
529.0,-152.0,2171.0,0.0
5786.0,-1398.0,23803.0,0.0
5472.0,-1072.0,22569.0,0.0
6.0,-1.0,23.0,0.0
9.0,-1.0,35.0,0.0
4.0,-1.0,18.0,0.0
4.0,0.0,16.0,0.0
10.0,0.0,42.0,0.0
5.0,0.0,21.0,0.0
8.0,0.0,31.0,0.0
10.0,1.0,41.0,0.0
10.0,1.0,44.0,0.0
10.0,1.0,41.0,0.0
9.0,2.0,38.0,0.0
10.0,3.0,41.0,0.0
13.0,4.0,56.0,0.0
14.0,6.0,61.0,0.0
14.0,7.0,59.0,0.0
16.0,9.0,69.0,0.0
17.0,10.0,72.0,0.0
21.0,13.0,91.0,0.0
16.0,11.0,69.0,0.0
24.0,18.0,105.0,0.0
21.0,18.0,94.0,0.0
20.0,17.0,85.0,0.0
20.0,18.0,90.0,0.0
21.0,20.0,93.0,0.0
18.0,19.0,79.0,0.0
19.0,21.0,88.0,0.0
21.0,24.0,96.0,0.0
21.0,25.0,96.0,0.0
21.0,27.0,95.0,0.0
22.0,29.0,98.0,0.0
20.0,28.0,93.0,0.0
22.0,32.0,101.0,0.0
23.0,35.0,105.0,0.0
23.0,36.0,106.0,0.0
25.0,41.0,115.0,0.0
22.0,37.0,102.0,0.0
24.0,41.0,109.0,0.0
23.0,41.0,104.0,0.0
21.0,39.0,98.0,0.0
20.0,38.0,93.0,0.0
20.0,41.0,95.0,0.0
20.0,43.0,96.0,0.0
19.0,41.0,90.0,0.0
19.0,42.0,90.0,0.0
19.0,44.0,91.0,0.0
17.0,39.0,80.0,0.0
17.0,42.0,84.0,0.0
17.0,42.0,79.0,0.0
17.0,45.0,84.0,0.0
18.0,49.0,87.0,0.0
18.0,52.0,91.0,0.0
16.0,47.0,82.0,0.0
17.0,51.0,86.0,0.0
16.0,49.0,79.0,0.0
18.0,56.0,89.0,0.0
19.0,62.0,96.0,0.0
17.0,56.0,86.0,0.0
17.0,57.0,85.0,0.0
17.0,59.0,85.0,0.0
18.0,66.0,93.0,0.0
16.0,62.0,85.0,0.0
16.0,62.0,83.0,0.0
15.0,61.0,81.0,0.0
19.0,78.0,99.0,0.0
17.0,72.0,91.0,0.0
18.0,78.0,97.0,0.0
19.0,83.0,100.0,0.0
18.0,80.0,94.0,0.0
18.0,83.0,96.0,0.0
18.0,85.0,95.0,0.0
18.0,88.0,97.0,0.0
19.0,97.0,105.0,0.0
19.0,98.0,103.0,0.0
20.0,105.0,109.0,0.0
19.0,105.0,106.0,0.0
19.0,113.0,111.0,0.0
19.0,115.0,112.0,0.0
19.0,111.0,106.0,0.0
18.0,119.0,110.0,0.0
29.0,-269.0,79.0,0.0
29.0,-263.0,80.0,0.0
31.0,-269.0,85.0,0.0
31.0,-271.0,90.0,0.0
31.0,-269.0,91.0,0.0
33.0,-275.0,97.0,0.0
34.0,-275.0,100.0,0.0
34.0,-267.0,101.0,0.0
36.0,-274.0,107.0,0.0
36.0,-271.0,109.0,0.0
36.0,-267.0,111.0,0.0
38.0,-272.0,116.0,0.0
38.0,-269.0,118.0,0.0
39.0,-265.0,120.0,0.0
39.0,-261.0,122.0,0.0
40.0,-264.0,126.0,0.0
41.0,-263.0,129.0,0.0
43.0,-268.0,136.0,0.0
43.0,-262.0,136.0,0.0
39.0,-239.0,128.0,0.0
43.0,-254.0,139.0,0.0
46.0,-267.0,150.0,0.0
45.0,-258.0,149.0,0.0
44.0,-243.0,143.0,0.0
46.0,-249.0,151.0,0.0
40.0,-214.0,133.0,0.0
41.0,-215.0,137.0,0.0
42.0,-215.0,141.0,0.0
37.0,-191.0,127.0,0.0
38.0,-184.0,126.0,0.0
35.0,-170.0,119.0,0.0
34.0,-165.0,118.0,0.0
37.0,-172.0,125.0,0.0
31.0,-142.0,106.0,0.0
32.0,-141.0,109.0,0.0
31.0,-137.0,107.0,0.0
32.0,-137.0,110.0,0.0
27.0,-113.0,93.0,0.0
26.0,-108.0,91.0,0.0
26.0,-108.0,93.0,0.0
29.0,-114.0,100.0,0.0
29.0,-112.0,100.0,0.0
27.0,-104.0,95.0,0.0
23.0,-90.0,84.0,0.0
20.0,-76.0,73.0,0.0
21.0,-78.0,76.0,0.0
18.0,-67.0,67.0,0.0
20.0,-70.0,72.0,0.0
455.0,-1589.0,1665.0,0.0
452.0,-1550.0,1660.0,0.0
464.0,-1558.0,1707.0,0.0
462.0,-1523.0,1706.0,0.0
469.0,-1515.0,1736.0,0.0
465.0,-1473.0,1725.0,0.0
475.0,-1478.0,1770.0,0.0
477.0,-1454.0,1782.0,0.0
472.0,-1412.0,1770.0,0.0
480.0,-1405.0,1801.0,0.0
471.0,-1353.0,1774.0,0.0
478.0,-1346.0,1807.0,0.0
472.0,-1300.0,1788.0,0.0
482.0,-1302.0,1832.0,0.0
479.0,-1267.0,1826.0,0.0
486.0,-1258.0,1857.0,0.0
476.0,-1206.0,1822.0,0.0
0.0,0.0,0.0,0.0
496.0,-1204.0,1911.0,0.0
483.0,-1145.0,1864.0,0.0
8694.0,-20180.0,33655.0,1.0
497.0,-1125.0,1927.0,0.0
487.0,-1081.0,1898.0,0.0
500.0,-1081.0,1948.0,0.0
0.0,0.0,0.0,0.0
491.0,-1014.0,1927.0,0.0
0.0,0.0,0.0,0.0
0.0,0.0,0.0,0.0
488.0,-931.0,1925.0,0.0
502.0,-936.0,1991.0,0.0
503.0,-913.0,1999.0,0.0
495.0,-874.0,1971.0,0.0
0.0,0.0,0.0,0.0
492.0,-820.0,1970.0,0.0
501.0,-811.0,2011.0,0.0
500.0,-784.0,2007.0,0.0
503.0,-765.0,2027.0,0.0
509.0,-751.0,2057.0,0.0
511.0,-729.0,2069.0,0.0
508.0,-703.0,2067.0,0.0
6436.0,-8588.0,26208.0,0.0
6395.0,-8231.0,26105.0,0.0
6403.0,-7941.0,26203.0,0.0
6347.0,-7574.0,26038.0,0.0
6432.0,-7375.0,26454.0,0.0
6406.0,-7045.0,26413.0,0.0
6985.0,-7355.0,28871.0,0.0
7024.0,-7069.0,29103.0,0.0
505.0,-484.0,2098.0,0.0
7155.0,-6535.0,29799.0,0.0
7365.0,-6384.0,30753.0,0.0
497.0,-408.0,2083.0,0.0
510.0,-395.0,2138.0,0.0
503.0,-365.0,2115.0,0.0
518.0,-353.0,2185.0,0.0
514.0,-326.0,2173.0,0.0
508.0,-297.0,2151.0,0.0
501.0,-270.0,2129.0,0.0
502.0,-248.0,2141.0,0.0
513.0,-228.0,2189.0,0.0
502.0,-200.0,2150.0,0.0
507.0,-178.0,2180.0,0.0
500.0,-151.0,2153.0,0.0
5532.0,-1413.0,23885.0,0.0
5218.0,-1083.0,22587.0,0.0
0.0,0.0,0.0,0.0
0.0,0.0,0.0,0.0
0.0,0.0,2.0,0.0
3.0,0.0,14.0,0.0
5.0,0.0,20.0,0.0
4.0,0.0,17.0,0.0
6.0,0.0,23.0,0.0
6.0,0.0,29.0,0.0
9.0,1.0,42.0,0.0
9.0,2.0,40.0,0.0
11.0,3.0,49.0,0.0
10.0,3.0,44.0,0.0
11.0,4.0,47.0,0.0
13.0,5.0,54.0,0.0
11.0,5.0,48.0,0.0
10.0,5.0,44.0,0.0
17.0,10.0,77.0,0.0
15.0,10.0,69.0,0.0
17.0,12.0,76.0,0.0
18.0,14.0,82.0,0.0
17.0,14.0,77.0,0.0
16.0,14.0,72.0,0.0
17.0,16.0,78.0,0.0
18.0,18.0,80.0,0.0
16.0,17.0,74.0,0.0
19.0,22.0,89.0,0.0
18.0,21.0,82.0,0.0
17.0,22.0,80.0,0.0
20.0,26.0,93.0,0.0
21.0,29.0,99.0,0.0
23.0,33.0,109.0,0.0
20.0,30.0,96.0,0.0
20.0,32.0,97.0,0.0
21.0,34.0,100.0,0.0
18.0,30.0,85.0,0.0
18.0,33.0,91.0,0.0
19.0,35.0,93.0,0.0
19.0,36.0,93.0,0.0
18.0,33.0,84.0,0.0
18.0,37.0,89.0,0.0
17.0,35.0,82.0,0.0
15.0,33.0,75.0,0.0
16.0,35.0,76.0,0.0
15.0,33.0,73.0,0.0
16.0,38.0,80.0,0.0
14.0,35.0,70.0,0.0
17.0,42.0,82.0,0.0
15.0,38.0,74.0,0.0
16.0,42.0,79.0,0.0
15.0,43.0,77.0,0.0
15.0,44.0,77.0,0.0
14.0,43.0,73.0,0.0
15.0,45.0,75.0,0.0
16.0,48.0,79.0,0.0
14.0,46.0,73.0,0.0
15.0,53.0,82.0,0.0
15.0,55.0,83.0,0.0
15.0,53.0,78.0,0.0
16.0,62.0,89.0,0.0
15.0,56.0,80.0,0.0
15.0,57.0,79.0,0.0
14.0,59.0,81.0,0.0
14.0,61.0,81.0,0.0
15.0,66.0,86.0,0.0
15.0,68.0,86.0,0.0
15.0,68.0,84.0,0.0
16.0,74.0,90.0,0.0
16.0,77.0,92.0,0.0
16.0,79.0,91.0,0.0
17.0,86.0,96.0,0.0
16.0,86.0,95.0,0.0
17.0,93.0,101.0,0.0
17.0,97.0,102.0,0.0
17.0,100.0,104.0,0.0
16.0,100.0,102.0,0.0
17.0,105.0,105.0,0.0
16.0,107.0,103.0,0.0
16.0,110.0,104.0,0.0
16.0,112.0,105.0,0.0
26.0,-269.0,80.0,0.0
27.0,-268.0,82.0,0.0
28.0,-274.0,87.0,0.0
28.0,-265.0,88.0,0.0
29.0,-269.0,92.0,0.0
31.0,-272.0,96.0,0.0
32.0,-273.0,100.0,0.0
32.0,-272.0,103.0,0.0
33.0,-274.0,108.0,0.0
34.0,-276.0,111.0,0.0
34.0,-271.0,113.0,0.0
35.0,-269.0,116.0,0.0
35.0,-265.0,117.0,0.0
37.0,-269.0,123.0,0.0
37.0,-266.0,124.0,0.0
37.0,-262.0,125.0,0.0
39.0,-268.0,133.0,0.0
39.0,-265.0,135.0,0.0
39.0,-259.0,135.0,0.0
37.0,-245.0,131.0,0.0
41.0,-264.0,146.0,0.0
41.0,-256.0,144.0,0.0
43.0,-263.0,152.0,0.0
40.0,-242.0,143.0,0.0
39.0,-232.0,141.0,0.0
39.0,-222.0,139.0,0.0
37.0,-209.0,134.0,0.0
39.0,-213.0,140.0,0.0
34.0,-180.0,121.0,0.0
35.0,-184.0,127.0,0.0
33.0,-171.0,120.0,0.0
34.0,-173.0,124.0,0.0
31.0,-157.0,115.0,0.0
31.0,-151.0,113.0,0.0
32.0,-150.0,115.0,0.0
30.0,-140.0,110.0,0.0
28.0,-129.0,103.0,0.0
27.0,-122.0,100.0,0.0
28.0,-122.0,103.0,0.0
26.0,-113.0,98.0,0.0
25.0,-105.0,92.0,0.0
23.0,-97.0,87.0,0.0
25.0,-102.0,94.0,0.0
21.0,-82.0,78.0,0.0
19.0,-76.0,74.0,0.0
17.0,-65.0,64.0,0.0
18.0,-68.0,68.0,0.0
20.0,-75.0,77.0,0.0
426.0,-1570.0,1650.0,0.0
426.0,-1540.0,1654.0,0.0
433.0,-1535.0,1685.0,0.0
432.0,-1500.0,1685.0,0.0
438.0,-1493.0,1714.0,0.0
443.0,-1480.0,1738.0,0.0
441.0,-1445.0,1735.0,0.0
448.0,-1438.0,1766.0,0.0
0.0,0.0,0.0,0.0
453.0,-1399.0,1797.0,0.0
448.0,-1354.0,1781.0,0.0
457.0,-1356.0,1824.0,0.0
459.0,-1330.0,1832.0,0.0
453.0,-1288.0,1817.0,0.0
0.0,0.0,0.0,0.0
456.0,-1243.0,1839.0,0.0
459.0,-1223.0,1852.0,0.0
465.0,-1211.0,1881.0,0.0
459.0,-1172.0,1863.0,0.0
469.0,-1172.0,1911.0,0.0
461.0,-1124.0,1878.0,0.0
466.0,-1111.0,1905.0,0.0
472.0,-1098.0,1932.0,0.0
467.0,-1063.0,1920.0,0.0
473.0,-1051.0,1950.0,0.0
469.0,-1017.0,1935.0,0.0
471.0,-996.0,1951.0,0.0
470.0,-970.0,1951.0,0.0
0.0,0.0,0.0,0.0
484.0,-946.0,2016.0,0.0
8498.0,-16206.0,35522.0,1.0
484.0,-898.0,2029.0,0.0
473.0,-851.0,1984.0,0.0
8483.0,-14873.0,35717.0,1.0
485.0,-825.0,2047.0,0.0
488.0,-805.0,2064.0,0.0
486.0,-779.0,2064.0,0.0
477.0,-738.0,2025.0,0.0
478.0,-716.0,2033.0,0.0
6496.0,-9431.0,27752.0,0.0
6097.0,-8548.0,26110.0,0.0
6086.0,-8232.0,26125.0,0.0
6079.0,-7923.0,26163.0,0.0
6036.0,-7570.0,26039.0,0.0
6088.0,-7337.0,26332.0,0.0
6086.0,-7035.0,26387.0,0.0
6109.0,-6763.0,26552.0,0.0
6503.0,-6880.0,28334.0,0.0
486.0,-490.0,2124.0,0.0
7039.0,-6759.0,30820.0,0.0
508.0,-463.0,2228.0,0.0
497.0,-429.0,2188.0,0.0
494.0,-401.0,2176.0,0.0
502.0,-384.0,2220.0,0.0
489.0,-351.0,2170.0,0.0
498.0,-332.0,2211.0,0.0
484.0,-299.0,2161.0,0.0
481.0,-273.0,2150.0,0.0
488.0,-254.0,2190.0,0.0
486.0,-229.0,2183.0,0.0
486.0,-204.0,2188.0,0.0
485.0,-180.0,2190.0,0.0
485.0,-156.0,2198.0,0.0
480.0,-130.0,2180.0,0.0
4975.0,-1097.0,22657.0,0.0
4806.0,-817.0,21948.0,0.0
5.0,-1.0,24.0,0.0
3.0,0.0,13.0,0.0
3.0,0.0,11.0,0.0
4.0,0.0,22.0,0.0
5.0,0.0,20.0,0.0
5.0,0.0,23.0,0.0
6.0,0.0,30.0,0.0
9.0,1.0,40.0,0.0
11.0,3.0,53.0,0.0
6.0,2.0,30.0,0.0
9.0,3.0,44.0,0.0
8.0,3.0,38.0,0.0
9.0,4.0,39.0,0.0
12.0,6.0,58.0,0.0
13.0,7.0,59.0,0.0
14.0,9.0,68.0,0.0
19.0,13.0,87.0,0.0
17.0,13.0,82.0,0.0
15.0,13.0,74.0,0.0
15.0,13.0,73.0,0.0
16.0,14.0,76.0,0.0
20.0,19.0,96.0,0.0
18.0,19.0,90.0,0.0
19.0,21.0,93.0,0.0
19.0,22.0,93.0,0.0
18.0,23.0,90.0,0.0
18.0,22.0,85.0,0.0
20.0,27.0,98.0,0.0
18.0,24.0,86.0,0.0
20.0,30.0,99.0,0.0
17.0,27.0,88.0,0.0
22.0,35.0,108.0,0.0
20.0,34.0,100.0,0.0
20.0,35.0,101.0,0.0
17.0,32.0,90.0,0.0
18.0,34.0,91.0,0.0
20.0,39.0,101.0,0.0
18.0,38.0,95.0,0.0
17.0,37.0,90.0,0.0
16.0,37.0,86.0,0.0
17.0,39.0,89.0,0.0
15.0,34.0,76.0,0.0
16.0,39.0,82.0,0.0
16.0,41.0,86.0,0.0
15.0,39.0,80.0,0.0
16.0,42.0,84.0,0.0
13.0,37.0,71.0,0.0
15.0,42.0,80.0,0.0
16.0,46.0,83.0,0.0
16.0,50.0,88.0,0.0
15.0,48.0,85.0,0.0
13.0,43.0,72.0,0.0
14.0,51.0,83.0,0.0
12.0,44.0,71.0,0.0
14.0,50.0,78.0,0.0
14.0,50.0,77.0,0.0
15.0,54.0,81.0,0.0
14.0,56.0,82.0,0.0
14.0,59.0,84.0,0.0
14.0,57.0,79.0,0.0
14.0,61.0,82.0,0.0
13.0,58.0,77.0,0.0
15.0,70.0,90.0,0.0
15.0,72.0,91.0,0.0
15.0,72.0,89.0,0.0
14.0,72.0,88.0,0.0
15.0,82.0,97.0,0.0
15.0,84.0,98.0,0.0
15.0,80.0,91.0,0.0
15.0,85.0,95.0,0.0
15.0,89.0,98.0,0.0
15.0,91.0,97.0,0.0
15.0,98.0,102.0,0.0
15.0,101.0,102.0,0.0
15.0,104.0,103.0,0.0
16.0,107.0,105.0,0.0
16.0,110.0,105.0,0.0
15.0,110.0,102.0,0.0
24.0,-270.0,80.0,0.0
24.0,-264.0,81.0,0.0
25.0,-268.0,86.0,0.0
26.0,-262.0,87.0,0.0
27.0,-271.0,94.0,0.0
28.0,-270.0,96.0,0.0
28.0,-265.0,97.0,0.0
29.0,-269.0,102.0,0.0
30.0,-268.0,106.0,0.0
30.0,-266.0,108.0,0.0
31.0,-271.0,113.0,0.0
32.0,-266.0,115.0,0.0
33.0,-269.0,120.0,0.0
33.0,-258.0,118.0,0.0
33.0,-263.0,124.0,0.0
33.0,-259.0,125.0,0.0
35.0,-264.0,131.0,0.0
35.0,-259.0,133.0,0.0
35.0,-249.0,130.0,0.0
37.0,-257.0,138.0,0.0
39.0,-261.0,144.0,0.0
39.0,-257.0,145.0,0.0
41.0,-268.0,156.0,0.0
37.0,-237.0,140.0,0.0
37.0,-232.0,141.0,0.0
34.0,-210.0,131.0,0.0
33.0,-200.0,128.0,0.0
34.0,-204.0,133.0,0.0
33.0,-196.0,131.0,0.0
34.0,-191.0,131.0,0.0
31.0,-175.0,124.0,0.0
32.0,-172.0,124.0,0.0
30.0,-160.0,118.0,0.0
28.0,-147.0,111.0,0.0
28.0,-145.0,112.0,0.0
30.0,-147.0,116.0,0.0
25.0,-125.0,100.0,0.0
26.0,-125.0,102.0,0.0
23.0,-110.0,93.0,0.0
23.0,-105.0,91.0,0.0
25.0,-115.0,103.0,0.0
21.0,-93.0,84.0,0.0
22.0,-95.0,88.0,0.0
23.0,-99.0,93.0,0.0
22.0,-90.0,87.0,0.0
20.0,-79.0,78.0,0.0
19.0,-80.0,80.0,0.0
400.0,-1593.0,1641.0,0.0
410.0,-1599.0,1685.0,0.0
397.0,-1522.0,1638.0,0.0
411.0,-1541.0,1696.0,0.0
404.0,-1487.0,1673.0,0.0
414.0,-1492.0,1717.0,0.0
419.0,-1483.0,1745.0,0.0
411.0,-1427.0,1717.0,0.0
424.0,-1441.0,1773.0,0.0
0.0,0.0,0.0,0.0
418.0,-1364.0,1758.0,0.0
429.0,-1373.0,1809.0,0.0
425.0,-1329.0,1793.0,0.0
424.0,-1300.0,1794.0,0.0
430.0,-1289.0,1821.0,0.0
436.0,-1282.0,1855.0,0.0
7650.0,-22007.0,32590.0,1.0
448.0,-1261.0,1913.0,0.0
447.0,-1231.0,1913.0,0.0
447.0,-1203.0,1917.0,0.0
0.0,0.0,0.0,0.0
0.0,0.0,0.0,0.0
440.0,-1108.0,1903.0,0.0
456.0,-1120.0,1974.0,0.0
457.0,-1096.0,1983.0,0.0
7872.0,-18446.0,34238.0,1.0
459.0,-1047.0,1997.0,0.0
440.0,-981.0,1922.0,0.0
0.0,0.0,0.0,0.0
458.0,-970.0,2010.0,0.0
7983.0,-16475.0,35123.0,1.0
7988.0,-16047.0,35224.0,1.0
468.0,-912.0,2065.0,0.0
0.0,0.0,0.0,0.0
8015.0,-14801.0,35591.0,1.0
455.0,-815.0,2023.0,0.0
0.0,0.0,0.0,0.0
0.0,0.0,0.0,0.0
471.0,-768.0,2108.0,0.0
454.0,-717.0,2041.0,0.0
6321.0,-9666.0,28470.0,0.0
6304.0,-9311.0,28461.0,0.0
5927.0,-8445.0,26822.0,0.0
5935.0,-8149.0,26925.0,0.0
5920.0,-7822.0,26922.0,0.0
5923.0,-7520.0,27001.0,0.0
5925.0,-7216.0,27076.0,0.0
5941.0,-6930.0,27218.0,0.0
6304.0,-7028.0,28948.0,0.0
468.0,-497.0,2156.0,0.0
0.0,0.0,0.0,0.0
0.0,0.0,0.0,0.0
464.0,-421.0,2148.0,0.0
477.0,-409.0,2217.0,0.0
454.0,-366.0,2115.0,0.0
450.0,-340.0,2103.0,0.0
470.0,-331.0,2205.0,0.0
474.0,-309.0,2227.0,0.0
460.0,-276.0,2168.0,0.0
470.0,-258.0,2221.0,0.0
472.0,-234.0,2233.0,0.0
471.0,-210.0,2236.0,0.0
464.0,-182.0,2208.0,0.0
6855.0,-2331.0,32740.0,1.0
459.0,-132.0,2200.0,0.0
4743.0,-1113.0,22781.0,0.0
6.0,-1.0,27.0,0.0
5.0,0.0,22.0,0.0
6.0,-1.0,28.0,0.0
4.0,0.0,19.0,0.0
10.0,0.0,46.0,0.0
6.0,0.0,28.0,0.0
7.0,1.0,32.0,0.0
6.0,0.0,29.0,0.0
7.0,1.0,36.0,0.0
7.0,2.0,35.0,0.0
10.0,3.0,48.0,0.0
9.0,4.0,45.0,0.0
14.0,6.0,67.0,0.0
11.0,6.0,58.0,0.0
11.0,6.0,58.0,0.0
13.0,7.0,65.0,0.0
13.0,9.0,65.0,0.0
14.0,10.0,71.0,0.0
14.0,10.0,68.0,0.0
14.0,12.0,70.0,0.0
15.0,14.0,79.0,0.0
18.0,17.0,87.0,0.0
16.0,16.0,81.0,0.0
18.0,20.0,92.0,0.0
18.0,20.0,88.0,0.0
16.0,20.0,84.0,0.0
18.0,23.0,93.0,0.0
18.0,25.0,96.0,0.0
19.0,27.0,98.0,0.0
19.0,29.0,101.0,0.0
17.0,26.0,88.0,0.0
19.0,31.0,99.0,0.0
18.0,31.0,95.0,0.0
17.0,32.0,94.0,0.0
18.0,34.0,97.0,0.0
18.0,35.0,96.0,0.0
19.0,37.0,101.0,0.0
15.0,32.0,83.0,0.0
17.0,37.0,93.0,0.0
16.0,37.0,90.0,0.0
16.0,36.0,85.0,0.0
16.0,38.0,89.0,0.0
13.0,34.0,75.0,0.0
14.0,36.0,77.0,0.0
12.0,32.0,67.0,0.0
12.0,34.0,70.0,0.0
13.0,38.0,75.0,0.0
12.0,35.0,69.0,0.0
11.0,36.0,68.0,0.0
12.0,39.0,72.0,0.0
13.0,42.0,75.0,0.0
14.0,47.0,81.0,0.0
13.0,46.0,78.0,0.0
13.0,47.0,77.0,0.0
12.0,45.0,73.0,0.0
13.0,49.0,77.0,0.0
13.0,51.0,79.0,0.0
13.0,51.0,76.0,0.0
13.0,57.0,85.0,0.0
13.0,55.0,78.0,0.0
13.0,55.0,77.0,0.0
13.0,62.0,84.0,0.0
13.0,60.0,79.0,0.0
12.0,63.0,82.0,0.0
13.0,67.0,85.0,0.0
13.0,71.0,88.0,0.0
13.0,71.0,86.0,0.0
13.0,74.0,88.0,0.0
13.0,81.0,94.0,0.0
14.0,80.0,92.0,0.0
14.0,89.0,99.0,0.0
14.0,93.0,101.0,0.0
13.0,89.0,95.0,0.0
15.0,98.0,103.0,0.0
15.0,101.0,104.0,0.0
14.0,101.0,101.0,0.0
14.0,105.0,103.0,0.0
14.0,105.0,101.0,0.0
13.0,111.0,104.0,0.0
22.0,-277.0,82.0,0.0
21.0,-266.0,82.0,0.0
24.0,-273.0,88.0,0.0
24.0,-269.0,90.0,0.0
25.0,-277.0,97.0,0.0
25.0,-265.0,95.0,0.0
26.0,-275.0,102.0,0.0
27.0,-273.0,104.0,0.0
27.0,-269.0,106.0,0.0
28.0,-271.0,110.0,0.0
29.0,-276.0,116.0,0.0
29.0,-273.0,119.0,0.0
30.0,-267.0,119.0,0.0
31.0,-264.0,121.0,0.0
31.0,-267.0,126.0,0.0
33.0,-274.0,132.0,0.0
32.0,-262.0,131.0,0.0
34.0,-265.0,136.0,0.0
33.0,-257.0,135.0,0.0
35.0,-264.0,142.0,0.0
37.0,-272.0,151.0,0.0
38.0,-274.0,155.0,0.0
39.0,-272.0,158.0,0.0
35.0,-239.0,143.0,0.0
34.0,-229.0,140.0,0.0
33.0,-217.0,136.0,0.0
33.0,-216.0,139.0,0.0
32.0,-207.0,136.0,0.0
31.0,-189.0,127.0,0.0
31.0,-189.0,131.0,0.0
31.0,-184.0,130.0,0.0
30.0,-176.0,127.0,0.0
26.0,-148.0,109.0,0.0
29.0,-162.0,122.0,0.0
24.0,-132.0,102.0,0.0
27.0,-144.0,114.0,0.0
23.0,-119.0,97.0,0.0
25.0,-129.0,107.0,0.0
23.0,-115.0,97.0,0.0
21.0,-105.0,90.0,0.0
22.0,-104.0,92.0,0.0
25.0,-115.0,104.0,0.0
22.0,-100.0,92.0,0.0
19.0,-88.0,83.0,0.0
19.0,-84.0,82.0,0.0
17.0,-73.0,72.0,0.0
365.0,-1574.0,1590.0,0.0
378.0,-1602.0,1654.0,0.0
383.0,-1590.0,1678.0,0.0
390.0,-1583.0,1709.0,0.0
6419.0,-25592.0,28231.0,1.0
390.0,-1521.0,1715.0,0.0
395.0,-1512.0,1744.0,0.0
392.0,-1468.0,1731.0,0.0
400.0,-1470.0,1773.0,0.0
402.0,-1449.0,1787.0,0.0
400.0,-1410.0,1779.0,0.0
0.0,0.0,0.0,0.0
397.0,-1345.0,1775.0,0.0
403.0,-1338.0,1808.0,0.0
407.0,-1320.0,1826.0,0.0
405.0,-1288.0,1822.0,0.0
418.0,-1300.0,1884.0,0.0
412.0,-1253.0,1859.0,0.0
419.0,-1248.0,1897.0,0.0
410.0,-1193.0,1858.0,0.0
423.0,-1204.0,1921.0,0.0
413.0,-1152.0,1884.0,0.0
415.0,-1130.0,1895.0,0.0
426.0,-1132.0,1947.0,0.0
7367.0,-19147.0,33782.0,1.0
0.0,0.0,0.0,0.0
0.0,0.0,0.0,0.0
426.0,-1028.0,1965.0,0.0
429.0,-1011.0,1984.0,0.0
7464.0,-17150.0,34594.0,1.0
0.0,0.0,0.0,0.0
431.0,-940.0,2008.0,0.0
434.0,-919.0,2023.0,0.0
432.0,-890.0,2016.0,0.0
0.0,0.0,0.0,0.0
436.0,-848.0,2044.0,0.0
429.0,-812.0,2018.0,0.0
424.0,-779.0,2001.0,0.0
439.0,-782.0,2078.0,0.0
0.0,0.0,0.0,0.0
5834.0,-9745.0,27713.0,0.0
5480.0,-8852.0,26094.0,0.0
5468.0,-8530.0,26093.0,0.0
5476.0,-8242.0,26194.0,0.0
5461.0,-7919.0,26184.0,0.0
5461.0,-7622.0,26248.0,0.0
5452.0,-7311.0,26267.0,0.0
5474.0,-7043.0,26437.0,0.0
5790.0,-7136.0,28033.0,0.0
5808.0,-6842.0,28186.0,0.0
435.0,-488.0,2115.0,0.0
6227.0,-6661.0,30368.0,0.0
439.0,-446.0,2147.0,0.0
444.0,-427.0,2175.0,0.0
451.0,-409.0,2217.0,0.0
436.0,-372.0,2148.0,0.0
434.0,-347.0,2145.0,0.0
437.0,-326.0,2165.0,0.0
441.0,-304.0,2185.0,0.0
440.0,-279.0,2190.0,0.0
443.0,-257.0,2208.0,0.0
430.0,-226.0,2149.0,0.0
429.0,-202.0,2153.0,0.0
430.0,-179.0,2164.0,0.0
432.0,-156.0,2177.0,0.0
6436.0,-1969.0,32585.0,1.0
0.0,0.0,0.0,0.0
4311.0,-838.0,21957.0,0.0
4173.0,-577.0,21314.0,0.0
4105.0,-335.0,21028.0,0.0
5.0,0.0,22.0,0.0
8.0,0.0,38.0,0.0
5.0,0.0,24.0,0.0
5.0,0.0,26.0,0.0
7.0,0.0,38.0,0.0
8.0,2.0,45.0,0.0
7.0,2.0,36.0,0.0
8.0,3.0,45.0,0.0
8.0,4.0,46.0,0.0
9.0,3.0,43.0,0.0
13.0,6.0,66.0,0.0
11.0,6.0,55.0,0.0
13.0,8.0,68.0,0.0
13.0,10.0,70.0,0.0
12.0,9.0,66.0,0.0
15.0,12.0,81.0,0.0
17.0,15.0,87.0,0.0
11.0,11.0,62.0,0.0
16.0,16.0,84.0,0.0
14.0,15.0,73.0,0.0
19.0,22.0,102.0,0.0
17.0,20.0,88.0,0.0
16.0,22.0,92.0,0.0
18.0,25.0,101.0,0.0
16.0,23.0,91.0,0.0
19.0,28.0,102.0,0.0
17.0,27.0,96.0,0.0
17.0,28.0,94.0,0.0
18.0,31.0,101.0,0.0
18.0,32.0,99.0,0.0
19.0,37.0,109.0,0.0
21.0,40.0,116.0,0.0
19.0,40.0,110.0,0.0
16.0,36.0,95.0,0.0
17.0,39.0,102.0,0.0
16.0,36.0,92.0,0.0
15.0,38.0,92.0,0.0
15.0,39.0,91.0,0.0
15.0,39.0,90.0,0.0
14.0,40.0,87.0,0.0
16.0,47.0,102.0,0.0
14.0,41.0,86.0,0.0
14.0,41.0,84.0,0.0
13.0,43.0,86.0,0.0
14.0,43.0,84.0,0.0
13.0,43.0,81.0,0.0
13.0,47.0,87.0,0.0
13.0,46.0,81.0,0.0
13.0,47.0,82.0,0.0
13.0,48.0,82.0,0.0
14.0,56.0,92.0,0.0
12.0,49.0,78.0,0.0
13.0,54.0,85.0,0.0
13.0,53.0,81.0,0.0
12.0,53.0,80.0,0.0
15.0,64.0,95.0,0.0
12.0,59.0,86.0,0.0
14.0,66.0,92.0,0.0
13.0,67.0,90.0,0.0
13.0,67.0,89.0,0.0
12.0,67.0,87.0,0.0
13.0,70.0,90.0,0.0
14.0,78.0,98.0,0.0
14.0,82.0,100.0,0.0
14.0,86.0,101.0,0.0
13.0,82.0,97.0,0.0
12.0,79.0,90.0,0.0
14.0,91.0,102.0,0.0
13.0,89.0,98.0,0.0
13.0,94.0,100.0,0.0
12.0,94.0,97.0,0.0
13.0,101.0,103.0,0.0
13.0,103.0,104.0,0.0
13.0,107.0,106.0,0.0
12.0,106.0,102.0,0.0
12.0,109.0,103.0,0.0
18.0,-256.0,78.0,0.0
18.0,-253.0,79.0,0.0
20.0,-259.0,84.0,0.0
20.0,-256.0,87.0,0.0
21.0,-258.0,90.0,0.0
22.0,-263.0,95.0,0.0
22.0,-262.0,98.0,0.0
24.0,-267.0,102.0,0.0
25.0,-266.0,106.0,0.0
24.0,-265.0,109.0,0.0
25.0,-263.0,111.0,0.0
26.0,-266.0,116.0,0.0
27.0,-264.0,118.0,0.0
27.0,-260.0,120.0,0.0
27.0,-257.0,122.0,0.0
29.0,-259.0,126.0,0.0
29.0,-258.0,129.0,0.0
29.0,-252.0,130.0,0.0
29.0,-247.0,131.0,0.0
32.0,-261.0,142.0,0.0
32.0,-259.0,144.0,0.0
34.0,-267.0,153.0,0.0
31.0,-238.0,140.0,0.0
33.0,-250.0,150.0,0.0
30.0,-215.0,132.0,0.0
30.0,-216.0,136.0,0.0
29.0,-200.0,129.0,0.0
29.0,-202.0,134.0,0.0
30.0,-198.0,134.0,0.0
28.0,-181.0,125.0,0.0
28.0,-179.0,127.0,0.0
26.0,-164.0,119.0,0.0
27.0,-164.0,121.0,0.0
26.0,-157.0,119.0,0.0
24.0,-144.0,112.0,0.0
25.0,-146.0,116.0,0.0
22.0,-125.0,101.0,0.0
23.0,-129.0,107.0,0.0
23.0,-123.0,105.0,0.0
20.0,-102.0,89.0,0.0
18.0,-95.0,85.0,0.0
15.0,-76.0,68.0,0.0
18.0,-87.0,80.0,0.0
17.0,-82.0,78.0,0.0
17.0,-81.0,78.0,0.0
15.0,-72.0,70.0,0.0
345.0,-1593.0,1613.0,0.0
351.0,-1587.0,1642.0,0.0
359.0,-1591.0,1684.0,0.0
359.0,-1558.0,1685.0,0.0
367.0,-1557.0,1722.0,0.0
361.0,-1505.0,1701.0,0.0
368.0,-1502.0,1737.0,0.0
365.0,-1457.0,1722.0,0.0
371.0,-1452.0,1755.0,0.0
368.0,-1410.0,1743.0,0.0
374.0,-1404.0,1775.0,0.0
381.0,-1401.0,1813.0,0.0
373.0,-1342.0,1774.0,0.0
377.0,-1330.0,1800.0,0.0
381.0,-1312.0,1819.0,0.0
384.0,-1298.0,1839.0,0.0
379.0,-1252.0,1818.0,0.0
390.0,-1263.0,1877.0,0.0
0.0,0.0,0.0,0.0
389.0,-1202.0,1877.0,0.0
390.0,-1178.0,1883.0,0.0
391.0,-1158.0,1897.0,0.0
396.0,-1145.0,1923.0,0.0
396.0,-1120.0,1928.0,0.0
403.0,-1109.0,1960.0,0.0
401.0,-1077.0,1955.0,0.0
402.0,-1055.0,1966.0,0.0
410.0,-1049.0,2008.0,0.0
397.0,-991.0,1947.0,0.0
415.0,-1011.0,2044.0,0.0
407.0,-964.0,2005.0,0.0
410.0,-946.0,2023.0,0.0
0.0,0.0,0.0,0.0
404.0,-883.0,2004.0,0.0
410.0,-871.0,2038.0,0.0
402.0,-831.0,2003.0,0.0
408.0,-818.0,2038.0,0.0
405.0,-788.0,2026.0,0.0
7146.0,-13490.0,35834.0,1.0
7113.0,-13007.0,35746.0,1.0
5485.0,-9708.0,27632.0,0.0
5159.0,-8827.0,26044.0,0.0
5154.0,-8517.0,26074.0,0.0
5127.0,-8175.0,26004.0,0.0
5119.0,-7864.0,26018.0,0.0
5139.0,-7598.0,26183.0,0.0
5146.0,-7313.0,26286.0,0.0
5181.0,-7064.0,26526.0,0.0
5469.0,-7142.0,28068.0,0.0
5494.0,-6858.0,28260.0,0.0
5515.0,-6569.0,28440.0,0.0
413.0,-469.0,2134.0,0.0
421.0,-453.0,2181.0,0.0
416.0,-424.0,2160.0,0.0
412.0,-397.0,2146.0,0.0
409.0,-370.0,2137.0,0.0
415.0,-352.0,2172.0,0.0
420.0,-331.0,2202.0,0.0
409.0,-299.0,2152.0,0.0
420.0,-284.0,2219.0,0.0
421.0,-260.0,2227.0,0.0
420.0,-235.0,2230.0,0.0
415.0,-209.0,2213.0,0.0
415.0,-184.0,2215.0,0.0
405.0,-156.0,2170.0,0.0
416.0,-136.0,2237.0,0.0
4240.0,-1135.0,22834.0,0.0
4073.0,-849.0,22006.0,0.0
3931.0,-586.0,21299.0,0.0
2.0,0.0,10.0,0.0
0.0,0.0,2.0,0.0
5.0,0.0,29.0,0.0
1.0,0.0,4.0,0.0
6.0,0.0,31.0,0.0
4.0,0.0,22.0,0.0
4.0,1.0,25.0,0.0
7.0,2.0,35.0,0.0
6.0,2.0,31.0,0.0
9.0,4.0,54.0,0.0
9.0,3.0,47.0,0.0
9.0,4.0,48.0,0.0
10.0,6.0,55.0,0.0
11.0,7.0,60.0,0.0
12.0,9.0,67.0,0.0
14.0,11.0,79.0,0.0
15.0,14.0,84.0,0.0
14.0,13.0,80.0,0.0
13.0,13.0,76.0,0.0
13.0,14.0,74.0,0.0
11.0,13.0,64.0,0.0
14.0,18.0,83.0,0.0
15.0,19.0,87.0,0.0
15.0,22.0,92.0,0.0
17.0,25.0,99.0,0.0
17.0,26.0,99.0,0.0
13.0,21.0,79.0,0.0
15.0,26.0,92.0,0.0
16.0,28.0,96.0,0.0
15.0,27.0,87.0,0.0
17.0,34.0,104.0,0.0
16.0,33.0,101.0,0.0
16.0,33.0,96.0,0.0
15.0,34.0,95.0,0.0
13.0,30.0,81.0,0.0
15.0,33.0,88.0,0.0
13.0,33.0,84.0,0.0
13.0,35.0,87.0,0.0
13.0,34.0,81.0,0.0
11.0,33.0,76.0,0.0
11.0,34.0,76.0,0.0
10.0,31.0,66.0,0.0
13.0,39.0,83.0,0.0
13.0,41.0,84.0,0.0
11.0,37.0,72.0,0.0
11.0,38.0,74.0,0.0
12.0,43.0,81.0,0.0
11.0,42.0,77.0,0.0
10.0,41.0,73.0,0.0
11.0,41.0,71.0,0.0
11.0,46.0,79.0,0.0
11.0,47.0,78.0,0.0
11.0,47.0,76.0,0.0
11.0,50.0,80.0,0.0
10.0,46.0,72.0,0.0
9.0,43.0,65.0,0.0
11.0,55.0,81.0,0.0
11.0,58.0,83.0,0.0
11.0,59.0,83.0,0.0
12.0,65.0,89.0,0.0
11.0,62.0,83.0,0.0
11.0,65.0,85.0,0.0
11.0,67.0,87.0,0.0
12.0,73.0,91.0,0.0
12.0,74.0,90.0,0.0
11.0,76.0,92.0,0.0
11.0,74.0,87.0,0.0
11.0,77.0,88.0,0.0
10.0,81.0,91.0,0.0
11.0,84.0,93.0,0.0
11.0,92.0,99.0,0.0
11.0,92.0,96.0,0.0
11.0,94.0,97.0,0.0
10.0,98.0,98.0,0.0
11.0,105.0,103.0,0.0
10.0,101.0,97.0,0.0
11.0,111.0,105.0,0.0
17.0,-272.0,82.0,0.0
18.0,-272.0,86.0,0.0
18.0,-279.0,91.0,0.0
18.0,-271.0,91.0,0.0
20.0,-278.0,98.0,0.0
20.0,-276.0,99.0,0.0
21.0,-272.0,102.0,0.0
21.0,-275.0,107.0,0.0
21.0,-271.0,108.0,0.0
24.0,-281.0,115.0,0.0
24.0,-275.0,116.0,0.0
25.0,-283.0,124.0,0.0
25.0,-269.0,122.0,0.0
26.0,-271.0,125.0,0.0
26.0,-272.0,129.0,0.0
28.0,-276.0,135.0,0.0
28.0,-271.0,136.0,0.0
28.0,-269.0,139.0,0.0
27.0,-253.0,134.0,0.0
30.0,-266.0,144.0,0.0
31.0,-272.0,151.0,0.0
32.0,-273.0,156.0,0.0
31.0,-264.0,155.0,0.0
30.0,-249.0,150.0,0.0
30.0,-240.0,149.0,0.0
29.0,-221.0,139.0,0.0
29.0,-221.0,143.0,0.0
30.0,-223.0,148.0,0.0
27.0,-200.0,135.0,0.0
27.0,-192.0,133.0,0.0
27.0,-188.0,134.0,0.0
23.0,-161.0,116.0,0.0
25.0,-169.0,126.0,0.0
26.0,-163.0,125.0,0.0
23.0,-148.0,115.0,0.0
24.0,-148.0,118.0,0.0
21.0,-128.0,104.0,0.0
21.0,-130.0,108.0,0.0
21.0,-123.0,105.0,0.0
19.0,-106.0,92.0,0.0
18.0,-101.0,90.0,0.0
20.0,-110.0,100.0,0.0
20.0,-107.0,100.0,0.0
16.0,-84.0,80.0,0.0
18.0,-92.0,89.0,0.0
16.0,-81.0,80.0,0.0
18.0,-87.0,88.0,0.0
332.0,-1611.0,1671.0,0.0
334.0,-1588.0,1683.0,0.0
5502.0,-25579.0,27723.0,1.0
341.0,-1549.0,1716.0,0.0
344.0,-1536.0,1739.0,0.0
342.0,-1494.0,1730.0,0.0
346.0,-1475.0,1747.0,0.0
349.0,-1460.0,1767.0,0.0
353.0,-1447.0,1793.0,0.0
356.0,-1428.0,1810.0,0.0
367.0,-1444.0,1872.0,0.0
0.0,0.0,0.0,0.0
359.0,-1353.0,1835.0,0.0
363.0,-1336.0,1855.0,0.0
360.0,-1297.0,1843.0,0.0
367.0,-1296.0,1885.0,0.0
372.0,-1283.0,1911.0,0.0
369.0,-1244.0,1898.0,0.0
369.0,-1217.0,1902.0,0.0
366.0,-1178.0,1886.0,0.0
379.0,-1194.0,1961.0,0.0
376.0,-1155.0,1944.0,0.0
373.0,-1121.0,1936.0,0.0
374.0,-1097.0,1943.0,0.0
379.0,-1087.0,1974.0,0.0
6464.0,-18074.0,33701.0,1.0
378.0,-1030.0,1974.0,0.0
387.0,-1027.0,2023.0,0.0
387.0,-1003.0,2031.0,0.0
6513.0,-16447.0,34210.0,1.0
387.0,-951.0,2036.0,0.0
381.0,-913.0,2013.0,0.0
377.0,-878.0,1992.0,0.0
381.0,-860.0,2014.0,0.0
0.0,0.0,0.0,0.0
398.0,-848.0,2113.0,0.0
388.0,-801.0,2062.0,0.0
386.0,-773.0,2058.0,0.0
396.0,-769.0,2116.0,0.0
5405.0,-10168.0,28962.0,0.0
4919.0,-8948.0,26420.0,0.0
4921.0,-8647.0,26493.0,0.0
4900.0,-8306.0,26434.0,0.0
4883.0,-7975.0,26400.0,0.0
4910.0,-7717.0,26606.0,0.0
4919.0,-7431.0,26721.0,0.0
4938.0,-7157.0,26887.0,0.0
5249.0,-7288.0,28649.0,0.0
5247.0,-6966.0,28706.0,0.0
5258.0,-6661.0,28841.0,0.0
0.0,0.0,0.0,0.0
385.0,-442.0,2126.0,0.0
383.0,-415.0,2114.0,0.0
382.0,-391.0,2118.0,0.0
388.0,-374.0,2156.0,0.0
394.0,-356.0,2194.0,0.0
398.0,-334.0,2221.0,0.0
388.0,-304.0,2176.0,0.0
406.0,-292.0,2275.0,0.0
383.0,-252.0,2156.0,0.0
392.0,-234.0,2212.0,0.0
396.0,-212.0,2242.0,0.0
393.0,-186.0,2237.0,0.0
390.0,-160.0,2222.0,0.0
388.0,-135.0,2215.0,0.0
4012.0,-1152.0,23001.0,0.0
3823.0,-857.0,21983.0,0.0
3715.0,-599.0,21432.0,0.0
5.0,-1.0,28.0,0.0
8.0,0.0,48.0,0.0
10.0,0.0,60.0,0.0
9.0,0.0,52.0,0.0
13.0,1.0,79.0,0.0
10.0,1.0,61.0,0.0
8.0,1.0,43.0,0.0
13.0,4.0,76.0,0.0
9.0,3.0,54.0,0.0
11.0,4.0,62.0,0.0
9.0,4.0,54.0,0.0
13.0,7.0,76.0,0.0
13.0,8.0,79.0,0.0
15.0,10.0,87.0,0.0
13.0,10.0,76.0,0.0
13.0,11.0,78.0,0.0
15.0,15.0,95.0,0.0
16.0,16.0,96.0,0.0
14.0,15.0,86.0,0.0
13.0,16.0,83.0,0.0
15.0,19.0,96.0,0.0
15.0,20.0,94.0,0.0
16.0,22.0,101.0,0.0
17.0,27.0,113.0,0.0
17.0,28.0,112.0,0.0
16.0,26.0,102.0,0.0
17.0,29.0,109.0,0.0
17.0,31.0,109.0,0.0
17.0,34.0,114.0,0.0
16.0,32.0,104.0,0.0
17.0,35.0,108.0,0.0
17.0,38.0,116.0,0.0
16.0,36.0,104.0,0.0
18.0,42.0,117.0,0.0
16.0,41.0,110.0,0.0
15.0,39.0,104.0,0.0
16.0,42.0,107.0,0.0
16.0,45.0,110.0,0.0
13.0,38.0,92.0,0.0
13.0,39.0,89.0,0.0
14.0,45.0,101.0,0.0
14.0,46.0,100.0,0.0
14.0,45.0,96.0,0.0
13.0,44.0,91.0,0.0
12.0,43.0,85.0,0.0
12.0,44.0,85.0,0.0
11.0,42.0,80.0,0.0
11.0,45.0,83.0,0.0
12.0,49.0,88.0,0.0
12.0,51.0,88.0,0.0
11.0,50.0,85.0,0.0
13.0,56.0,93.0,0.0
11.0,54.0,88.0,0.0
12.0,57.0,91.0,0.0
12.0,58.0,91.0,0.0
11.0,60.0,89.0,0.0
12.0,67.0,99.0,0.0
12.0,67.0,97.0,0.0
12.0,65.0,92.0,0.0
11.0,69.0,94.0,0.0
12.0,76.0,103.0,0.0
11.0,73.0,96.0,0.0
11.0,75.0,96.0,0.0
11.0,81.0,102.0,0.0
11.0,78.0,95.0,0.0
12.0,89.0,106.0,0.0
11.0,86.0,100.0,0.0
11.0,88.0,102.0,0.0
10.0,89.0,100.0,0.0
11.0,93.0,102.0,0.0
11.0,104.0,112.0,0.0
10.0,96.0,101.0,0.0
10.0,102.0,106.0,0.0
11.0,113.0,115.0,0.0
10.0,110.0,109.0,0.0
10.0,118.0,114.0,0.0
10.0,116.0,110.0,0.0
14.0,-272.0,83.0,0.0
14.0,-263.0,83.0,0.0
15.0,-264.0,86.0,0.0
16.0,-267.0,91.0,0.0
16.0,-264.0,93.0,0.0
17.0,-268.0,97.0,0.0
17.0,-269.0,102.0,0.0
19.0,-271.0,105.0,0.0
18.0,-258.0,104.0,0.0
20.0,-266.0,110.0,0.0
20.0,-265.0,112.0,0.0
21.0,-268.0,118.0,0.0
22.0,-264.0,119.0,0.0
23.0,-270.0,125.0,0.0
23.0,-264.0,127.0,0.0
24.0,-264.0,130.0,0.0
24.0,-263.0,133.0,0.0
24.0,-264.0,137.0,0.0
25.0,-255.0,136.0,0.0
25.0,-259.0,142.0,0.0
28.0,-271.0,151.0,0.0
27.0,-264.0,152.0,0.0
28.0,-263.0,155.0,0.0
27.0,-243.0,146.0,0.0
27.0,-236.0,145.0,0.0
26.0,-226.0,143.0,0.0
26.0,-213.0,138.0,0.0
26.0,-207.0,138.0,0.0
24.0,-194.0,132.0,0.0
25.0,-188.0,131.0,0.0
25.0,-190.0,135.0,0.0
24.0,-174.0,127.0,0.0
22.0,-160.0,120.0,0.0
23.0,-162.0,124.0,0.0
21.0,-148.0,116.0,0.0
21.0,-144.0,115.0,0.0
20.0,-135.0,110.0,0.0
20.0,-126.0,106.0,0.0
19.0,-120.0,102.0,0.0
16.0,-105.0,91.0,0.0
18.0,-107.0,95.0,0.0
17.0,-99.0,90.0,0.0
15.0,-87.0,82.0,0.0
15.0,-81.0,78.0,0.0
17.0,-95.0,92.0,0.0
16.0,-85.0,85.0,0.0
12.0,-62.0,63.0,0.0
306.0,-1597.0,1660.0,0.0
312.0,-1596.0,1696.0,0.0
313.0,-1562.0,1697.0,0.0
317.0,-1553.0,1724.0,0.0
5190.0,-24899.0,28259.0,1.0
319.0,-1497.0,1738.0,0.0
323.0,-1485.0,1762.0,0.0
326.0,-1468.0,1780.0,0.0
328.0,-1446.0,1794.0,0.0
329.0,-1419.0,1800.0,0.0
333.0,-1403.0,1821.0,0.0
329.0,-1360.0,1806.0,0.0
333.0,-1344.0,1826.0,0.0
332.0,-1314.0,1827.0,0.0
336.0,-1298.0,1847.0,0.0
337.0,-1272.0,1853.0,0.0
346.0,-1276.0,1902.0,0.0
335.0,-1208.0,1845.0,0.0
5873.0,-20736.0,32446.0,1.0
0.0,0.0,0.0,0.0
350.0,-1179.0,1940.0,0.0
349.0,-1149.0,1936.0,0.0
348.0,-1119.0,1933.0,0.0
349.0,-1096.0,1943.0,0.0
347.0,-1061.0,1932.0,0.0
339.0,-1010.0,1889.0,0.0
354.0,-1032.0,1980.0,0.0
358.0,-1018.0,2008.0,0.0
352.0,-972.0,1970.0,0.0
357.0,-961.0,2005.0,0.0
353.0,-927.0,1988.0,0.0
360.0,-918.0,2028.0,0.0
352.0,-873.0,1985.0,0.0
350.0,-846.0,1981.0,0.0
363.0,-849.0,2055.0,0.0
367.0,-834.0,2080.0,0.0
357.0,-788.0,2030.0,0.0
361.0,-772.0,2057.0,0.0
362.0,-749.0,2065.0,0.0
365.0,-733.0,2091.0,0.0
4766.0,-9251.0,27336.0,0.0
4760.0,-8925.0,27363.0,0.0
4541.0,-8212.0,26155.0,0.0
4533.0,-7901.0,26169.0,0.0
4536.0,-7609.0,26246.0,0.0
4548.0,-7331.0,26373.0,0.0
4806.0,-7435.0,27935.0,0.0
4826.0,-7152.0,28122.0,0.0
4848.0,-6869.0,28314.0,0.0
4882.0,-6600.0,28577.0,0.0
375.0,-483.0,2199.0,0.0
370.0,-452.0,2175.0,0.0
365.0,-422.0,2151.0,0.0
366.0,-400.0,2164.0,0.0
369.0,-380.0,2186.0,0.0
370.0,-356.0,2201.0,0.0
5663.0,-5094.0,33767.0,1.0
5625.0,-4694.0,33631.0,1.0
366.0,-282.0,2196.0,0.0
367.0,-258.0,2205.0,0.0
368.0,-236.0,2220.0,0.0
373.0,-214.0,2257.0,0.0
371.0,-188.0,2256.0,0.0
362.0,-160.0,2208.0,0.0
362.0,-136.0,2208.0,0.0
3744.0,-1158.0,22932.0,0.0
3583.0,-868.0,22020.0,0.0
3479.0,-609.0,21451.0,0.0
5.0,-1.0,28.0,0.0
3.0,0.0,17.0,0.0
3.0,0.0,22.0,0.0
3.0,0.0,21.0,0.0
5.0,0.0,32.0,0.0
8.0,1.0,49.0,0.0
6.0,1.0,40.0,0.0
8.0,2.0,53.0,0.0
6.0,2.0,41.0,0.0
10.0,4.0,62.0,0.0
12.0,6.0,75.0,0.0
8.0,4.0,52.0,0.0
10.0,6.0,63.0,0.0
10.0,8.0,71.0,0.0
10.0,8.0,65.0,0.0
12.0,11.0,80.0,0.0
12.0,12.0,80.0,0.0
11.0,12.0,74.0,0.0
13.0,15.0,84.0,0.0
13.0,16.0,87.0,0.0
12.0,16.0,81.0,0.0
15.0,21.0,101.0,0.0
16.0,24.0,110.0,0.0
13.0,22.0,92.0,0.0
16.0,27.0,107.0,0.0
14.0,26.0,100.0,0.0
14.0,27.0,101.0,0.0
15.0,29.0,106.0,0.0
15.0,32.0,111.0,0.0
15.0,32.0,105.0,0.0
14.0,33.0,103.0,0.0
16.0,36.0,108.0,0.0
15.0,38.0,111.0,0.0
13.0,32.0,92.0,0.0
13.0,36.0,96.0,0.0
14.0,39.0,101.0,0.0
14.0,40.0,101.0,0.0
13.0,38.0,94.0,0.0
12.0,37.0,89.0,0.0
12.0,39.0,92.0,0.0
11.0,36.0,81.0,0.0
10.0,37.0,80.0,0.0
11.0,40.0,85.0,0.0
11.0,42.0,88.0,0.0
10.0,40.0,80.0,0.0
10.0,41.0,80.0,0.0
10.0,43.0,81.0,0.0
10.0,43.0,80.0,0.0
11.0,47.0,84.0,0.0
10.0,45.0,80.0,0.0
11.0,52.0,89.0,0.0
10.0,50.0,82.0,0.0
10.0,51.0,82.0,0.0
9.0,49.0,77.0,0.0
9.0,51.0,79.0,0.0
10.0,55.0,83.0,0.0
10.0,60.0,88.0,0.0
10.0,60.0,87.0,0.0
10.0,64.0,90.0,0.0
9.0,61.0,85.0,0.0
10.0,66.0,89.0,0.0
9.0,68.0,91.0,0.0
10.0,75.0,97.0,0.0
10.0,76.0,96.0,0.0
10.0,76.0,94.0,0.0
10.0,80.0,96.0,0.0
9.0,83.0,98.0,0.0
9.0,81.0,93.0,0.0
9.0,85.0,96.0,0.0
9.0,92.0,101.0,0.0
10.0,94.0,103.0,0.0
9.0,87.0,93.0,0.0
9.0,98.0,101.0,0.0
8.0,101.0,102.0,0.0
9.0,108.0,107.0,0.0
8.0,108.0,104.0,0.0
8.0,113.0,108.0,0.0
12.0,-272.0,83.0,0.0
12.0,-268.0,85.0,0.0
13.0,-274.0,90.0,0.0
13.0,-272.0,92.0,0.0
14.0,-269.0,95.0,0.0
14.0,-267.0,98.0,0.0
16.0,-270.0,102.0,0.0
16.0,-274.0,107.0,0.0
16.0,-263.0,105.0,0.0
17.0,-268.0,111.0,0.0
18.0,-274.0,117.0,0.0
18.0,-271.0,119.0,0.0
19.0,-267.0,121.0,0.0
20.0,-274.0,127.0,0.0
20.0,-261.0,125.0,0.0
21.0,-265.0,131.0,0.0
22.0,-265.0,134.0,0.0
22.0,-266.0,138.0,0.0
22.0,-258.0,138.0,0.0
24.0,-271.0,148.0,0.0
25.0,-273.0,154.0,0.0
25.0,-269.0,154.0,0.0
25.0,-265.0,156.0,0.0
25.0,-250.0,151.0,0.0
23.0,-231.0,143.0,0.0
24.0,-231.0,146.0,0.0
23.0,-214.0,139.0,0.0
22.0,-203.0,135.0,0.0
23.0,-200.0,137.0,0.0
22.0,-184.0,129.0,0.0
22.0,-187.0,133.0,0.0
22.0,-179.0,131.0,0.0
22.0,-177.0,132.0,0.0
19.0,-151.0,115.0,0.0
19.0,-147.0,115.0,0.0
20.0,-148.0,118.0,0.0
19.0,-143.0,117.0,0.0
17.0,-126.0,105.0,0.0
17.0,-119.0,102.0,0.0
17.0,-115.0,101.0,0.0
18.0,-123.0,110.0,0.0
16.0,-101.0,93.0,0.0
17.0,-103.0,97.0,0.0
16.0,-97.0,93.0,0.0
15.0,-90.0,88.0,0.0
12.0,-73.0,73.0,0.0
13.0,-76.0,77.0,0.0
275.0,-1558.0,1623.0,0.0
283.0,-1568.0,1669.0,0.0
285.0,-1543.0,1679.0,0.0
287.0,-1523.0,1694.0,0.0
294.0,-1524.0,1733.0,0.0
297.0,-1511.0,1757.0,0.0
294.0,-1460.0,1736.0,0.0
0.0,0.0,0.0,0.0
305.0,-1452.0,1804.0,0.0
294.0,-1367.0,1738.0,0.0
305.0,-1386.0,1802.0,0.0
302.0,-1348.0,1792.0,0.0
315.0,-1371.0,1865.0,0.0
5304.0,-22580.0,31443.0,1.0
310.0,-1292.0,1843.0,0.0
317.0,-1291.0,1885.0,0.0
320.0,-1272.0,1902.0,0.0
321.0,-1247.0,1909.0,0.0
326.0,-1237.0,1940.0,0.0
0.0,0.0,0.0,0.0
323.0,-1169.0,1925.0,0.0
324.0,-1147.0,1937.0,0.0
5483.0,-18945.0,32777.0,1.0
331.0,-1116.0,1982.0,0.0
330.0,-1085.0,1977.0,0.0
328.0,-1049.0,1963.0,0.0
0.0,0.0,0.0,0.0
330.0,-1006.0,1986.0,0.0
335.0,-995.0,2018.0,0.0
336.0,-972.0,2028.0,0.0
334.0,-941.0,2020.0,0.0
5769.0,-15810.0,34917.0,1.0
0.0,0.0,0.0,0.0
332.0,-860.0,2019.0,0.0
338.0,-850.0,2056.0,0.0
345.0,-840.0,2098.0,0.0
341.0,-808.0,2083.0,0.0
337.0,-773.0,2060.0,0.0
0.0,0.0,0.0,0.0
0.0,0.0,0.0,0.0
339.0,-705.0,2088.0,0.0
4493.0,-9028.0,27699.0,0.0
4488.0,-8700.0,27723.0,0.0
4461.0,-8333.0,27614.0,0.0
4374.0,-7863.0,27134.0,0.0
4336.0,-7491.0,26958.0,0.0
4518.0,-7491.0,28155.0,0.0
4514.0,-7168.0,28194.0,0.0
4526.0,-6874.0,28340.0,0.0
354.0,-512.0,2219.0,0.0
348.0,-481.0,2189.0,0.0
346.0,-454.0,2183.0,0.0
343.0,-426.0,2168.0,0.0
340.0,-399.0,2157.0,0.0
346.0,-382.0,2202.0,0.0
5350.0,-5535.0,34108.0,1.0
341.0,-329.0,2178.0,0.0
355.0,-317.0,2274.0,0.0
344.0,-284.0,2207.0,0.0
333.0,-252.0,2151.0,0.0
336.0,-231.0,2173.0,0.0
5106.0,-3150.0,33131.0,1.0
336.0,-184.0,2184.0,0.0
336.0,-160.0,2195.0,0.0
336.0,-136.0,2201.0,0.0
3504.0,-1170.0,23035.0,0.0
3328.0,-873.0,21951.0,0.0
4.0,0.0,27.0,0.0
6.0,0.0,39.0,0.0
4.0,0.0,27.0,0.0
7.0,0.0,42.0,0.0
4.0,0.0,24.0,0.0
6.0,0.0,38.0,0.0
9.0,2.0,60.0,0.0
5.0,1.0,36.0,0.0
6.0,2.0,40.0,0.0
6.0,2.0,39.0,0.0
10.0,4.0,70.0,0.0
7.0,4.0,48.0,0.0
9.0,6.0,64.0,0.0
11.0,8.0,76.0,0.0
9.0,6.0,61.0,0.0
11.0,10.0,77.0,0.0
12.0,12.0,87.0,0.0
12.0,13.0,84.0,0.0
12.0,15.0,91.0,0.0
11.0,14.0,79.0,0.0
11.0,16.0,84.0,0.0
12.0,18.0,91.0,0.0
14.0,21.0,98.0,0.0
13.0,21.0,96.0,0.0
12.0,21.0,89.0,0.0
15.0,27.0,112.0,0.0
15.0,28.0,108.0,0.0
14.0,28.0,104.0,0.0
14.0,31.0,108.0,0.0
14.0,31.0,104.0,0.0
14.0,33.0,109.0,0.0
14.0,35.0,109.0,0.0
13.0,33.0,102.0,0.0
14.0,38.0,110.0,0.0
12.0,35.0,99.0,0.0
13.0,37.0,101.0,0.0
11.0,34.0,92.0,0.0
11.0,36.0,92.0,0.0
11.0,37.0,93.0,0.0
11.0,36.0,87.0,0.0
12.0,42.0,98.0,0.0
10.0,39.0,89.0,0.0
11.0,42.0,91.0,0.0
11.0,44.0,92.0,0.0
10.0,41.0,84.0,0.0
10.0,42.0,85.0,0.0
10.0,44.0,86.0,0.0
10.0,44.0,83.0,0.0
10.0,48.0,88.0,0.0
9.0,45.0,81.0,0.0
10.0,51.0,91.0,0.0
9.0,52.0,88.0,0.0
9.0,47.0,80.0,0.0
9.0,49.0,80.0,0.0
10.0,57.0,91.0,0.0
9.0,60.0,94.0,0.0
9.0,59.0,88.0,0.0
9.0,61.0,90.0,0.0
9.0,65.0,94.0,0.0
9.0,62.0,87.0,0.0
9.0,69.0,96.0,0.0
9.0,68.0,93.0,0.0
9.0,72.0,96.0,0.0
8.0,70.0,91.0,0.0
8.0,74.0,93.0,0.0
9.0,84.0,103.0,0.0
8.0,81.0,98.0,0.0
9.0,89.0,105.0,0.0
8.0,85.0,99.0,0.0
8.0,89.0,101.0,0.0
8.0,92.0,103.0,0.0
9.0,99.0,108.0,0.0
7.0,97.0,103.0,0.0
8.0,106.0,111.0,0.0
7.0,107.0,108.0,0.0
7.0,110.0,109.0,0.0
7.0,109.0,107.0,0.0
6.0,111.0,106.0,0.0
8.0,-268.0,83.0,0.0
9.0,-261.0,83.0,0.0
9.0,-256.0,84.0,0.0
10.0,-265.0,90.0,0.0
11.0,-262.0,93.0,0.0
12.0,-263.0,96.0,0.0
12.0,-262.0,99.0,0.0
13.0,-265.0,104.0,0.0
13.0,-255.0,103.0,0.0
14.0,-266.0,110.0,0.0
15.0,-264.0,113.0,0.0
16.0,-268.0,118.0,0.0
16.0,-263.0,120.0,0.0
16.0,-261.0,122.0,0.0
17.0,-262.0,126.0,0.0
17.0,-263.0,129.0,0.0
18.0,-258.0,131.0,0.0
19.0,-260.0,135.0,0.0
19.0,-250.0,134.0,0.0
20.0,-264.0,145.0,0.0
22.0,-272.0,153.0,0.0
22.0,-273.0,158.0,0.0
23.0,-267.0,159.0,0.0
22.0,-252.0,153.0,0.0
22.0,-241.0,150.0,0.0
21.0,-228.0,145.0,0.0
20.0,-214.0,139.0,0.0
21.0,-221.0,147.0,0.0
20.0,-202.0,139.0,0.0
20.0,-193.0,136.0,0.0
20.0,-188.0,134.0,0.0
19.0,-171.0,125.0,0.0
20.0,-177.0,133.0,0.0
19.0,-164.0,126.0,0.0
18.0,-152.0,119.0,0.0
17.0,-136.0,109.0,0.0
16.0,-128.0,105.0,0.0
15.0,-123.0,103.0,0.0
16.0,-123.0,105.0,0.0
15.0,-109.0,95.0,0.0
16.0,-114.0,102.0,0.0
15.0,-106.0,97.0,0.0
13.0,-95.0,89.0,0.0
14.0,-100.0,96.0,0.0
14.0,-94.0,91.0,0.0
12.0,-81.0,81.0,0.0
12.0,-75.0,76.0,0.0
259.0,-1599.0,1668.0,0.0
4237.0,-25648.0,27360.0,1.0
4269.0,-25265.0,27547.0,1.0
269.0,-1559.0,1737.0,0.0
267.0,-1514.0,1725.0,0.0
268.0,-1483.0,1727.0,0.0
278.0,-1507.0,1796.0,0.0
273.0,-1443.0,1757.0,0.0
274.0,-1413.0,1759.0,0.0
277.0,-1397.0,1780.0,0.0
280.0,-1379.0,1797.0,0.0
284.0,-1375.0,1832.0,0.0
287.0,-1358.0,1852.0,0.0
4863.0,-22442.0,31301.0,1.0
292.0,-1318.0,1882.0,0.0
296.0,-1306.0,1907.0,0.0
293.0,-1263.0,1890.0,0.0
287.0,-1207.0,1849.0,0.0
294.0,-1208.0,1897.0,0.0
297.0,-1191.0,1917.0,0.0
296.0,-1159.0,1911.0,0.0
299.0,-1143.0,1931.0,0.0
0.0,0.0,0.0,0.0
5044.0,-18374.0,32657.0,1.0
0.0,0.0,0.0,0.0
301.0,-1043.0,1953.0,0.0
306.0,-1033.0,1987.0,0.0
303.0,-998.0,1971.0,0.0
309.0,-989.0,2007.0,0.0
309.0,-961.0,2009.0,0.0
5267.0,-15999.0,34364.0,1.0
317.0,-936.0,2069.0,0.0
318.0,-912.0,2079.0,0.0
311.0,-867.0,2035.0,0.0
306.0,-827.0,2004.0,0.0
317.0,-833.0,2080.0,0.0
319.0,-814.0,2101.0,0.0
318.0,-787.0,2101.0,0.0
311.0,-744.0,2056.0,0.0
4273.0,-9905.0,28280.0,0.0
4280.0,-9591.0,28382.0,0.0
4286.0,-9275.0,28474.0,0.0
4236.0,-8846.0,28206.0,0.0
4198.0,-8447.0,28011.0,0.0
314.0,-608.0,2100.0,0.0
4159.0,-7741.0,27868.0,0.0
4483.0,-8006.0,30104.0,0.0
4469.0,-7647.0,30082.0,0.0
321.0,-523.0,2162.0,0.0
317.0,-494.0,2144.0,0.0
311.0,-463.0,2110.0,0.0
316.0,-446.0,2148.0,0.0
325.0,-435.0,2211.0,0.0
326.0,-413.0,2231.0,0.0
321.0,-382.0,2199.0,0.0
324.0,-362.0,2229.0,0.0
317.0,-331.0,2186.0,0.0
321.0,-311.0,2223.0,0.0
320.0,-286.0,2219.0,0.0
316.0,-259.0,2198.0,0.0
308.0,-229.0,2152.0,0.0
320.0,-213.0,2239.0,0.0
320.0,-189.0,2245.0,0.0
315.0,-162.0,2216.0,0.0
4541.0,-1995.0,32086.0,1.0
3255.0,-1181.0,23082.0,0.0
1.0,0.0,4.0,0.0
3.0,0.0,26.0,0.0
5.0,-1.0,34.0,0.0
3.0,0.0,25.0,0.0
5.0,0.0,37.0,0.0
4.0,0.0,24.0,0.0
3.0,0.0,22.0,0.0
6.0,1.0,46.0,0.0
5.0,1.0,35.0,0.0
4.0,1.0,30.0,0.0
6.0,2.0,43.0,0.0
6.0,3.0,46.0,0.0
7.0,3.0,47.0,0.0
6.0,5.0,51.0,0.0
9.0,7.0,64.0,0.0
9.0,8.0,70.0,0.0
8.0,8.0,60.0,0.0
10.0,11.0,78.0,0.0
10.0,12.0,78.0,0.0
11.0,12.0,80.0,0.0
9.0,12.0,72.0,0.0
11.0,16.0,86.0,0.0
12.0,19.0,94.0,0.0
12.0,19.0,95.0,0.0
12.0,21.0,93.0,0.0
13.0,23.0,98.0,0.0
12.0,24.0,97.0,0.0
12.0,24.0,96.0,0.0
11.0,24.0,92.0,0.0
13.0,31.0,109.0,0.0
13.0,30.0,103.0,0.0
12.0,32.0,106.0,0.0
11.0,31.0,99.0,0.0
12.0,34.0,103.0,0.0
12.0,35.0,100.0,0.0
11.0,34.0,95.0,0.0
11.0,36.0,99.0,0.0
12.0,36.0,97.0,0.0
9.0,34.0,88.0,0.0
10.0,37.0,93.0,0.0
10.0,37.0,87.0,0.0
9.0,35.0,83.0,0.0
9.0,36.0,83.0,0.0
8.0,34.0,75.0,0.0
9.0,39.0,82.0,0.0
8.0,39.0,81.0,0.0
8.0,40.0,80.0,0.0
8.0,42.0,82.0,0.0
9.0,46.0,88.0,0.0
9.0,44.0,83.0,0.0
8.0,46.0,83.0,0.0
8.0,47.0,82.0,0.0
8.0,47.0,81.0,0.0
9.0,50.0,85.0,0.0
8.0,51.0,83.0,0.0
8.0,52.0,82.0,0.0
7.0,54.0,85.0,0.0
7.0,52.0,79.0,0.0
6.0,52.0,77.0,0.0
8.0,61.0,88.0,0.0
8.0,61.0,87.0,0.0
8.0,65.0,89.0,0.0
7.0,66.0,90.0,0.0
7.0,64.0,86.0,0.0
8.0,72.0,94.0,0.0
8.0,80.0,101.0,0.0
7.0,77.0,95.0,0.0
7.0,77.0,93.0,0.0
7.0,81.0,96.0,0.0
7.0,84.0,98.0,0.0
6.0,84.0,95.0,0.0
7.0,92.0,102.0,0.0
6.0,92.0,100.0,0.0
6.0,95.0,100.0,0.0
5.0,94.0,98.0,0.0
5.0,97.0,99.0,0.0
5.0,104.0,104.0,0.0
6.0,108.0,106.0,0.0
6.0,111.0,106.0,0.0
6.0,-269.0,83.0,0.0
7.0,-266.0,85.0,0.0
8.0,-267.0,89.0,0.0
8.0,-270.0,93.0,0.0
8.0,-259.0,93.0,0.0
9.0,-263.0,97.0,0.0
10.0,-268.0,102.0,0.0
10.0,-262.0,103.0,0.0
11.0,-263.0,107.0,0.0
11.0,-264.0,110.0,0.0
12.0,-263.0,114.0,0.0
12.0,-266.0,118.0,0.0
13.0,-262.0,119.0,0.0
13.0,-262.0,123.0,0.0
14.0,-261.0,125.0,0.0
15.0,-260.0,129.0,0.0
15.0,-257.0,130.0,0.0
16.0,-257.0,134.0,0.0
17.0,-256.0,137.0,0.0
18.0,-274.0,150.0,0.0
18.0,-268.0,151.0,0.0
19.0,-272.0,158.0,0.0
20.0,-270.0,160.0,0.0
20.0,-252.0,153.0,0.0
19.0,-235.0,147.0,0.0
19.0,-234.0,149.0,0.0
19.0,-225.0,147.0,0.0
19.0,-217.0,145.0,0.0
18.0,-201.0,138.0,0.0
18.0,-193.0,135.0,0.0
18.0,-189.0,136.0,0.0
18.0,-177.0,130.0,0.0
16.0,-165.0,125.0,0.0
17.0,-160.0,123.0,0.0
18.0,-165.0,130.0,0.0
15.0,-139.0,112.0,0.0
15.0,-135.0,111.0,0.0
15.0,-130.0,110.0,0.0
14.0,-123.0,106.0,0.0
14.0,-115.0,102.0,0.0
15.0,-113.0,102.0,0.0
15.0,-111.0,102.0,0.0
13.0,-102.0,96.0,0.0
11.0,-85.0,82.0,0.0
12.0,-91.0,89.0,0.0
12.0,-86.0,87.0,0.0
8.0,-58.0,59.0,0.0
235.0,-1605.0,1679.0,0.0
245.0,-1635.0,1747.0,0.0
237.0,-1539.0,1682.0,0.0
244.0,-1553.0,1734.0,0.0
248.0,-1540.0,1759.0,0.0
246.0,-1492.0,1741.0,0.0
4055.0,-24048.0,28685.0,1.0
4093.0,-23717.0,28924.0,1.0
246.0,-1397.0,1742.0,0.0
255.0,-1411.0,1799.0,0.0
259.0,-1398.0,1823.0,0.0
259.0,-1370.0,1829.0,0.0
0.0,0.0,0.0,0.0
262.0,-1317.0,1841.0,0.0
265.0,-1304.0,1864.0,0.0
272.0,-1304.0,1909.0,0.0
269.0,-1264.0,1893.0,0.0
273.0,-1251.0,1920.0,0.0
272.0,-1217.0,1914.0,0.0
274.0,-1196.0,1927.0,0.0
4562.0,-19462.0,32118.0,1.0
0.0,0.0,0.0,0.0
4580.0,-18598.0,32264.0,1.0
275.0,-1089.0,1940.0,0.0
277.0,-1069.0,1952.0,0.0
0.0,0.0,0.0,0.0
283.0,-1040.0,2002.0,0.0
281.0,-1003.0,1986.0,0.0
284.0,-988.0,2008.0,0.0
283.0,-956.0,1998.0,0.0
287.0,-945.0,2032.0,0.0
294.0,-941.0,2082.0,0.0
289.0,-899.0,2050.0,0.0
287.0,-868.0,2039.0,0.0
290.0,-854.0,2068.0,0.0
0.0,0.0,0.0,0.0
0.0,0.0,0.0,0.0
0.0,0.0,0.0,0.0
4185.0,-10866.0,29987.0,0.0
291.0,-732.0,2092.0,0.0
4013.0,-9744.0,28851.0,0.0
300.0,-701.0,2155.0,0.0
3962.0,-8963.0,28594.0,0.0
3967.0,-8646.0,28683.0,0.0
295.0,-619.0,2141.0,0.0
3911.0,-7885.0,28397.0,0.0
4185.0,-8097.0,30454.0,0.0
4179.0,-7746.0,30478.0,0.0
4122.0,-7307.0,30133.0,0.0
297.0,-501.0,2174.0,0.0
300.0,-483.0,2201.0,0.0
0.0,0.0,0.0,0.0
291.0,-423.0,2148.0,0.0
298.0,-409.0,2206.0,0.0
300.0,-387.0,2226.0,0.0
4573.0,-5534.0,34048.0,1.0
4529.0,-5117.0,33822.0,1.0
292.0,-307.0,2191.0,0.0
295.0,-286.0,2219.0,0.0
285.0,-254.0,2155.0,0.0
282.0,-227.0,2135.0,0.0
293.0,-212.0,2224.0,0.0
290.0,-187.0,2211.0,0.0
293.0,-165.0,2237.0,0.0
291.0,-139.0,2227.0,0.0
3006.0,-1191.0,23128.0,0.0
2843.0,-889.0,21957.0,0.0
2768.0,-634.0,21459.0,0.0
3.0,0.0,25.0,0.0
4.0,0.0,27.0,0.0
4.0,0.0,33.0,0.0
3.0,0.0,19.0,0.0
5.0,1.0,46.0,0.0
5.0,0.0,42.0,0.0
8.0,2.0,62.0,0.0
6.0,2.0,47.0,0.0
8.0,4.0,66.0,0.0
8.0,5.0,64.0,0.0
7.0,4.0,61.0,0.0
9.0,7.0,74.0,0.0
9.0,8.0,73.0,0.0
8.0,8.0,69.0,0.0
10.0,10.0,80.0,0.0
10.0,11.0,84.0,0.0
10.0,12.0,80.0,0.0
10.0,14.0,87.0,0.0
9.0,13.0,74.0,0.0
10.0,16.0,90.0,0.0
10.0,16.0,85.0,0.0
11.0,20.0,93.0,0.0
12.0,22.0,98.0,0.0
10.0,19.0,82.0,0.0
11.0,22.0,89.0,0.0
12.0,28.0,107.0,0.0
10.0,26.0,98.0,0.0
11.0,29.0,106.0,0.0
12.0,31.0,107.0,0.0
10.0,30.0,99.0,0.0
11.0,34.0,105.0,0.0
12.0,36.0,110.0,0.0
13.0,40.0,117.0,0.0
10.0,36.0,100.0,0.0
11.0,37.0,101.0,0.0
10.0,36.0,95.0,0.0
10.0,37.0,97.0,0.0
10.0,39.0,98.0,0.0
9.0,37.0,87.0,0.0
8.0,38.0,88.0,0.0
9.0,40.0,93.0,0.0
9.0,41.0,92.0,0.0
8.0,41.0,88.0,0.0
8.0,40.0,84.0,0.0
8.0,43.0,86.0,0.0
8.0,43.0,85.0,0.0
8.0,48.0,92.0,0.0
8.0,48.0,90.0,0.0
7.0,43.0,78.0,0.0
7.0,47.0,83.0,0.0
8.0,49.0,85.0,0.0
7.0,48.0,81.0,0.0
7.0,51.0,84.0,0.0
7.0,58.0,93.0,0.0
7.0,55.0,86.0,0.0
6.0,55.0,85.0,0.0
7.0,59.0,88.0,0.0
6.0,62.0,91.0,0.0
7.0,66.0,94.0,0.0
6.0,63.0,87.0,0.0
7.0,73.0,99.0,0.0
6.0,70.0,93.0,0.0
6.0,74.0,96.0,0.0
6.0,75.0,95.0,0.0
6.0,75.0,93.0,0.0
6.0,85.0,104.0,0.0
5.0,79.0,94.0,0.0
5.0,83.0,96.0,0.0
6.0,90.0,103.0,0.0
6.0,94.0,105.0,0.0
5.0,97.0,105.0,0.0
5.0,93.0,99.0,0.0
5.0,100.0,104.0,0.0
4.0,106.0,109.0,0.0
4.0,110.0,110.0,0.0
5.0,114.0,111.0,0.0
5.0,117.0,112.0,0.0
4.0,-265.0,82.0,0.0
5.0,-258.0,83.0,0.0
5.0,-254.0,85.0,0.0
5.0,-258.0,89.0,0.0
6.0,-255.0,92.0,0.0
7.0,-256.0,95.0,0.0
7.0,-251.0,96.0,0.0
8.0,-259.0,102.0,0.0
9.0,-258.0,105.0,0.0
9.0,-255.0,107.0,0.0
9.0,-258.0,112.0,0.0
10.0,-259.0,115.0,0.0
10.0,-254.0,116.0,0.0
10.0,-251.0,118.0,0.0
12.0,-253.0,123.0,0.0
12.0,-253.0,126.0,0.0
12.0,-250.0,128.0,0.0
13.0,-255.0,134.0,0.0
13.0,-243.0,131.0,0.0
14.0,-248.0,137.0,0.0
15.0,-261.0,149.0,0.0
16.0,-261.0,152.0,0.0
17.0,-263.0,156.0,0.0
16.0,-242.0,148.0,0.0
15.0,-220.0,138.0,0.0
16.0,-230.0,148.0,0.0
16.0,-224.0,147.0,0.0
16.0,-215.0,145.0,0.0
15.0,-202.0,139.0,0.0
14.0,-178.0,125.0,0.0
15.0,-186.0,134.0,0.0
15.0,-174.0,128.0,0.0
15.0,-167.0,126.0,0.0
15.0,-164.0,127.0,0.0
14.0,-155.0,121.0,0.0
15.0,-152.0,122.0,0.0
14.0,-141.0,116.0,0.0
14.0,-138.0,117.0,0.0
13.0,-126.0,109.0,0.0
14.0,-127.0,112.0,0.0
12.0,-113.0,101.0,0.0
11.0,-92.0,84.0,0.0
11.0,-98.0,92.0,0.0
10.0,-90.0,87.0,0.0
11.0,-87.0,85.0,0.0
11.0,-87.0,87.0,0.0
8.0,-63.0,66.0,0.0
211.0,-1611.0,1687.0,0.0
212.0,-1573.0,1684.0,0.0
3489.0,-25251.0,27629.0,1.0
216.0,-1524.0,1705.0,0.0
0.0,0.0,0.0,0.0
3607.0,-24264.0,28356.0,1.0
226.0,-1484.0,1774.0,0.0
3697.0,-23701.0,28952.0,1.0
231.0,-1445.0,1806.0,0.0
227.0,-1385.0,1769.0,0.0
231.0,-1378.0,1801.0,0.0
234.0,-1359.0,1816.0,0.0
237.0,-1346.0,1840.0,0.0
3976.0,-22069.0,30875.0,1.0
241.0,-1304.0,1867.0,0.0
241.0,-1274.0,1868.0,0.0
4040.0,-20857.0,31295.0,1.0
0.0,0.0,0.0,0.0
244.0,-1199.0,1887.0,0.0
4088.0,-19612.0,31623.0,1.0
249.0,-1162.0,1922.0,0.0
0.0,0.0,0.0,0.0
250.0,-1109.0,1929.0,0.0
255.0,-1106.0,1971.0,0.0
4177.0,-17666.0,32298.0,1.0
