//X,Y,Z,Classification
629,-545,1584,0.0
0,0,0,0.0
0,0,0,0.0
0,0,0,0.0
0,0,0,0.0
0,0,0,0.0
0,0,0,0.0
0,0,0,0.0
0,0,0,0.0
0,0,0,0.0
0,0,0,0.0
0,0,0,0.0
0,0,0,0.0
0,0,0,0.0
0,0,0,0.0
0,0,0,0.0
0,0,0,0.0
0,0,0,0.0
0,0,0,0.0
0,0,0,0.0
8072,-2131,21387,0.0
7834,-1829,20806,0.0
7668,-1555,20411,0.0
7683,-1323,20497,0.0
7673,-1085,20516,0.0
7687,-850,20598,0.0
7688,-612,20647,0.0
7699,-374,20724,0.0
7694,-133,20756,0.0
7689,106,20786,0.0
7699,349,20857,0.0
7705,592,20918,0.0
7703,836,20955,0.0
7705,1081,21004,0.0
7717,1330,21080,0.0
7723,1580,21140,0.0
7717,1827,21164,0.0
7734,2082,21254,0.0
7727,2333,21276,0.0
7741,2591,21355,0.0
7740,2846,21394,0.0
7754,3109,21476,0.0
7760,3370,21532,0.0
5,2,19,0.0
5,3,18,0.0
10,5,30,0.0
8,5,26,0.0
10,5,29,0.0
12,8,37,0.0
11,7,33,0.0
14,9,39,0.0
14,11,42,0.0
22,17,64,0.0
21,17,62,0.0
24,20,68,0.0
25,23,75,0.0
25,23,73,0.0
22,22,66,0.0
25,26,76,0.0
23,24,68,0.0
30,32,87,0.0
28,31,83,0.0
30,34,86,0.0
27,33,80,0.0
28,36,85,0.0
29,38,86,0.0
30,40,89,0.0
33,45,97,0.0
27,38,80,0.0
34,50,101,0.0
30,46,90,0.0
33,51,98,0.0
32,50,94,0.0
31,52,92,0.0
30,51,91,0.0
32,55,95,0.0
30,53,90,0.0
32,60,98,0.0
31,58,93,0.0
29,57,90,0.0
28,56,86,0.0
30,61,91,0.0
31,65,94,0.0
31,67,94,0.0
27,61,84,0.0
30,67,91,0.0
29,69,89,0.0
27,66,85,0.0
29,70,88,0.0
29,73,90,0.0
29,73,88,0.0
32,84,98,0.0
30,81,93,0.0
31,86,96,0.0
32,90,99,0.0
31,90,97,0.0
31,93,97,0.0
33,100,104,0.0
34,106,107,0.0
34,107,106,0.0
33,105,102,0.0
32,107,101,0.0
34,114,105,0.0
34,119,108,0.0
34,122,108,0.0
56,-273,73,0.0
54,-261,73,0.0
56,-264,77,0.0
57,-260,79,0.0
59,-268,85,0.0
59,-265,87,0.0
62,-272,92,0.0
62,-271,95,0.0
62,-262,95,0.0
63,-263,99,0.0
65,-268,104,0.0
68,-275,110,0.0
68,-273,113,0.0
68,-269,114,0.0
69,-268,117,0.0
71,-270,121,0.0
71,-267,124,0.0
71,-263,126,0.0
73,-263,129,0.0
74,-262,132,0.0
75,-260,135,0.0
73,-254,136,0.0
76,-259,142,0.0
77,-259,145,0.0
83,-272,157,0.0
80,-258,152,0.0
84,-268,163,0.0
84,-261,162,0.0
78,-240,153,0.0
75,-228,149,0.0
70,-210,140,0.0
66,-195,134,0.0
63,-183,128,0.0
60,-174,125,0.0
57,-161,119,0.0
58,-160,121,0.0
7835,-21090,16245,0.0
7816,-20702,16318,0.0
7810,-20353,16416,0.0
7787,-19966,16478,0.0
7785,-19636,16580,0.0
7763,-19262,16639,0.0
7752,-18920,16719,0.0
7732,-18563,16779,0.0
7720,-18227,16852,0.0
7705,-17886,16916,0.0
7686,-17542,16970,0.0
7676,-17224,17044,0.0
7665,-16905,17111,0.0
7809,-16927,17527,0.0
8044,-17134,18149,0.0
8115,-16983,18402,0.0
3890,-7998,8866,0.0
3957,-7992,9064,0.0
4025,-7983,9264,0.0
3961,-7713,9160,0.0
3962,-7575,9207,0.0
4487,-8418,10474,0.0
4489,-8264,10526,0.0
4391,-7930,10342,0.0
4455,-7891,10538,0.0
4470,-7764,10620,0.0
4446,-7571,10607,0.0
4298,-7173,10298,0.0
4214,-6889,10136,0.0
4214,-6748,10177,0.0
0,0,0,0.0
0,0,0,0.0
0,0,0,0.0
0,0,0,0.0
0,0,0,0.0
0,0,0,0.0
0,0,0,0.0
0,0,0,0.0
0,0,0,0.0
774,-986,1941,0.0
0,0,0,0.0
0,0,0,0.0
0,0,0,0.0
0,0,0,0.0
0,0,0,0.0
0,0,0,0.0
0,0,0,0.0
0,0,0,0.0
0,0,0,0.0
0,0,0,0.0
751,-696,1951,0.0
0,0,0,0.0
0,0,0,0.0
756,-630,1980,0.0
0,0,0,0.0
0,0,0,0.0
0,0,0,0.0
14399,-10216,38083,0.0
728,-493,1932,0.0
0,0,0,0.0
0,0,0,0.0
0,0,0,0.0
0,0,0,0.0
0,0,0,0.0
0,0,0,0.0
0,0,0,0.0
0,0,0,0.0
0,0,0,0.0
0,0,0,0.0
0,0,0,0.0
8627,-2636,23578,0.0
7821,-2145,21425,0.0
7574,-1838,20797,0.0
7420,-1567,20424,0.0
7421,-1333,20472,0.0
7423,-1098,20523,0.0
7421,-862,20565,0.0
7420,-625,20607,0.0
7429,-388,20679,0.0
7436,-150,20743,0.0
7437,89,20793,0.0
7437,330,20836,0.0
7445,573,20906,0.0
7447,816,20954,0.0
7455,1061,21020,0.0
7459,1308,21076,0.0
7451,1553,21096,0.0
7450,1801,21135,0.0
7470,2056,21238,0.0
7475,2309,21292,0.0
7485,2566,21366,0.0
7479,2818,21392,0.0
7473,3072,21417,0.0
7494,3339,21520,0.0
1,0,5,0.0
4,2,13,0.0
4,2,14,0.0
9,5,30,0.0
13,8,41,0.0
8,5,26,0.0
13,10,41,0.0
16,12,50,0.0
12,10,38,0.0
20,16,60,0.0
24,21,74,0.0
23,20,69,0.0
26,24,79,0.0
28,28,86,0.0
23,23,69,0.0
27,28,81,0.0
30,33,91,0.0
26,29,78,0.0
33,38,102,0.0
33,39,99,0.0
29,36,89,0.0
32,41,96,0.0
30,40,91,0.0
32,43,98,0.0
30,43,92,0.0
33,49,103,0.0
33,51,103,0.0
31,49,96,0.0
33,54,104,0.0
31,52,97,0.0
32,55,100,0.0
31,55,97,0.0
32,59,101,0.0
33,61,104,0.0
32,61,100,0.0
32,64,102,0.0
34,69,108,0.0
33,69,104,0.0
30,63,93,0.0
30,65,95,0.0
28,63,89,0.0
27,62,86,0.0
29,67,91,0.0
30,71,94,0.0
28,70,90,0.0
29,73,93,0.0
28,74,91,0.0
28,75,90,0.0
29,81,95,0.0
31,86,99,0.0
30,85,97,0.0
32,95,105,0.0
31,95,102,0.0
31,94,100,0.0
33,103,106,0.0
33,106,107,0.0
32,106,105,0.0
33,112,110,0.0
31,108,102,0.0
32,115,107,0.0
32,119,108,0.0
34,127,113,0.0
36,-256,73,0.0
37,-255,76,0.0
38,-258,79,0.0
39,-257,82,0.0
40,-260,87,0.0
41,-260,90,0.0
42,-265,94,0.0
43,-265,97,0.0
43,-258,98,0.0
44,-262,103,0.0
45,-262,106,0.0
46,-259,109,0.0
47,-261,113,0.0
47,-257,114,0.0
49,-264,120,0.0
50,-264,124,0.0
49,-251,121,0.0
50,-255,127,0.0
51,-252,129,0.0
51,-251,132,0.0
50,-240,130,0.0
52,-247,137,0.0
56,-261,148,0.0
57,-258,150,0.0
55,-244,146,0.0
56,-247,151,0.0
56,-241,151,0.0
56,-236,151,0.0
53,-219,144,0.0
49,-198,133,0.0
49,-195,135,0.0
47,-185,131,0.0
44,-170,123,0.0
42,-160,119,0.0
36,-137,103,0.0
37,-138,107,0.0
5802,-20670,16377,0.0
5800,-20307,16458,0.0
5791,-19927,16518,0.0
5797,-19601,16616,0.0
5782,-19211,16655,0.0
5782,-18875,16734,0.0
5775,-18525,16793,0.0
5780,-18217,16886,0.0
5768,-17857,16926,0.0
5772,-17553,17011,0.0
5766,-17227,17071,0.0
5769,-16926,17151,0.0
5872,-16920,17530,0.0
6040,-17090,18106,0.0
6108,-16970,18386,0.0
6263,-17080,18923,0.0
6427,-17207,19497,0.0
6568,-17258,20003,0.0
10733,-27676,32811,1.0
10815,-27363,33185,1.0
10892,-27035,33545,1.0
11020,-26827,34060,1.0
0,0,0,0.0
0,0,0,0.0
0,0,0,0.0
0,0,0,0.0
0,0,0,0.0
0,0,0,0.0
0,0,0,0.0
0,0,0,0.0
55,-111,177,0.0
598,-1184,1912,0.0
0,0,0,0.0
0,0,0,0.0
415,-771,1344,0.0
0,0,0,0.0
0,0,0,0.0
0,0,0,0.0
0,0,0,0.0
0,0,0,0.0
0,0,0,0.0
0,0,0,0.0
0,0,0,0.0
0,0,0,0.0
0,0,0,0.0
621,-869,2073,0.0
0,0,0,0.0
0,0,0,0.0
0,0,0,0.0
0,0,0,0.0
588,-703,1985,0.0
582,-674,1975,0.0
686,-766,2332,0.0
0,0,0,0.0
549,-569,1877,0.0
0,0,0,0.0
0,0,0,0.0
0,0,0,0.0
0,0,0,0.0
0,0,0,0.0
0,0,0,0.0
0,0,0,0.0
0,0,0,0.0
0,0,0,0.0
490,-316,1716,0.0
494,-299,1738,0.0
0,0,0,0.0
0,0,0,0.0
0,0,0,0.0
0,0,0,0.0
0,0,0,0.0
6282,-2304,22386,0.0
5958,-1947,21284,0.0
5631,-1615,20167,0.0
5701,-1406,20467,0.0
5705,-1177,20533,0.0
5697,-945,20555,0.0
5704,-716,20632,0.0
5707,-483,20693,0.0
5710,-250,20756,0.0
5705,-16,20789,0.0
5707,218,20847,0.0
5702,455,20878,0.0
5710,693,20960,0.0
5710,933,21015,0.0
5718,1174,21094,0.0
5716,1416,21139,0.0
5709,1658,21169,0.0
5712,1904,21232,0.0
5709,2149,21274,0.0
5721,2403,21375,0.0
5705,2645,21365,0.0
5713,2900,21449,0.0
5,2,21,0.0
3,1,14,0.0
4,2,16,0.0
4,2,19,0.0
2,1,10,0.0
3,2,14,0.0
5,5,22,0.0
10,9,41,0.0
9,8,38,0.0
11,11,46,0.0
12,13,51,0.0
16,18,66,0.0
15,17,61,0.0
17,20,69,0.0
16,20,65,0.0
16,21,66,0.0
16,22,68,0.0
19,26,78,0.0
16,24,68,0.0
19,29,78,0.0
19,29,78,0.0
20,34,85,0.0
17,30,74,0.0
19,34,80,0.0
17,32,74,0.0
20,37,84,0.0
19,38,81,0.0
20,40,85,0.0
20,43,87,0.0
20,43,85,0.0
23,50,96,0.0
25,56,105,0.0
22,50,94,0.0
23,55,99,0.0
23,57,99,0.0
19,50,86,0.0
22,57,95,0.0
18,52,83,0.0
21,58,91,0.0
19,56,86,0.0
19,58,88,0.0
18,56,82,0.0
18,59,85,0.0
17,57,81,0.0
16,55,74,0.0
18,62,83,0.0
17,62,82,0.0
16,60,76,0.0
17,64,80,0.0
16,63,78,0.0
17,68,82,0.0
17,71,83,0.0
20,79,90,0.0
18,76,84,0.0
22,93,101,0.0
20,86,91,0.0
19,87,91,0.0
20,91,93,0.0
23,108,107,0.0
20,100,98,0.0
21,104,100,0.0
21,106,100,0.0
21,110,101,0.0
34,-270,78,0.0
35,-267,80,0.0
36,-275,85,0.0
35,-259,84,0.0
37,-268,90,0.0
38,-270,94,0.0
39,-271,97,0.0
40,-268,100,0.0
41,-273,105,0.0
42,-272,108,0.0
43,-272,111,0.0
44,-276,117,0.0
44,-273,119,0.0
45,-270,121,0.0
45,-265,122,0.0
46,-267,127,0.0
47,-266,130,0.0
47,-262,131,0.0
46,-256,131,0.0
47,-248,131,0.0
45,-234,127,0.0
50,-260,145,0.0
53,-268,153,0.0
52,-262,153,0.0
55,-268,160,0.0
53,-256,157,0.0
53,-250,158,0.0
50,-234,151,0.0
51,-229,151,0.0
47,-207,140,0.0
47,-205,142,0.0
44,-187,133,0.0
40,-169,124,0.0
42,-175,129,0.0
39,-159,121,0.0
35,-136,106,0.0
34,-132,105,0.0
5240,-20201,16483,0.0
5239,-19836,16553,0.0
5242,-19491,16632,0.0
5247,-19163,16721,0.0
5243,-18806,16779,0.0
5235,-18441,16823,0.0
5242,-18134,16914,0.0
5238,-17797,16972,0.0
5236,-17466,17030,0.0
5245,-17178,17124,0.0
5255,-16897,17222,0.0
5355,-16905,17616,0.0
5507,-17066,18184,0.0
5589,-16998,18519,0.0
5729,-17103,19053,0.0
5875,-17207,19604,0.0
6013,-17280,20135,0.0
9790,-27601,32894,1.0
9875,-27308,33291,1.0
9976,-27057,33743,1.0
10055,-26741,34121,1.0
1079,-2813,3673,0.0
0,0,0,0.0
0,0,0,0.0
0,0,0,0.0
0,0,0,0.0
0,0,0,0.0
0,0,0,0.0
0,0,0,0.0
0,0,0,0.0
0,0,0,0.0
0,0,0,0.0
0,0,0,0.0
0,0,0,0.0
0,0,0,0.0
0,0,0,0.0
10632,-19984,37848,1.0
0,0,0,0.0
10633,-19016,38060,1.0
372,-648,1335,0.0
0,0,0,0.0
0,0,0,0.0
0,0,0,0.0
547,-856,1987,0.0
0,0,0,0.0
0,0,0,0.0
0,0,0,0.0
0,0,0,0.0
0,0,0,0.0
0,0,0,0.0
0,0,0,0.0
0,0,0,0.0
0,0,0,0.0
10634,-12020,39601,1.0
0,0,0,0.0
0,0,0,0.0
0,0,0,0.0
0,0,0,0.0
0,0,0,0.0
0,0,0,0.0
545,-453,2064,0.0
0,0,0,0.0
0,0,0,0.0
10415,-7324,39779,1.0
0,0,0,0.0
507,-312,1943,0.0
0,0,0,0.0
0,0,0,0.0
544,-266,2104,0.0
0,0,0,0.0
5734,-2310,22291,0.0
5502,-1978,21444,0.0
5191,-1641,20283,0.0
5228,-1425,20480,0.0
5236,-1199,20565,0.0
5223,-967,20563,0.0
5229,-738,20642,0.0
5233,-508,20713,0.0
5228,-275,20746,0.0
5219,-42,20762,0.0
5225,190,20836,0.0
5223,426,20887,0.0
5232,663,20980,0.0
5236,902,21046,0.0
5225,1139,21059,0.0
5233,1382,21146,0.0
5227,1622,21182,0.0
5227,1867,21239,0.0
5225,2111,21289,0.0
5230,2361,21369,0.0
5224,2607,21402,0.0
0,0,3,0.0
5227,3113,21532,0.0
1,0,6,0.0
5,3,20,0.0
7,4,28,0.0
5,3,20,0.0
11,9,47,0.0
9,8,37,0.0
9,8,37,0.0
9,8,38,0.0
14,14,58,0.0
13,13,53,0.0
14,15,57,0.0
16,19,68,0.0
20,23,81,0.0
17,21,69,0.0
20,27,87,0.0
19,25,77,0.0
19,26,78,0.0
20,30,87,0.0
21,33,91,0.0
22,37,96,0.0
20,34,88,0.0
22,39,98,0.0
20,38,90,0.0
22,43,99,0.0
22,45,101,0.0
22,46,100,0.0
21,46,97,0.0
22,48,99,0.0
22,50,101,0.0
21,49,96,0.0
20,49,94,0.0
21,52,96,0.0
22,57,104,0.0
24,62,109,0.0
21,57,99,0.0
22,61,101,0.0
21,61,98,0.0
20,61,96,0.0
21,65,99,0.0
20,62,94,0.0
19,63,93,0.0
21,70,101,0.0
22,74,104,0.0
19,66,92,0.0
18,67,89,0.0
18,68,89,0.0
18,68,87,0.0
19,73,92,0.0
18,73,89,0.0
19,78,93,0.0
17,75,88,0.0
17,75,86,0.0
17,78,88,0.0
19,86,95,0.0
19,91,97,0.0
18,90,95,0.0
19,94,97,0.0
18,95,96,0.0
20,104,103,0.0
19,103,100,0.0
19,107,101,0.0
19,110,101,0.0
26,-264,78,0.0
27,-267,81,0.0
28,-273,87,0.0
28,-264,87,0.0
29,-267,91,0.0
30,-268,95,0.0
31,-277,101,0.0
32,-278,105,0.0
33,-273,107,0.0
33,-273,110,0.0
34,-269,112,0.0
35,-273,117,0.0
36,-271,120,0.0
36,-268,122,0.0
36,-263,123,0.0
38,-269,129,0.0
39,-265,131,0.0
39,-260,133,0.0
39,-259,135,0.0
37,-245,131,0.0
41,-260,143,0.0
44,-273,155,0.0
46,-278,161,0.0
46,-272,161,0.0
44,-252,153,0.0
43,-243,151,0.0
42,-237,152,0.0
43,-237,155,0.0
39,-212,142,0.0
41,-214,146,0.0
39,-203,143,0.0
37,-186,134,0.0
35,-176,129,0.0
32,-157,118,0.0
28,-137,105,0.0
28,-131,104,0.0
25,-117,95,0.0
4414,-20060,16523,0.0
4424,-19728,16616,0.0
4426,-19367,16678,0.0
4434,-19040,16764,0.0
4436,-18688,16822,0.0
4438,-18344,16882,0.0
4440,-18005,16939,0.0
4432,-17635,16960,0.0
4453,-17386,17093,0.0
4451,-17045,17131,0.0
4514,-16961,17427,0.0
4599,-16947,17802,0.0
4695,-16974,18228,0.0
4801,-17024,18692,0.0
4926,-17130,19230,0.0
5050,-17223,19769,0.0
5175,-17307,20315,0.0
8395,-27523,33040,1.0
8475,-27240,33447,1.0
395,-1245,1563,0.0
8645,-26693,34296,1.0
0,0,0,0.0
0,0,0,0.0
0,0,0,0.0
0,0,0,0.0
0,0,0,0.0
0,0,0,0.0
0,0,0,0.0
0,0,0,0.0
0,0,0,0.0
0,0,0,0.0
0,0,0,0.0
0,0,0,0.0
0,0,0,0.0
0,0,0,0.0
0,0,0,0.0
0,0,0,0.0
0,0,0,0.0
9161,-18903,38017,1.0
0,0,0,0.0
0,0,0,0.0
0,0,0,0.0
463,-859,1942,0.0
0,0,0,0.0
0,0,0,0.0
0,0,0,0.0
0,0,0,0.0
0,0,0,0.0
0,0,0,0.0
0,0,0,0.0
9171,-13315,39182,1.0
9181,-12873,39318,1.0
460,-622,1977,0.0
9211,-12005,39640,1.0
0,0,0,0.0
555,-668,2400,0.0
0,0,0,0.0
512,-566,2226,0.0
0,0,0,0.0
0,0,0,0.0
0,0,0,0.0
0,0,0,0.0
0,0,0,0.0
0,0,0,0.0
0,0,0,0.0
0,0,0,0.0
455,-303,2019,0.0
0,0,0,0.0
0,0,0,0.0
0,0,0,0.0
5025,-2361,22579,0.0
4763,-2002,21457,0.0
4462,-1653,20155,0.0
4530,-1453,20518,0.0
4515,-1222,20504,0.0
4518,-996,20572,0.0
4519,-769,20638,0.0
4522,-540,20709,0.0
4525,-310,20778,0.0
4521,-79,20819,0.0
4513,152,20843,0.0
4511,386,20891,0.0
4507,620,20939,0.0
4518,858,21049,0.0
4511,1094,21074,0.0
4508,1332,21125,0.0
4506,1572,21180,0.0
4502,1814,21228,0.0
4501,2057,21284,0.0
4498,2302,21339,0.0
4498,2551,21409,0.0
11,7,54,0.0
37,24,175,0.0
40,28,190,0.0
25,19,120,0.0
6,4,29,0.0
8,6,36,0.0
8,7,38,0.0
10,10,49,0.0
9,9,44,0.0
9,10,45,0.0
11,12,53,0.0
13,16,67,0.0
10,14,52,0.0
16,21,77,0.0
13,19,66,0.0
17,26,88,0.0
14,22,70,0.0
18,29,91,0.0
16,27,82,0.0
18,32,93,0.0
19,35,97,0.0
17,31,83,0.0
18,36,94,0.0
18,37,93,0.0
17,38,91,0.0
16,37,88,0.0
18,42,95,0.0
16,39,86,0.0
18,44,95,0.0
21,55,115,0.0
18,49,97,0.0
20,53,105,0.0
19,53,101,0.0
17,50,94,0.0
19,57,102,0.0
19,60,108,0.0
19,61,105,0.0
18,58,99,0.0
18,62,104,0.0
16,56,90,0.0
17,60,94,0.0
17,61,94,0.0
17,67,99,0.0
15,60,88,0.0
17,67,96,0.0
15,63,88,0.0
16,67,92,0.0
14,64,86,0.0
15,69,89,0.0
15,72,92,0.0
15,73,91,0.0
15,77,93,0.0
16,81,96,0.0
15,79,91,0.0
15,85,97,0.0
15,85,95,0.0
15,86,94,0.0
14,90,96,0.0
14,91,95,0.0
14,91,92,0.0
14,97,97,0.0
15,104,101,0.0
15,108,103,0.0
14,106,100,0.0
18,-256,78,0.0
18,-257,81,0.0
20,-268,87,0.0
20,-265,89,0.0
21,-263,91,0.0
22,-266,96,0.0
23,-266,99,0.0
24,-265,102,0.0
24,-268,106,0.0
25,-271,111,0.0
26,-267,113,0.0
26,-265,115,0.0
26,-260,117,0.0
26,-256,118,0.0
28,-254,120,0.0
28,-254,124,0.0
30,-260,130,0.0
30,-254,131,0.0
30,-252,133,0.0
31,-253,137,0.0
33,-266,148,0.0
35,-270,155,0.0
35,-268,156,0.0
34,-259,155,0.0
32,-238,146,0.0
34,-240,151,0.0
32,-228,147,0.0
31,-215,142,0.0
30,-201,136,0.0
27,-179,124,0.0
29,-185,131,0.0
24,-152,110,0.0
24,-147,109,0.0
21,-126,96,0.0
20,-118,92,0.0
20,-115,91,0.0
20,-113,92,0.0
19,-106,87,0.0
3615,-19611,16654,0.0
3622,-19253,16715,0.0
3631,-18908,16783,0.0
3636,-18555,16835,0.0
3646,-18232,16910,0.0
3659,-17928,16997,0.0
3666,-17601,17057,0.0
3669,-17263,17099,0.0
3678,-16960,17171,0.0
3751,-16947,17539,0.0
3853,-17056,18044,0.0
3907,-16948,18329,0.0
4005,-17022,18819,0.0
4115,-17141,19374,0.0
4231,-17266,19954,0.0
6921,-27669,32694,1.0
7002,-27419,33132,1.0
7097,-27225,33643,1.0
7163,-26912,34014,1.0
0,0,0,0.0
0,0,0,0.0
0,0,0,0.0
0,0,0,0.0
0,0,0,0.0
0,0,0,0.0
0,0,0,0.0
0,0,0,0.0
433,-1340,2090,0.0
0,0,0,0.0
0,0,0,0.0
0,0,0,0.0
0,0,0,0.0
0,0,0,0.0
0,0,0,0.0
0,0,0,0.0
0,0,0,0.0
0,0,0,0.0
0,0,0,0.0
0,0,0,0.0
7755,-17923,38311,1.0
0,0,0,0.0
0,0,0,0.0
0,0,0,0.0
0,0,0,0.0
0,0,0,0.0
0,0,0,0.0
0,0,0,0.0
0,0,0,0.0
0,0,0,0.0
0,0,0,0.0
0,0,0,0.0
0,0,0,0.0
7778,-11950,39535,1.0
0,0,0,0.0
0,0,0,0.0
417,-566,2130,0.0
7769,-10145,39865,1.0
0,0,0,0.0
347,-413,1789,0.0
0,0,0,0.0
376,-404,1945,0.0
408,-416,2120,0.0
7769,-7475,40468,1.0
7785,-7045,40658,1.0
7788,-6602,40785,1.0
0,0,0,0.0
461,-337,2424,0.0
0,0,0,0.0
0,0,0,0.0
4318,-2417,22923,0.0
4028,-2021,21444,0.0
3821,-1694,20396,0.0
3830,-1475,20509,0.0
3832,-1251,20578,0.0
3835,-1026,20655,0.0
3828,-798,20682,0.0
3817,-569,20687,0.0
3818,-341,20755,0.0
3817,-112,20812,0.0
3808,118,20835,0.0
3809,349,20904,0.0
3800,582,20923,0.0
3804,816,21016,0.0
3801,1052,21072,0.0
3796,1288,21114,0.0
3799,1529,21209,0.0
3792,1768,21241,0.0
3794,2013,21329,0.0
3785,2253,21355,0.0
3785,2501,21434,0.0
3772,2742,21440,0.0
3777,2998,21551,0.0
0,0,2,0.0
5,3,23,0.0
2,2,13,0.0
9,9,50,0.0
5,4,28,0.0
8,9,46,0.0
6,7,35,0.0
8,10,45,0.0
7,8,36,0.0
7,10,40,0.0
10,15,58,0.0
10,16,59,0.0
11,19,68,0.0
10,17,58,0.0
12,21,70,0.0
13,25,79,0.0
14,28,84,0.0
13,27,79,0.0
12,27,77,0.0
12,28,76,0.0
14,35,90,0.0
15,38,95,0.0
14,36,89,0.0
15,40,94,0.0
15,40,93,0.0
13,39,88,0.0
16,45,98,0.0
15,47,97,0.0
15,48,99,0.0
15,49,97,0.0
14,51,99,0.0
16,58,109,0.0
15,53,96,0.0
14,56,100,0.0
16,64,113,0.0
14,59,101,0.0
14,60,100,0.0
14,62,101,0.0
14,63,100,0.0
14,65,100,0.0
13,60,91,0.0
13,64,94,0.0
13,64,92,0.0
12,67,94,0.0
12,69,95,0.0
13,69,92,0.0
12,70,90,0.0
12,71,91,0.0
12,74,93,0.0
11,71,87,0.0
11,75,89,0.0
11,76,89,0.0
11,76,86,0.0
10,76,85,0.0
11,79,87,0.0
10,84,91,0.0
10,88,92,0.0
10,88,90,0.0
10,98,98,0.0
11,97,95,0.0
10,98,94,0.0
10,104,99,0.0
16,-267,81,0.0
18,-272,86,0.0
18,-278,91,0.0
19,-275,93,0.0
20,-277,97,0.0
20,-271,98,0.0
20,-276,103,0.0
22,-273,106,0.0
22,-269,108,0.0
23,-274,113,0.0
24,-273,116,0.0
25,-280,123,0.0
25,-277,124,0.0
25,-263,122,0.0
26,-273,130,0.0
26,-268,131,0.0
27,-265,133,0.0
28,-264,137,0.0
27,-254,135,0.0
30,-268,146,0.0
30,-267,149,0.0
32,-273,156,0.0
33,-280,164,0.0
32,-264,159,0.0
32,-253,156,0.0
31,-239,151,0.0
31,-234,151,0.0
31,-230,152,0.0
28,-201,136,0.0
27,-193,134,0.0
26,-181,128,0.0
25,-172,125,0.0
27,-174,130,0.0
20,-130,99,0.0
19,-122,94,0.0
20,-125,100,0.0
19,-115,94,0.0
18,-107,89,0.0
3344,-19558,16652,0.0
3356,-19213,16723,0.0
3367,-18879,16799,0.0
3382,-18567,16888,0.0
3389,-18224,16944,0.0
3395,-17876,16988,0.0
3404,-17554,17052,0.0
3415,-17249,17125,0.0
3421,-16924,17175,0.0
3499,-16954,17586,0.0
3616,-17160,18194,0.0
3649,-16958,18379,0.0
3742,-17038,18877,0.0
3851,-17171,19449,0.0
3947,-17236,19958,0.0
6474,-27687,32783,1.0
6549,-27424,33204,1.0
6618,-27135,33598,1.0
6701,-26900,34066,1.0
0,0,0,0.0
6794,-26133,34632,1.0
0,0,0,0.0
0,0,0,0.0
0,0,0,0.0
0,0,0,0.0
0,0,0,0.0
0,0,0,0.0
0,0,0,0.0
0,0,0,0.0
0,0,0,0.0
7202,-22169,37290,1.0
0,0,0,0.0
0,0,0,0.0
0,0,0,0.0
0,0,0,0.0
0,0,0,0.0
0,0,0,0.0
0,0,0,0.0
0,0,0,0.0
0,0,0,0.0
0,0,0,0.0
0,0,0,0.0
0,0,0,0.0
362,-795,1920,0.0
0,0,0,0.0
0,0,0,0.0
0,0,0,0.0
0,0,0,0.0
0,0,0,0.0
0,0,0,0.0
0,0,0,0.0
7318,-12404,39478,1.0
0,0,0,0.0
0,0,0,0.0
0,0,0,0.0
0,0,0,0.0
0,0,0,0.0
0,0,0,0.0
0,0,0,0.0
0,0,0,0.0
0,0,0,0.0
0,0,0,0.0
0,0,0,0.0
7308,-7038,40594,1.0
0,0,0,0.0
0,0,0,0.0
0,0,0,0.0
0,0,0,0.0
364,-240,2052,0.0
4105,-2450,23184,0.0
3801,-2036,21531,0.0
3613,-1711,20524,0.0
3605,-1485,20541,0.0
3596,-1257,20556,0.0
3598,-1033,20624,0.0
3595,-806,20670,0.0
3592,-579,20722,0.0
3592,-352,20789,0.0
3583,-122,20803,0.0
3584,108,20876,0.0
3580,339,20924,0.0
3577,572,20982,0.0
3576,805,21046,0.0
3570,1040,21084,0.0
3565,1276,21136,0.0
3563,1515,21200,0.0
3565,1757,21289,0.0
3559,1998,21335,0.0
3552,2240,21375,0.0
3549,2486,21444,0.0
3540,2730,21475,0.0
3536,2979,21537,0.0
3524,3223,21553,0.0
9,7,52,0.0
4,3,25,0.0
5,6,35,0.0
13,16,83,0.0
15,18,95,0.0
11,14,64,0.0
10,13,62,0.0
7,10,42,0.0
14,21,87,0.0
10,18,68,0.0
12,21,79,0.0
11,20,73,0.0
15,29,97,0.0
15,30,97,0.0
12,26,80,0.0
15,33,99,0.0
15,34,98,0.0
15,34,96,0.0
15,37,101,0.0
17,44,115,0.0
17,43,109,0.0
15,42,103,0.0
15,44,105,0.0
14,43,99,0.0
15,47,104,0.0
16,49,108,0.0
17,55,116,0.0
16,54,112,0.0
17,59,117,0.0
15,55,106,0.0
14,54,102,0.0
15,61,112,0.0
15,62,111,0.0
14,62,109,0.0
16,68,115,0.0
15,68,112,0.0
14,65,107,0.0
15,70,112,0.0
15,73,113,0.0
13,69,105,0.0
13,73,107,0.0
13,73,106,0.0
14,78,111,0.0
13,73,101,0.0
13,81,109,0.0
12,78,103,0.0
12,78,99,0.0
12,79,99,0.0
11,79,97,0.0
11,83,100,0.0
10,84,99,0.0
11,84,96,0.0
10,85,95,0.0
11,93,102,0.0
10,92,99,0.0
10,92,98,0.0
10,102,106,0.0
10,107,107,0.0
10,110,109,0.0
10,113,110,0.0
10,112,106,0.0
9,-263,81,0.0
9,-262,83,0.0
10,-261,86,0.0
10,-263,90,0.0
10,-262,92,0.0
12,-265,98,0.0
13,-265,101,0.0
13,-259,101,0.0
13,-255,103,0.0
14,-265,110,0.0
15,-261,112,0.0
16,-262,115,0.0
16,-257,116,0.0
16,-254,119,0.0
17,-260,125,0.0
18,-264,131,0.0
18,-255,129,0.0
19,-254,133,0.0
20,-260,139,0.0
21,-271,149,0.0
22,-279,157,0.0
22,-269,155,0.0
23,-279,165,0.0
22,-254,154,0.0
23,-249,154,0.0
22,-234,149,0.0
21,-222,145,0.0
21,-210,140,0.0
20,-193,132,0.0
19,-180,126,0.0
20,-186,133,0.0
19,-169,124,0.0
17,-147,111,0.0
15,-135,104,0.0
15,-128,100,0.0
14,-113,90,0.0
14,-108,88,0.0
12,-94,79,0.0
13,-99,85,0.0
2564,-19112,16752,0.0
2582,-18799,16842,0.0
2593,-18439,16883,0.0
2611,-18139,16976,0.0
2623,-17804,17030,0.0
2636,-17483,17092,0.0
2652,-17191,17176,0.0
2667,-16903,17260,0.0
2731,-16910,17648,0.0
2822,-17078,18218,0.0
2865,-16957,18489,0.0
2955,-17097,19054,0.0
3036,-17175,19567,0.0
3115,-17228,20065,0.0
5113,-27653,32928,1.0
5178,-27376,33330,1.0
5243,-27102,33743,1.0
5317,-26877,34222,1.0
0,0,0,0.0
0,0,0,0.0
0,0,0,0.0
0,0,0,0.0
0,0,0,0.0
0,0,0,0.0
5584,-24053,35985,1.0
0,0,0,0.0
0,0,0,0.0
5754,-23096,37138,1.0
0,0,0,0.0
5768,-22069,37285,1.0
5789,-21612,37442,1.0
5803,-21137,37566,1.0
5812,-20652,37663,1.0
5840,-20235,37883,1.0
5843,-19736,37943,1.0
5858,-19280,38081,1.0
5858,-18780,38128,1.0
0,0,0,0.0
0,0,0,0.0
0,0,0,0.0
0,0,0,0.0
0,0,0,0.0
0,0,0,0.0
0,0,0,0.0
0,0,0,0.0
0,0,0,0.0
0,0,0,0.0
5914,-13710,39144,1.0
0,0,0,0.0
266,-575,1765,0.0
0,0,0,0.0
314,-632,2097,0.0
0,0,0,0.0
0,0,0,0.0
0,0,0,0.0
5958,-10193,40095,1.0
5927,-9699,39987,1.0
5951,-9293,40238,1.0
5947,-8845,40312,1.0
0,0,0,0.0
0,0,0,0.0
5932,-7500,40529,1.0
0,0,0,0.0
276,-308,1897,0.0
0,0,0,0.0
0,0,0,0.0
0,0,0,0.0
0,0,0,0.0
3329,-2471,23208,0.0
3070,-2047,21475,0.0
2926,-1731,20537,0.0
2920,-1506,20564,0.0
2917,-1282,20615,0.0
2912,-1056,20647,0.0
2907,-831,20690,0.0
2908,-605,20768,0.0
2909,-379,20847,0.0
2898,-151,20856,0.0
2893,78,20900,0.0
2891,309,20969,0.0
2887,539,21024,0.0
2882,772,21076,0.0
2878,1007,21135,0.0
2872,1242,21180,0.0
2862,1477,21206,0.0
2857,1716,21262,0.0
2855,1958,21350,0.0
2846,2198,21386,0.0
2844,2445,21471,0.0
3,2,21,0.0
3,2,25,0.0
7,8,54,0.0
4,5,32,0.0
4,4,28,0.0
4,4,29,0.0
4,6,35,0.0
6,9,46,0.0
7,12,59,0.0
5,8,37,0.0
7,12,53,0.0
8,15,62,0.0
7,14,57,0.0
8,17,67,0.0
9,21,75,0.0
9,21,71,0.0
11,30,98,0.0
12,30,96,0.0
10,28,86,0.0
11,33,97,0.0
11,34,97,0.0
10,34,91,0.0
10,35,91,0.0
11,37,94,0.0
12,43,108,0.0
11,42,101,0.0
11,45,105,0.0
11,44,99,0.0
11,47,103,0.0
11,49,104,0.0
12,54,111,0.0
11,56,113,0.0
12,61,120,0.0
12,63,119,0.0
11,58,107,0.0
12,69,125,0.0
10,62,110,0.0
11,63,108,0.0
9,61,102,0.0
10,61,99,0.0
10,65,105,0.0
10,67,105,0.0
8,62,95,0.0
9,70,104,0.0
9,67,98,0.0
9,68,97,0.0
9,75,104,0.0
8,73,98,0.0
7,73,97,0.0
8,78,100,0.0
8,79,100,0.0
7,77,95,0.0
7,80,97,0.0
7,85,100,0.0
6,82,95,0.0
6,85,96,0.0
6,87,96,0.0
6,86,93,0.0
7,97,104,0.0
6,93,96,0.0
5,97,98,0.0
5,100,100,0.0
6,107,105,0.0
6,111,106,0.0
2,-271,84,0.0
2,-269,87,0.0
2,-268,90,0.0
3,-257,89,0.0
3,-266,96,0.0
4,-264,98,0.0
4,-256,97,0.0
5,-265,105,0.0
5,-270,110,0.0
6,-264,111,0.0
6,-260,113,0.0
7,-262,118,0.0
7,-262,120,0.0
8,-254,120,0.0
8,-250,121,0.0
9,-247,124,0.0
10,-257,132,0.0
10,-249,131,0.0
11,-262,142,0.0
12,-278,154,0.0
13,-278,158,0.0
14,-277,161,0.0
13,-269,161,0.0
14,-262,160,0.0
14,-242,152,0.0
13,-224,143,0.0
13,-219,143,0.0
14,-211,143,0.0
12,-178,123,0.0
12,-178,125,0.0
11,-154,112,0.0
12,-165,121,0.0
12,-151,113,0.0
10,-135,104,0.0
11,-136,107,0.0
10,-120,97,0.0
10,-111,92,0.0
1743,-19751,16669,0.0
8,-92,79,0.0
1780,-19031,16781,0.0
1801,-18706,16858,0.0
1822,-18396,16944,0.0
1838,-18052,16992,0.0
1853,-17705,17033,0.0
1874,-17426,17132,0.0
1890,-17105,17185,0.0
1923,-16952,17405,0.0
1977,-16965,17802,0.0
2038,-17038,18272,0.0
2083,-16976,18607,0.0
2153,-17099,19156,0.0
2222,-17198,19693,0.0
2292,-17300,20250,0.0
3751,-27594,33020,1.0
3807,-27312,33415,1.0
3864,-27034,33819,1.0
0,0,0,0.0
0,0,0,0.0
0,0,0,0.0
0,0,0,0.0
0,0,0,0.0
0,0,0,0.0
0,0,0,0.0
197,-1126,1692,0.0
0,0,0,0.0
0,0,0,0.0
0,0,0,0.0
4340,-22491,37213,1.0
4361,-22026,37358,1.0
4376,-21540,37461,1.0
4396,-21087,37616,1.0
199,-929,1702,0.0
4420,-20120,37801,1.0
4437,-19667,37942,1.0
4433,-19126,37906,1.0
4455,-18707,38105,1.0
4470,-18259,38242,1.0
0,0,0,0.0
0,0,0,0.0
0,0,0,0.0
203,-741,1746,0.0
0,0,0,0.0
0,0,0,0.0
0,0,0,0.0
0,0,0,0.0
263,-818,2265,0.0
0,0,0,0.0
0,0,0,0.0
0,0,0,0.0
0,0,0,0.0
0,0,0,0.0
205,-514,1778,0.0
0,0,0,0.0
0,0,0,0.0
216,-478,1883,0.0
4555,-9687,39956,1.0
4570,-9279,40183,1.0
4563,-8823,40209,1.0
4566,-8392,40345,1.0
211,-368,1872,0.0
0,0,0,0.0
4523,-7012,40300,1.0
198,-288,1766,0.0
4554,-6187,40818,1.0
0,0,0,0.0
0,0,0,0.0
0,0,0,0.0
2573,-2504,23380,0.0
2354,-2063,21469,0.0
2256,-1756,20653,0.0
2237,-1522,20557,0.0
2231,-1299,20595,0.0
2229,-1077,20656,0.0
2225,-852,20701,0.0
2220,-627,20749,0.0
2216,-402,20804,0.0
2211,-176,20859,0.0
2206,52,20906,0.0
2198,280,20939,0.0
2197,511,21032,0.0
2191,743,21086,0.0
2183,975,21126,0.0
2176,1209,21173,0.0
2171,1445,21239,0.0
2163,1682,21291,0.0
2152,1918,21309,0.0
2147,2162,21401,0.0
2138,2402,21443,0.0
2129,2646,21496,0.0
2120,2890,21543,0.0
2110,3137,21593,0.0
2101,3387,21653,0.0
2,4,23,0.0
3,5,34,0.0
4,6,36,0.0
4,8,43,0.0
4,8,37,0.0
5,12,55,0.0
5,13,58,0.0
5,15,61,0.0
6,16,63,0.0
6,19,73,0.0
7,22,79,0.0
8,25,87,0.0
7,27,91,0.0
7,26,83,0.0
8,30,92,0.0
12,49,143,0.0
9,39,113,0.0
8,35,98,0.0
10,47,125,0.0
8,41,105,0.0
9,43,107,0.0
8,44,105,0.0
9,49,116,0.0
9,49,112,0.0
8,52,115,0.0
8,52,111,0.0
9,59,123,0.0
9,58,118,0.0
8,58,114,0.0
8,61,117,0.0
9,72,134,0.0
8,67,121,0.0
7,63,112,0.0
7,67,115,0.0
6,65,111,0.0
7,65,107,0.0
6,68,110,0.0
7,76,118,0.0
6,70,107,0.0
6,77,116,0.0
6,72,106,0.0
5,80,114,0.0
5,82,115,0.0
5,80,110,0.0
5,82,110,0.0
4,77,100,0.0
4,78,99,0.0
4,80,101,0.0
4,83,101,0.0
4,81,96,0.0
3,83,98,0.0
3,88,101,0.0
2,91,102,0.0
2,94,102,0.0
3,93,100,0.0
3,100,105,0.0
2,103,106,0.0
2,107,107,0.0
2,110,108,0.0
1,109,105,0.0
-3,-281,88,0.0
-2,-288,94,0.0
-2,-282,95,0.0
-1,-276,97,0.0
-1,-267,97,0.0
0,-276,103,0.0
0,-270,104,0.0
0,-271,108,0.0
0,-270,110,0.0
1,-270,114,0.0
1,-266,115,0.0
2,-264,118,0.0
2,-260,120,0.0
3,-259,123,0.0
4,-258,126,0.0
4,-262,131,0.0
4,-262,135,0.0
4,-258,137,0.0
6,-274,149,0.0
6,-288,160,0.0
7,-283,162,0.0
7,-283,165,0.0
7,-274,165,0.0
8,-262,161,0.0
8,-240,151,0.0
8,-235,151,0.0
8,-224,148,0.0
8,-208,140,0.0
8,-196,135,0.0
8,-200,142,0.0
8,-180,130,0.0
8,-175,129,0.0
7,-153,116,0.0
7,-139,108,0.0
7,-132,105,0.0
8,-137,111,0.0
7,-112,93,0.0
7,-116,98,0.0
1238,-19330,16736,0.0
1263,-19006,16818,0.0
1285,-18669,16884,0.0
1307,-18346,16957,0.0
1326,-17996,16998,0.0
1348,-17694,17079,0.0
1369,-17388,17151,0.0
1387,-17081,17217,0.0
1421,-16945,17454,0.0
1471,-17008,17903,0.0
1518,-17030,18321,0.0
1563,-17009,18701,0.0
1620,-17123,19241,0.0
1681,-17252,19814,0.0
1739,-17335,20352,0.0
2848,-27589,33111,1.0
2899,-27295,33489,1.0
2951,-27014,33890,1.0
0,0,0,0.0
0,0,0,0.0
0,0,0,0.0
3103,-25439,34923,1.0
0,0,0,0.0
0,0,0,0.0
0,0,0,0.0
0,0,0,0.0
0,0,0,0.0
0,0,0,0.0
190,-1289,2086,0.0
140,-930,1543,0.0
3421,-21972,37350,1.0
3439,-21499,37472,1.0
3458,-21029,37595,1.0
3476,-20570,37730,1.0
3496,-20120,37880,1.0
3505,-19621,37931,1.0
3518,-19148,38025,1.0
3545,-18755,38274,1.0
3534,-18171,38127,1.0
0,0,0,0.0
0,0,0,0.0
0,0,0,0.0
0,0,0,0.0
3598,-15943,38752,1.0
198,-851,2137,0.0
0,0,0,0.0
0,0,0,0.0
0,0,0,0.0
0,0,0,0.0
0,0,0,0.0
0,0,0,0.0
0,0,0,0.0
0,0,0,0.0
0,0,0,0.0
0,0,0,0.0
241,-696,2626,0.0
3654,-10140,39925,1.0
3662,-9717,40090,1.0
0,0,0,0.0
3664,-8844,40299,1.0
3659,-8396,40353,1.0
3656,-7955,40436,1.0
0,0,0,0.0
0,0,0,0.0
0,0,0,0.0
0,0,0,0.0
0,0,0,0.0
0,0,0,0.0
0,0,0,0.0
2062,-2521,23450,0.0
1885,-2077,21526,0.0
1793,-1759,20571,0.0
1782,-1531,20537,0.0
1781,-1311,20612,0.0
1777,-1089,20661,0.0
1773,-866,20728,0.0
1769,-642,20779,0.0
1764,-416,20839,0.0
1757,-190,20878,0.0
1752,36,20934,0.0
1743,264,20957,0.0
1737,494,21020,0.0
1732,725,21097,0.0
1725,957,21144,0.0
1716,1190,21184,0.0
1706,1423,21213,0.0
1701,1662,21293,0.0
1693,1901,21364,0.0
1684,2142,21425,0.0
1673,2380,21450,0.0
1664,2625,21519,0.0
1654,2870,21573,0.0
1645,3119,21643,0.0
1633,3364,21679,0.0
2,5,34,0.0
1,2,15,0.0
4,9,50,0.0
3,8,41,0.0
4,12,58,0.0
4,12,57,0.0
4,12,54,0.0
5,17,72,0.0
4,17,69,0.0
6,21,79,0.0
5,24,85,0.0
5,23,82,0.0
6,29,95,0.0
7,32,100,0.0
7,36,109,0.0
6,32,97,0.0
7,38,111,0.0
6,38,107,0.0
6,40,105,0.0
6,44,114,0.0
6,45,113,0.0
6,48,115,0.0
7,53,125,0.0
7,53,121,0.0
7,57,126,0.0
6,57,124,0.0
6,61,128,0.0
6,63,128,0.0
6,60,119,0.0
5,65,127,0.0
6,63,119,0.0
6,73,134,0.0
5,69,124,0.0
5,73,127,0.0
5,72,122,0.0
5,77,128,0.0
5,80,128,0.0
4,80,126,0.0
4,75,116,0.0
3,82,123,0.0
3,82,119,0.0
3,79,114,0.0
3,87,122,0.0
3,81,112,0.0
2,86,116,0.0
2,94,124,0.0
2,90,114,0.0
2,87,109,0.0
1,91,112,0.0
1,94,113,0.0
1,89,105,0.0
0,97,111,0.0
0,95,106,0.0
0,94,104,0.0
0,102,110,0.0
0,99,104,0.0
0,105,109,0.0
0,113,115,0.0
0,115,114,0.0
-1,119,115,0.0
-23,-301,97,0.0
-22,-296,98,0.0
-21,-286,98,0.0
-20,-275,98,0.0
-20,-275,101,0.0
-20,-280,106,0.0
-18,-272,107,0.0
-18,-279,113,0.0
-17,-263,110,0.0
-17,-263,114,0.0
-17,-264,117,0.0
-16,-260,118,0.0
-16,-261,122,0.0
-14,-253,122,0.0
-15,-257,127,0.0
-16,-270,137,0.0
-14,-266,139,0.0
-15,-280,150,0.0
-16,-299,165,0.0
-15,-290,163,0.0
-14,-284,163,0.0
-13,-268,159,0.0
-12,-247,150,0.0
-11,-229,142,0.0
-10,-228,145,0.0
-9,-202,131,0.0
-9,-210,140,0.0
-7,-184,126,0.0
-7,-179,125,0.0
-6,-167,119,0.0
-5,-141,103,0.0
-5,-144,108,0.0
-804,-21349,16358,0.0
-764,-20966,16425,0.0
-724,-20586,16488,0.0
-687,-20255,16584,0.0
-650,-19908,16661,0.0
-614,-19535,16710,0.0
-580,-19200,16784,0.0
-547,-18877,16863,0.0
-514,-18558,16942,0.0
-483,-18230,17004,0.0
-453,-17914,17075,0.0
-422,-17583,17124,0.0
-394,-17259,17175,0.0
-366,-16975,17260,0.0
-345,-16990,17652,0.0
-326,-17034,18085,0.0
-303,-16935,18371,0.0
-283,-17051,18903,0.0
-264,-17159,19438,0.0
-244,-17233,19952,0.0
-224,-17301,20474,0.0
-322,-27496,33259,1.0
-285,-27239,33681,1.0
-248,-26960,34082,1.0
-212,-26629,34418,1.0
-9,-1481,1958,0.0
-142,-25892,35000,1.0
0,0,0,0.0
0,0,0,0.0
0,0,0,0.0
0,0,0,0.0
0,0,0,0.0
2,-1274,1979,0.0
0,0,0,0.0
0,0,0,0.0
0,0,0,0.0
0,0,0,0.0
0,0,0,0.0
0,0,0,0.0
0,0,0,0.0
0,0,0,0.0
0,0,0,0.0
0,0,0,0.0
0,0,0,0.0
0,0,0,0.0
0,0,0,0.0
0,0,0,0.0
0,0,0,0.0
0,0,0,0.0
0,0,0,0.0
0,0,0,0.0
429,-14962,38899,1.0
439,-14527,39017,1.0
449,-14068,39071,1.0
458,-13639,39200,1.0
467,-13211,39332,1.0
474,-12762,39400,1.0
480,-12307,39443,1.0
0,0,0,0.0
0,0,0,0.0
0,0,0,0.0
0,0,0,0.0
500,-10144,39981,1.0
503,-9721,40129,1.0
503,-9278,40189,1.0
503,-8856,40336,1.0
502,-8411,40385,1.0
500,-7965,40432,1.0
497,-7524,40488,1.0
0,0,0,0.0
0,0,0,0.0
0,0,0,0.0
0,0,0,0.0
0,0,0,0.0
0,0,0,0.0
261,-2564,23615,0.0
234,-2108,21578,0.0
221,-1822,20982,0.0
211,-1556,20494,0.0
206,-1343,20629,0.0
200,-1124,20715,0.0
193,-902,20755,0.0
186,-679,20807,0.0
179,-455,20848,0.0
171,-230,20896,0.0
162,-5,20947,0.0
153,220,21012,0.0
143,449,21063,0.0
134,677,21106,0.0
124,906,21138,0.0
112,1139,21206,0.0
101,1373,21283,0.0
89,1607,21322,0.0
78,1844,21393,0.0
65,2081,21434,0.0
52,2320,21480,0.0
37,2560,21527,0.0
23,2807,21611,0.0
8,3050,21655,0.0
-6,3293,21682,0.0
-22,3539,21720,0.0
-38,3796,21812,0.0
-56,4048,21865,0.0
0,8,45,0.0
0,6,33,0.0
0,13,62,0.0
0,15,68,0.0
0,13,57,0.0
0,16,65,0.0
0,18,73,0.0
0,27,101,0.0
-1,27,96,0.0
-1,27,92,0.0
0,26,86,0.0
0,30,93,0.0
0,31,94,0.0
-1,30,87,0.0
-1,41,115,0.0
-1,39,107,0.0
-2,44,115,0.0
-1,39,101,0.0
-2,50,124,0.0
-2,57,135,0.0
-2,55,127,0.0
-3,60,135,0.0
-2,57,124,0.0
-3,62,131,0.0
-4,68,140,0.0
-3,68,138,0.0
-3,66,130,0.0
-3,67,126,0.0
-4,70,130,0.0
-4,75,135,0.0
-5,81,143,0.0
-4,79,136,0.0
-5,77,130,0.0
-6,88,143,0.0
-5,86,138,0.0
-5,81,126,0.0
-6,88,133,0.0
-6,89,132,0.0
-7,94,137,0.0
-7,92,131,0.0
-7,90,126,0.0
-7,95,129,0.0
-8,96,128,0.0
-8,98,128,0.0
-8,99,127,0.0
-7,94,117,0.0
-8,102,123,0.0
-8,94,111,0.0
-8,94,110,0.0
-9,99,112,0.0
-8,99,110,0.0
-9,101,109,0.0
-10,103,110,0.0
-9,108,112,0.0
-11,114,117,0.0
-10,109,109,0.0
-10,112,110,0.0
-34,-297,96,0.0
-34,-295,99,0.0
-33,-298,103,0.0
-33,-295,106,0.0
-31,-285,105,0.0
-32,-289,111,0.0
-31,-278,110,0.0
-29,-275,112,0.0
-29,-267,112,0.0
-28,-262,113,0.0
-27,-260,115,0.0
-28,-267,122,0.0
-26,-252,118,0.0
-25,-251,121,0.0
-26,-261,130,0.0
-26,-262,134,0.0
-29,-287,151,0.0
-27,-277,149,0.0
-28,-290,160,0.0
-26,-272,155,0.0
-26,-271,158,0.0
-24,-254,152,0.0
-23,-246,150,0.0
-20,-222,139,0.0
-20,-219,140,0.0
-18,-201,131,0.0
-17,-186,124,0.0
-16,-188,129,0.0
-16,-175,123,0.0
-2033,-22430,16127,0.0
-1983,-22061,16224,0.0
-1931,-21656,16287,0.0
-1884,-21303,16382,0.0
-1838,-20939,16463,0.0
-1790,-20560,16525,0.0
-1747,-20214,16609,0.0
-1701,-19837,16659,0.0
-1662,-19509,16744,0.0
-1621,-19171,16815,0.0
-1583,-18858,16903,0.0
-1543,-18506,16949,0.0
-1507,-18194,17026,0.0
-1469,-17854,17073,0.0
-1432,-17513,17110,0.0
-1400,-17228,17200,0.0
-1368,-16931,17269,0.0
-1365,-16983,17699,0.0
-1359,-17008,18111,0.0
-1345,-16916,18406,0.0
-1347,-17023,18928,0.0
-1350,-17140,19476,0.0
-1350,-17218,19993,0.0
-1354,-17335,20572,0.0
-2137,-27458,33307,1.0
-2107,-27152,33668,1.0
-2081,-26896,34094,1.0
-2052,-26588,34459,1.0
0,0,0,0.0
0,0,0,0.0
0,0,0,0.0
0,0,0,0.0
0,0,0,0.0
0,0,0,0.0
0,0,0,0.0
0,0,0,0.0
0,0,0,0.0
-1692,-21878,35719,1.0
0,0,0,0.0
0,0,0,0.0
0,0,0,0.0
-93,-1194,2154,0.0
0,0,0,0.0
0,0,0,0.0
-90,-1123,2190,0.0
0,0,0,0.0
0,0,0,0.0
0,0,0,0.0
0,0,0,0.0
0,0,0,0.0
0,0,0,0.0
0,0,0,0.0
0,0,0,0.0
0,0,0,0.0
0,0,0,0.0
-1372,-14512,39032,1.0
-1359,-14067,39117,1.0
-1348,-13620,39193,1.0
-1339,-13189,39310,1.0
-41,-399,1234,0.0
0,0,0,0.0
0,0,0,0.0
0,0,0,0.0
0,0,0,0.0
0,0,0,0.0
0,0,0,0.0
0,0,0,0.0
0,0,0,0.0
0,0,0,0.0
0,0,0,0.0
0,0,0,0.0
-50,-298,1602,0.0
0,0,0,0.0
0,0,0,0.0
0,0,0,0.0
0,0,0,0.0
0,0,0,0.0
0,0,0,0.0
-772,-2574,23615,0.0
-710,-2118,21581,0.0
-697,-1838,21048,0.0
-687,-1577,20622,0.0
-692,-1355,20643,0.0
-701,-1136,20714,0.0
-708,-914,20739,0.0
-716,-691,20774,0.0
-725,-470,20862,0.0
-734,-246,20884,0.0
-745,-21,20956,0.0
-755,204,21005,0.0
-767,430,21065,0.0
-778,659,21124,0.0
-790,888,21163,0.0
-802,1119,21202,0.0
-816,1351,21266,0.0
-829,1585,21314,0.0
-844,1821,21374,0.0
-858,2057,21424,0.0
-875,2297,21490,0.0
-891,2538,21553,0.0
-907,2778,21589,0.0
-924,3022,21637,0.0
-940,3262,21653,0.0
-961,3515,21742,0.0
-980,3763,21790,0.0
-1000,4014,21837,0.0
-1021,4271,21903,0.0
-1,7,35,0.0
-1,9,41,0.0
-2,10,45,0.0
-2,12,52,0.0
-1,9,38,0.0
-2,13,53,0.0
-2,16,59,0.0
-3,19,68,0.0
-3,18,63,0.0
-3,22,73,0.0
-4,27,84,0.0
-4,28,84,0.0
-5,29,85,0.0
-5,30,85,0.0
-5,37,100,0.0
-7,44,115,0.0
-7,42,107,0.0
-7,43,108,0.0
-7,48,116,0.0
-7,51,119,0.0
-8,56,126,0.0
-8,57,125,0.0
-8,57,123,0.0
-9,61,126,0.0
-9,65,131,0.0
-10,66,129,0.0
-10,67,129,0.0
-11,76,143,0.0
-11,74,135,0.0
-11,74,130,0.0
-11,80,137,0.0
-12,81,136,0.0
-12,84,137,0.0
-11,78,125,0.0
-13,89,138,0.0
-13,92,141,0.0
-12,90,136,0.0
-12,87,127,0.0
-14,93,132,0.0
-13,93,130,0.0
-13,92,125,0.0
-13,90,120,0.0
-14,95,123,0.0
-13,92,118,0.0
-14,97,120,0.0
-14,99,120,0.0
-14,93,112,0.0
-14,98,115,0.0
-14,95,108,0.0
-14,96,108,0.0
-15,103,113,0.0
-15,100,106,0.0
-16,107,112,0.0
-15,106,109,0.0
-16,110,110,0.0
-16,109,107,0.0
50,-258,70,0.0
50,-254,71,0.0
51,-253,75,0.0
52,-252,76,0.0
54,-258,82,0.0
54,-254,83,0.0
56,-259,88,0.0
57,-258,91,0.0
56,-251,91,0.0
59,-258,97,0.0
60,-260,101,0.0
61,-256,103,0.0
62,-257,107,0.0
63,-258,111,0.0
63,-255,112,0.0
65,-255,116,0.0
64,-252,118,0.0
67,-255,123,0.0
68,-256,127,0.0
68,-252,127,0.0
71,-257,134,0.0
65,-232,124,0.0
67,-236,130,0.0
72,-250,140,0.0
74,-253,148,0.0
75,-253,151,0.0
75,-247,150,0.0
72,-235,146,0.0
73,-236,151,0.0
76,-239,158,0.0
72,-222,150,0.0
65,-198,136,0.0
63,-189,133,0.0
54,-161,116,0.0
57,-166,123,0.0
55,-159,121,0.0
7539,-21027,16268,0.0
7524,-20648,16347,0.0
7504,-20259,16410,0.0
7494,-19904,16495,0.0
7478,-19534,16562,0.0
7462,-19175,16631,0.0
7452,-18833,16708,0.0
7433,-18474,16765,0.0
7426,-18149,16846,0.0
7424,-17838,16934,0.0
7411,-17507,17000,0.0
7391,-17162,17045,0.0
7396,-16879,17147,0.0
7537,-16905,17566,0.0
7746,-17070,18144,0.0
7850,-16997,18480,0.0
3860,-8210,9132,0.0
3883,-8110,9231,0.0
4050,-8308,9674,0.0
4024,-8106,9658,0.0
4359,-8616,10507,0.0
3969,-7700,9611,0.0
3960,-7540,9633,0.0
4449,-8308,10868,0.0
4443,-8136,10898,0.0
4441,-7974,10938,0.0
4450,-7832,11007,0.0
4415,-7615,10963,0.0
4443,-7508,11078,0.0
4412,-7300,11041,0.0
4199,-6802,10549,0.0
0,0,0,0.0
0,0,0,0.0
0,0,0,0.0
0,0,0,0.0
0,0,0,0.0
0,0,0,0.0
0,0,0,0.0
0,0,0,0.0
0,0,0,0.0
559,-718,1456,0.0
0,0,0,0.0
0,0,0,0.0
0,0,0,0.0
0,0,0,0.0
571,-639,1511,0.0
603,-656,1603,0.0
0,0,0,0.0
686,-702,1832,0.0
0,0,0,0.0
0,0,0,0.0
0,0,0,0.0
0,0,0,0.0
0,0,0,0.0
0,0,0,0.0
0,0,0,0.0
0,0,0,0.0
556,-407,1523,0.0
0,0,0,0.0
0,0,0,0.0
0,0,0,0.0
595,-361,1646,0.0
0,0,0,0.0
0,0,0,0.0
0,0,0,0.0
0,0,0,0.0
0,0,0,0.0
776,-322,2180,0.0
0,0,0,0.0
0,0,0,0.0
901,-286,2550,0.0
121,-35,346,0.0
7326,-1851,20821,0.0
7163,-1577,20405,0.0
7168,-1345,20467,0.0
7167,-1110,20511,0.0
7168,-875,20557,0.0
7178,-640,20634,0.0
7173,-402,20670,0.0
7182,-166,20739,0.0
7169,73,20749,0.0
7193,314,20860,0.0
7177,553,20863,0.0
7178,795,20910,0.0
7198,1041,21012,0.0
7197,1285,21056,0.0
7203,1533,21117,0.0
7205,1781,21166,0.0
7219,2033,21250,0.0
7224,2286,21310,0.0
7219,2537,21339,0.0
7235,2796,21430,0.0
7230,3050,21462,0.0
5,2,17,0.0
4,2,13,0.0
6,3,20,0.0
0,0,0,0.0
4,2,15,0.0
25,15,77,0.0
13,8,42,0.0
9,6,29,0.0
12,9,38,0.0
14,11,45,0.0
18,15,56,0.0
38,33,119,0.0
48,44,150,0.0
21,20,67,0.0
18,18,59,0.0
20,20,63,0.0
25,27,79,0.0
24,27,76,0.0
21,25,68,0.0
25,29,78,0.0
24,29,75,0.0
26,35,86,0.0
26,36,86,0.0
30,42,97,0.0
25,37,81,0.0
24,35,76,0.0
24,36,78,0.0
28,45,92,0.0
27,44,87,0.0
28,48,92,0.0
30,52,97,0.0
27,48,87,0.0
27,49,87,0.0
29,55,95,0.0
28,55,93,0.0
23,46,75,0.0
30,59,96,0.0
26,54,85,0.0
24,52,80,0.0
26,56,85,0.0
27,60,88,0.0
23,54,77,0.0
22,53,73,0.0
25,59,81,0.0
25,61,82,0.0
23,61,79,0.0
25,65,83,0.0
25,69,85,0.0
26,73,88,0.0
25,73,86,0.0
27,79,92,0.0
25,76,86,0.0
27,84,93,0.0
27,85,91,0.0
27,87,93,0.0
29,95,99,0.0
29,98,100,0.0
29,99,98,0.0
30,107,104,0.0
29,105,101,0.0
31,112,105,0.0
29,111,102,0.0
30,116,104,0.0
21,-270,81,0.0
21,-266,82,0.0
23,-272,88,0.0
23,-273,92,0.0
25,-270,93,0.0
24,-269,96,0.0
27,-278,103,0.0
26,-267,103,0.0
27,-267,106,0.0
28,-277,113,0.0
29,-272,115,0.0
30,-269,116,0.0
30,-269,119,0.0
30,-269,123,0.0
31,-264,124,0.0
33,-270,131,0.0
33,-267,133,0.0
33,-262,135,0.0
32,-249,131,0.0
34,-258,139,0.0
38,-276,153,0.0
37,-269,153,0.0
39,-277,162,0.0
38,-263,157,0.0
39,-264,161,0.0
38,-248,156,0.0
36,-231,149,0.0
37,-231,151,0.0
35,-214,144,0.0
33,-202,140,0.0
31,-184,130,0.0
30,-176,127,0.0
29,-167,123,0.0
25,-142,108,0.0
24,-132,102,0.0
24,-128,101,0.0
20,-106,86,0.0
21,-107,89,0.0
3878,-19623,16620,0.0
3892,-19307,16719,0.0
3896,-18947,16773,0.0
3905,-18616,16848,0.0
3913,-18286,16918,0.0
3914,-17933,16960,0.0
3904,-17536,16952,0.0
3931,-17314,17109,0.0
3942,-17016,17188,0.0
4005,-16949,17500,0.0
4083,-16938,17879,0.0
4166,-16945,18284,0.0
4273,-17037,18794,0.0
4384,-17134,19323,0.0
4494,-17212,19848,0.0
4606,-17286,20382,0.0
7466,-27456,33106,1.0
7541,-27174,33510,1.0
7632,-26943,33986,1.0
7715,-26681,34427,1.0
0,0,0,0.0
0,0,0,0.0
0,0,0,0.0
0,0,0,0.0
0,0,0,0.0
0,0,0,0.0
0,0,0,0.0
0,0,0,0.0
0,0,0,0.0
0,0,0,0.0
0,0,0,0.0
8198,-21814,37512,1.0
0,0,0,0.0
289,-734,1331,0.0
407,-1007,1875,0.0
0,0,0,0.0
0,0,0,0.0
0,0,0,0.0
8211,-18386,38144,1.0
0,0,0,0.0
0,0,0,0.0
0,0,0,0.0
8246,-16557,38642,1.0
0,0,0,0.0
444,-841,2090,0.0
0,0,0,0.0
0,0,0,0.0
435,-749,2059,0.0
0,0,0,0.0
375,-604,1783,0.0
0,0,0,0.0
8242,-12405,39427,1.0
0,0,0,0.0
401,-559,1926,0.0
8247,-11060,39733,1.0
8237,-10598,39780,1.0
0,0,0,0.0
8246,-9715,40022,1.0
438,-492,2135,0.0
0,0,0,0.0
0,0,0,0.0
0,0,0,0.0
0,0,0,0.0
8257,-7045,40686,1.0
0,0,0,0.0
8220,-6121,40715,1.0
0,0,0,0.0
0,0,0,0.0
0,0,0,0.0
4612,-2429,23092,0.0
4271,-2014,21445,0.0
4069,-1694,20487,0.0
4057,-1465,20483,0.0
4067,-1244,20594,0.0
4057,-1016,20604,0.0
4057,-788,20662,0.0
4060,-561,20741,0.0
4055,-331,20773,0.0
4053,-101,20825,0.0
4053,129,20888,0.0
4042,361,20898,0.0
4034,594,20924,0.0
4050,832,21075,0.0
4036,1066,21065,0.0
4042,1306,21165,0.0
4034,1543,21198,0.0
4030,1784,21249,0.0
4029,2028,21315,0.0
4015,2265,21312,0.0
4020,2515,21414,0.0
4012,2760,21446,0.0
4007,3008,21493,0.0
3,2,13,0.0
3,2,19,0.0
5,4,26,0.0
6,5,28,0.0
9,9,49,0.0
7,7,36,0.0
6,6,33,0.0
10,12,54,0.0
12,15,65,0.0
11,14,58,0.0
13,18,69,0.0
11,15,57,0.0
12,19,67,0.0
14,23,81,0.0
13,23,77,0.0
17,31,95,0.0
16,29,87,0.0
17,34,96,0.0
17,35,98,0.0
15,31,84,0.0
16,36,93,0.0
14,33,83,0.0
17,43,105,0.0
17,42,99,0.0
18,47,108,0.0
17,47,104,0.0
18,51,110,0.0
19,56,118,0.0
19,57,117,0.0
16,49,98,0.0
16,54,102,0.0
16,52,97,0.0
18,61,111,0.0
18,62,111,0.0
18,65,112,0.0
18,65,111,0.0
15,61,101,0.0
17,69,111,0.0
16,66,104,0.0
16,70,107,0.0
14,62,93,0.0
15,68,100,0.0
14,66,94,0.0
15,73,102,0.0
14,68,93,0.0
13,71,94,0.0
15,80,104,0.0
14,78,100,0.0
13,73,90,0.0
14,80,98,0.0
14,83,99,0.0
13,78,91,0.0
12,78,89,0.0
11,82,91,0.0
13,89,98,0.0
13,99,106,0.0
13,100,105,0.0
12,96,98,0.0
13,107,107,0.0
12,103,101,0.0
12,103,98,0.0
13,115,108,0.0
-11,-286,91,0.0
-11,-271,89,0.0
-9,-268,91,0.0
-9,-271,95,0.0
-9,-267,98,0.0
-8,-267,100,0.0
-7,-260,101,0.0
-7,-257,104,0.0
-6,-254,105,0.0
-5,-243,103,0.0
-5,-249,109,0.0
-5,-242,110,0.0
-4,-247,115,0.0
-4,-248,119,0.0
-3,-248,122,0.0
-4,-243,122,0.0
-3,-238,123,0.0
-2,-241,128,0.0
-3,-270,147,0.0
-1,-275,154,0.0
-1,-258,148,0.0
-1,-270,158,0.0
-1,-264,160,0.0
0,-251,155,0.0
0,-229,145,0.0
0,-227,146,0.0
0,-205,136,0.0
0,-208,141,0.0
1,-193,134,0.0
2,-179,128,0.0
2,-157,114,0.0
2,-143,106,0.0
1,-146,111,0.0
2,-131,101,0.0
1,-114,90,0.0
2,-122,99,0.0
400,-19964,16624,0.0
429,-19613,16692,0.0
2,-97,85,0.0
486,-18933,16831,0.0
512,-18610,16908,0.0
538,-18287,16978,0.0
563,-17961,17039,0.0
568,-17039,16518,0.0
604,-17126,16966,0.0
632,-16950,17159,0.0
666,-16956,17539,0.0
700,-16927,17892,0.0
736,-16965,18326,0.0
772,-17001,18768,0.0
813,-17089,19279,0.0
856,-17215,19850,0.0
899,-17324,20417,0.0
1488,-27535,33173,1.0
1534,-27270,33584,1.0
1579,-26977,33970,1.0
1629,-26773,34471,1.0
0,0,0,0.0
1704,-25982,34990,1.0
0,0,0,0.0
0,0,0,0.0
0,0,0,0.0
0,0,0,0.0
1900,-24319,36749,1.0
0,0,0,0.0
1952,-23356,37012,1.0
1979,-22915,37200,1.0
1996,-22367,37207,1.0
2019,-21905,37347,1.0
0,0,0,0.0
2062,-20978,37612,1.0
2071,-20406,37535,1.0
0,0,0,0.0
2120,-19607,38004,1.0
126,-1133,2256,0.0
2148,-18637,38131,1.0
2160,-18155,38187,1.0
2173,-17686,38267,1.0
0,0,0,0.0
0,0,0,0.0
2218,-16384,38705,1.0
2221,-15869,38653,1.0
2234,-15446,38814,1.0
0,0,0,0.0
2256,-14573,39065,1.0
2258,-14090,39057,1.0
2269,-13671,39225,1.0
2275,-13223,39305,1.0
0,0,0,0.0
0,0,0,0.0
0,0,0,0.0
0,0,0,0.0
0,0,0,0.0
0,0,0,0.0
2300,-10134,39920,1.0
2304,-9714,40087,1.0
2306,-9281,40202,1.0
2307,-8850,40315,1.0
2309,-8422,40462,1.0
2304,-7976,40513,1.0
2299,-7524,40537,1.0
0,0,0,0.0
2298,-6669,40846,1.0
2288,-6211,40823,1.0
2285,-5778,40957,1.0
0,0,0,0.0
0,0,0,0.0
1291,-2539,23507,0.0
1175,-2087,21506,0.0
1124,-1784,20715,0.0
1100,-1533,20387,0.0
1107,-1328,20648,0.0
1100,-1106,20680,0.0
1095,-882,20722,0.0
1090,-659,20797,0.0
1082,-434,20827,0.0
1076,-210,20886,0.0
1070,16,20943,0.0
1061,243,20976,0.0
1055,472,21056,0.0
1046,702,21089,0.0
1038,934,21159,0.0
1030,1167,21226,0.0
1020,1400,21256,0.0
1009,1635,21301,0.0
999,1872,21356,0.0
989,2111,21413,0.0
978,2352,21468,0.0
966,2594,21526,0.0
954,2833,21550,0.0
942,3082,21625,0.0
928,3330,21677,0.0
914,3577,21718,0.0
1,4,26,0.0
1,8,44,0.0
2,7,37,0.0
1,5,26,0.0
0,5,28,0.0
2,12,51,0.0
1,8,35,0.0
2,16,67,0.0
2,18,72,0.0
2,20,73,0.0
2,20,72,0.0
2,23,78,0.0
2,22,73,0.0
2,27,83,0.0
2,29,88,0.0
2,30,88,0.0
2,34,97,0.0
3,38,104,0.0
2,40,106,0.0
2,45,114,0.0
3,42,104,0.0
2,47,111,0.0
2,46,106,0.0
2,53,119,0.0
2,50,109,0.0
1,56,118,0.0
1,64,131,0.0
1,65,130,0.0
1,64,124,0.0
1,63,119,0.0
1,64,119,0.0
1,62,112,0.0
1,64,113,0.0
1,72,122,0.0
0,69,116,0.0
0,73,119,0.0
0,74,119,0.0
0,71,109,0.0
0,75,115,0.0
0,74,110,0.0
0,76,111,0.0
0,81,114,0.0
0,79,109,0.0
-1,79,108,0.0
-1,78,103,0.0
-1,79,102,0.0
-1,81,102,0.0
-2,85,105,0.0
-2,82,99,0.0
-2,86,101,0.0
-2,87,100,0.0
-2,85,95,0.0
-3,85,94,0.0
-3,92,100,0.0
-3,99,105,0.0
-4,99,102,0.0
-4,102,103,0.0
-4,105,105,0.0
-5,108,105,0.0
42,-263,74,0.0
41,-251,73,0.0
44,-264,80,0.0
45,-264,83,0.0
46,-268,88,0.0
46,-260,88,0.0
47,-261,92,0.0
48,-267,98,0.0
49,-264,99,0.0
50,-267,104,0.0
51,-265,106,0.0
51,-261,108,0.0
53,-264,113,0.0
54,-261,115,0.0
55,-266,120,0.0
55,-261,121,0.0
56,-258,123,0.0
57,-263,129,0.0
58,-259,131,0.0
58,-254,132,0.0
57,-247,131,0.0
59,-252,138,0.0
62,-264,148,0.0
65,-267,154,0.0
67,-267,158,0.0
62,-247,150,0.0
62,-244,152,0.0
60,-230,146,0.0
56,-214,140,0.0
57,-211,142,0.0
54,-199,135,0.0
51,-184,129,0.0
48,-169,122,0.0
47,-161,118,0.0
37,-131,98,0.0
6391,-21201,16296,0.0
6371,-20779,16341,0.0
6369,-20419,16427,0.0
6365,-20065,16513,0.0
6353,-19689,16573,0.0
6352,-19351,16660,0.0
6346,-19006,16734,0.0
6336,-18652,16794,0.0
6332,-18320,16870,0.0
6321,-17970,16922,0.0
6300,-17600,16948,0.0
6313,-17331,17066,0.0
6297,-16985,17104,0.0
6394,-16943,17447,0.0
6502,-16922,17819,0.0
6623,-16931,18234,0.0
6781,-17022,18750,0.0
6959,-17154,19325,0.0
7124,-17240,19868,0.0
3528,-8379,9878,0.0
3552,-8282,9989,0.0
3598,-8231,10158,0.0
3697,-8298,10481,0.0
3844,-8463,10938,0.0
4001,-8638,11428,0.0
3877,-8207,11117,0.0
3823,-7932,11002,0.0
3746,-7616,10818,0.0
0,0,0,0.0
0,0,0,0.0
0,0,0,0.0
0,0,0,0.0
0,0,0,0.0
0,0,0,0.0
0,0,0,0.0
0,0,0,0.0
0,0,0,0.0
0,0,0,0.0
0,0,0,0.0
660,-1028,1989,0.0
0,0,0,0.0
0,0,0,0.0
0,0,0,0.0
0,0,0,0.0
0,0,0,0.0
565,-750,1731,0.0
0,0,0,0.0
0,0,0,0.0
0,0,0,0.0
0,0,0,0.0
0,0,0,0.0
0,0,0,0.0
0,0,0,0.0
0,0,0,0.0
0,0,0,0.0
0,0,0,0.0
0,0,0,0.0
0,0,0,0.0
0,0,0,0.0
647,-525,2061,0.0
0,0,0,0.0
0,0,0,0.0
0,0,0,0.0
0,0,0,0.0
0,0,0,0.0
12484,-7403,40319,0.0
0,0,0,0.0
0,0,0,0.0
0,0,0,0.0
0,0,0,0.0
0,0,0,0.0
0,0,0,0.0
6677,-2242,21940,0.0
6431,-1920,21181,0.0
6170,-1613,20371,0.0
6190,-1388,20488,0.0
6199,-1159,20568,0.0
6192,-925,20595,0.0
6186,-692,20623,0.0
6186,-458,20672,0.0
6196,-224,20754,0.0
6197,11,20809,0.0
6205,248,20883,0.0
6202,487,20921,0.0
6197,725,20954,0.0
6203,967,21024,0.0
6209,1210,21093,0.0
6214,1454,21159,0.0
38,9,131,0.0
6200,1942,21214,0.0
6204,2191,21277,0.0
6206,2441,21333,0.0
6207,2692,21387,0.0
6217,2950,21471,0.0
6204,3198,21479,0.0
6222,3465,21592,0.0
9,5,34,0.0
4,2,16,0.0
9,6,32,0.0
7,5,29,0.0
9,7,35,0.0
10,8,39,0.0
12,11,46,0.0
14,12,53,0.0
13,13,51,0.0
47,47,171,0.0
18,18,64,0.0
18,19,67,0.0
19,22,71,0.0
18,21,66,0.0
18,22,67,0.0
19,24,70,0.0
21,29,82,0.0
20,29,77,0.0
22,32,84,0.0
22,34,85,0.0
21,33,83,0.0
24,37,88,0.0
21,36,82,0.0
22,39,86,0.0
21,38,84,0.0
25,44,94,0.0
25,47,95,0.0
23,45,89,0.0
25,51,97,0.0
23,47,87,0.0
26,55,100,0.0
24,52,91,0.0
26,58,100,0.0
26,59,100,0.0
26,62,102,0.0
24,58,93,0.0
24,60,93,0.0
23,60,92,0.0
23,63,93,0.0
22,60,87,0.0
22,60,86,0.0
20,58,81,0.0
23,68,93,0.0
19,60,81,0.0
18,58,74,0.0
22,70,88,0.0
21,69,85,0.0
21,71,87,0.0
28,95,111,0.0
21,74,86,0.0
22,79,89,0.0
21,77,85,0.0
22,84,91,0.0
22,88,92,0.0
22,92,95,0.0
23,95,97,0.0
22,94,94,0.0
24,105,102,0.0
24,109,103,0.0
25,112,105,0.0
24,110,101,0.0
29,-268,78,0.0
29,-261,80,0.0
30,-268,84,0.0
31,-264,87,0.0
32,-272,93,0.0
33,-273,96,0.0
33,-266,97,0.0
34,-271,102,0.0
36,-273,106,0.0
36,-268,108,0.0
37,-271,113,0.0
38,-269,115,0.0
38,-265,117,0.0
38,-264,119,0.0
40,-267,124,0.0
40,-262,125,0.0
40,-260,128,0.0
42,-263,133,0.0
42,-257,134,0.0
40,-242,130,0.0
44,-256,141,0.0
45,-257,144,0.0
49,-279,161,0.0
45,-255,151,0.0
46,-254,154,0.0
45,-243,150,0.0
46,-243,154,0.0
45,-232,151,0.0
42,-210,140,0.0
40,-200,137,0.0
39,-191,134,0.0
39,-187,133,0.0
36,-170,125,0.0
35,-160,121,0.0
30,-137,105,0.0
28,-127,100,0.0
26,-113,91,0.0
26,-111,91,0.0
24,-103,86,0.0
4697,-19410,16666,0.0
4697,-19053,16727,0.0
4707,-18738,16820,0.0
4712,-18411,16895,0.0
4710,-18063,16946,0.0
4706,-17715,16992,0.0
4716,-17420,17081,0.0
4719,-17107,17148,0.0
4761,-16938,17358,0.0
4852,-16935,17743,0.0
4976,-17041,18255,0.0
5051,-16973,18588,0.0
5184,-17089,19137,0.0
5323,-17210,19707,0.0
5461,-17319,20281,0.0
8868,-27576,33025,1.0
0,0,0,0.0
9037,-27015,33853,1.0
0,0,0,0.0
0,0,0,0.0
0,0,0,0.0
0,0,0,0.0
0,0,0,0.0
0,0,0,0.0
0,0,0,0.0
0,0,0,0.0
0,0,0,0.0
0,0,0,0.0
0,0,0,0.0
0,0,0,0.0
0,0,0,0.0
0,0,0,0.0
0,0,0,0.0
0,0,0,0.0
0,0,0,0.0
0,0,0,0.0
0,0,0,0.0
0,0,0,0.0
0,0,0,0.0
0,0,0,0.0
0,0,0,0.0
0,0,0,0.0
9632,-16070,38542,1.0
0,0,0,0.0
0,0,0,0.0
0,0,0,0.0
0,0,0,0.0
0,0,0,0.0
0,0,0,0.0
0,0,0,0.0
0,0,0,0.0
0,0,0,0.0
0,0,0,0.0
0,0,0,0.0
0,0,0,0.0
0,0,0,0.0
0,0,0,0.0
0,0,0,0.0
0,0,0,0.0
0,0,0,0.0
0,0,0,0.0
0,0,0,0.0
41,-30,174,0.0
47,-32,197,0.0
40,-25,166,0.0
0,0,0,0.0
0,0,0,0.0
0,0,0,0.0
5296,-2359,22626,0.0
5013,-1996,21471,0.0
4687,-1644,20131,0.0
4763,-1444,20511,0.0
4761,-1216,20553,0.0
4754,-987,20583,0.0
4764,-760,20681,0.0
4759,-530,20716,0.0
4751,-298,20733,0.0
4751,-67,20795,0.0
4759,165,20885,0.0
4748,399,20896,0.0
4744,633,20936,0.0
4751,871,21023,0.0
4750,1109,21083,0.0
4746,1347,21123,0.0
4739,1587,21155,0.0
4739,1829,21217,0.0
4744,2076,21298,0.0
4731,2316,21304,0.0
4739,2569,21407,0.0
4743,2821,21488,0.0
4736,3070,21521,0.0
0,0,3,0.0
5,3,22,0.0
4,2,19,0.0
6,4,29,0.0
9,7,40,0.0
11,9,47,0.0
8,7,38,0.0
12,13,59,0.0
10,12,47,0.0
