//X,Y,Z,Classification
-103,1716,1844,0.0
0,0,0,0.0
-107,1625,1823,0.0
-96,1374,1576,0.0
-1975,26944,31586,0.0
0,0,0,0.0
-166,2060,2524,0.0
-2099,24906,31175,0.0
-1350,15333,19622,0.0
-1385,15053,19695,0.0
-1402,14600,19535,0.0
-118,1174,1607,0.0
-1537,14716,20602,0.0
-1598,14690,21042,0.0
-1635,14428,21147,0.0
-1675,14199,21301,0.0
-2402,19574,30065,0.0
-2473,19384,30487,0.0
-58,441,710,0.0
-2570,18632,30754,0.0
-161,1124,1901,0.0
0,0,0,0.0
-2906,18783,33404,0.0
-2346,14597,26632,0.0
-2416,14470,27092,0.0
-2486,14337,27557,0.0
-2520,13987,27614,0.0
-2540,13574,27536,0.0
-2558,13155,27435,0.0
-2601,12874,27614,0.0
-2628,12514,27621,0.0
-2619,11988,27244,0.0
-2545,11203,26231,0.0
-2640,11168,26959,0.0
-3009,12229,30454,0.0
-2897,11307,29069,0.0
-201,750,1994,0.0
-3244,11652,32005,0.0
-225,774,2202,0.0
-3287,10842,31926,0.0
-290,913,2789,0.0
-2279,6878,21807,0.0
-2285,6587,21705,0.0
-2303,6335,21728,0.0
-2314,6064,21676,0.0
-2323,5793,21615,0.0
-2329,5521,21535,0.0
-2340,5263,21505,0.0
-2349,5002,21452,0.0
-2357,4744,21396,0.0
-2368,4491,21361,0.0
-2377,4242,21332,0.0
-2379,3981,21232,0.0
-2390,3738,21209,0.0
-2394,3488,21143,0.0
-2401,3243,21090,0.0
-2408,3001,21047,0.0
-2415,2760,20999,0.0
-2421,2521,20953,0.0
-2427,2284,20904,0.0
-2434,2049,20869,0.0
-2441,1816,20848,0.0
-2443,1580,20768,0.0
-2447,1348,20715,0.0
-2453,1118,20674,0.0
-2459,891,20649,0.0
-2460,662,20577,0.0
-2464,435,20531,0.0
-2468,211,20486,0.0
-2473,-13,20462,0.0
-2474,-237,20382,0.0
-2476,-459,20334,0.0
-2476,-680,20268,0.0
-2600,-944,21216,0.0
-2744,-1239,22318,0.0
-263,-142,2133,0.0
-244,-153,1969,0.0
-254,-181,2045,0.0
0,0,0,0.0
-4151,-3683,33267,1.0
0,0,0,0.0
-294,-312,2341,0.0
0,0,0,0.0
-267,-329,2121,0.0
0,0,0,0.0
0,0,0,0.0
0,0,0,0.0
0,0,0,0.0
0,0,0,0.0
0,0,0,0.0
0,0,0,0.0
-237,-455,1847,0.0
-239,-478,1854,0.0
-255,-534,1978,0.0
-292,-637,2264,0.0
0,0,0,0.0
-319,-754,2469,0.0
0,0,0,0.0
0,0,0,0.0
0,0,0,0.0
-255,-695,1963,0.0
0,0,0,0.0
-250,-727,1919,0.0
-322,-966,2467,0.0
-357,-1107,2739,0.0
-327,-1041,2495,0.0
-296,-974,2264,0.0
0,0,0,0.0
-3936,-13710,30041,1.0
-292,-1046,2230,0.0
-278,-1022,2115,0.0
0,0,0,0.0
-262,-1019,1997,0.0
-3989,-15925,30373,1.0
-3985,-16331,30336,1.0
-235,-988,1788,0.0
0,0,0,0.0
-228,-1007,1733,0.0
0,0,0,0.0
-214,-994,1628,0.0
-266,-1268,2026,0.0
-3753,-18337,28586,1.0
-246,-1233,1878,0.0
-3672,-18836,27999,1.0
-277,-1455,2113,0.0
-238,-1282,1819,0.0
-3570,-19678,27276,1.0
-260,-1469,1990,0.0
-259,-1500,1987,0.0
-162,-960,1243,0.0
-228,-1382,1750,0.0
-2605,-16174,20021,0.0
-2529,-16088,19477,0.0
-2456,-15996,18941,0.0
-2393,-15957,18482,0.0
-2341,-15990,18117,0.0
-2291,-16031,17770,0.0
-2237,-16033,17388,0.0
-9,-59,63,0.0
-6,-45,47,0.0
-9,-65,67,0.0
-9,-72,72,0.0
-9,-76,73,0.0
-9,-78,75,0.0
-10,-83,77,0.0
-10,-82,75,0.0
-10,-90,80,0.0
-10,-95,82,0.0
-12,-114,97,0.0
-11,-107,90,0.0
-10,-102,82,0.0
-12,-117,93,0.0
-11,-115,90,0.0
-11,-123,94,0.0
-12,-133,99,0.0
-10,-117,85,0.0
-12,-139,98,0.0
-11,-143,99,0.0
-11,-144,98,0.0
-10,-128,85,0.0
-10,-134,86,0.0
-11,-153,97,0.0
-11,-156,96,0.0
-11,-167,101,0.0
-10,-152,89,0.0
-10,-171,98,0.0
-12,-187,104,0.0
-10,-183,100,0.0
-11,-200,107,0.0
-10,-190,98,0.0
-10,-195,98,0.0
-10,-200,98,0.0
-11,-215,103,0.0
-10,-224,104,0.0
-10,-235,106,0.0
-9,-227,99,0.0
-9,-242,103,0.0
-9,-241,100,0.0
-8,-241,97,0.0
-8,-253,98,0.0
-9,-292,109,0.0
-9,-326,119,0.0
-9,-332,117,0.0
-8,-338,115,0.0
-7,-331,108,0.0
-7,-334,105,0.0
-6,-338,104,0.0
-13,667,647,0.0
-373,16937,16794,0.0
-414,16744,16961,0.0
-419,15286,15817,0.0
-416,13786,14572,0.0
-525,15936,17209,0.0
-541,15107,16669,0.0
-592,15268,17213,0.0
-622,14914,17180,0.0
-1205,26918,31689,0.0
0,0,0,0.0
0,0,0,0.0
-1341,24700,31049,0.0
0,0,0,0.0
-120,1968,2586,0.0
-978,15173,20388,0.0
-995,14621,20095,0.0
-1031,14383,20221,0.0
-1113,14754,21223,0.0
-1138,14350,21122,0.0
-116,1395,2103,0.0
-1701,19468,30030,0.0
-1771,19342,30552,0.0
-1796,18732,30308,0.0
-1865,18587,30813,0.0
-94,900,1529,0.0
0,0,0,0.0
0,0,0,0.0
-1740,14532,26631,0.0
-1900,15192,28572,0.0
-1863,14275,27561,0.0
-1893,13895,27558,0.0
-1918,13491,27494,0.0
-1944,13103,27451,0.0
-1976,12764,27505,0.0
-2013,12460,27629,0.0
-2015,11955,27297,0.0
-2017,11467,26975,0.0
-2044,11129,26990,0.0
-2228,11618,29070,0.0
-2258,11273,29122,0.0
-2522,12046,32150,0.0
-145,661,1826,0.0
-199,870,2486,0.0
-163,681,2015,0.0
-115,457,1404,0.0
-1801,6844,21810,0.0
-1813,6561,21735,0.0
-1825,6290,21687,0.0
-1838,6025,21652,0.0
-1848,5755,21588,0.0
-1861,5493,21547,0.0
-1871,5232,21499,0.0
-1877,4960,21395,0.0
-1890,4711,21375,0.0
-1902,4463,21352,0.0
-1909,4205,21277,0.0
-1923,3965,21279,0.0
-1925,3706,21172,0.0
-1936,3466,21151,0.0
-1941,3217,21074,0.0
-1951,2980,21055,0.0
-1954,2732,20946,0.0
-1966,2501,20955,0.0
-1971,2262,20894,0.0
-1979,2029,20858,0.0
-1984,1794,20800,0.0
-1990,1562,20751,0.0
-1997,1332,20724,0.0
-2001,1102,20659,0.0
-2003,873,20593,0.0
-2012,648,20572,0.0
-2014,421,20508,0.0
-2023,198,20512,0.0
-2025,-26,20444,0.0
-2027,-248,20382,0.0
-2033,-470,20361,0.0
-2037,-692,20329,0.0
-2141,-958,21285,0.0
-2279,-1263,22576,0.0
-3364,-2221,33205,1.0
-3397,-2603,33420,1.0
-201,-176,1974,0.0
0,0,0,0.0
-270,-292,2630,0.0
-184,-218,1787,0.0
-209,-270,2031,0.0
-217,-304,2103,0.0
-195,-291,1878,0.0
0,0,0,0.0
-3561,-6079,34163,1.0
0,0,0,0.0
0,0,0,0.0
0,0,0,0.0
0,0,0,0.0
-204,-455,1937,0.0
0,0,0,0.0
0,0,0,0.0
0,0,0,0.0
0,0,0,0.0
-237,-653,2231,0.0
0,0,0,0.0
0,0,0,0.0
0,0,0,0.0
0,0,0,0.0
0,0,0,0.0
0,0,0,0.0
0,0,0,0.0
-255,-935,2393,0.0
-234,-883,2189,0.0
0,0,0,0.0
0,0,0,0.0
-172,-711,1609,0.0
-238,-1013,2225,0.0
-251,-1101,2351,0.0
0,0,0,0.0
-3303,-15327,30931,1.0
-3289,-15694,30820,1.0
0,0,0,0.0
0,0,0,0.0
-188,-972,1765,0.0
-238,-1266,2241,0.0
-217,-1187,2049,0.0
-194,-1084,1823,0.0
-181,-1039,1707,0.0
-216,-1277,2045,0.0
-195,-1182,1848,0.0
-226,-1411,2154,0.0
-154,-985,1469,0.0
-2927,-19176,27923,1.0
-2894,-19450,27673,1.0
-175,-1208,1680,0.0
-179,-1270,1727,0.0
-340,-2469,3279,0.0
0,0,0,0.0
-2120,-16213,20589,0.0
-2063,-16187,20101,0.0
-2000,-16106,19562,0.0
-1936,-16013,19022,0.0
-1874,-15910,18488,0.0
-1848,-16107,18311,0.0
-1791,-16042,17843,0.0
-1737,-15981,17391,0.0
-1720,-16262,17316,0.0
-4,-42,44,0.0
-6,-63,65,0.0
-6,-60,60,0.0
-6,-62,61,0.0
-7,-78,74,0.0
-8,-81,76,0.0
-7,-81,74,0.0
-8,-95,86,0.0
-7,-88,77,0.0
-8,-96,83,0.0
-8,-101,85,0.0
-7,-98,80,0.0
-7,-107,86,0.0
-8,-111,87,0.0
-9,-126,96,0.0
-8,-129,96,0.0
-7,-119,87,0.0
-8,-130,93,0.0
-8,-131,91,0.0
-8,-133,90,0.0
-6,-123,82,0.0
-7,-144,94,0.0
-7,-142,89,0.0
-6,-141,87,0.0
-7,-163,99,0.0
-6,-157,93,0.0
-6,-154,88,0.0
-6,-174,98,0.0
-7,-173,95,0.0
-6,-173,92,0.0
-6,-180,94,0.0
-5,-194,99,0.0
-5,-191,94,0.0
-5,-205,98,0.0
-5,-207,97,0.0
-5,-207,94,0.0
-4,-220,97,0.0
-4,-227,97,0.0
-4,-242,101,0.0
-4,-236,95,0.0
-3,-238,93,0.0
-3,-269,102,0.0
-3,-320,118,0.0
-2,-317,112,0.0
-1,-330,113,0.0
-1,-324,107,0.0
0,-329,104,0.0
0,-331,102,0.0
92,16567,16142,0.0
53,16315,16239,0.0
15,15372,15628,0.0
-21,16468,17104,0.0
-50,13627,14458,0.0
-81,13432,14560,0.0
-127,15042,16658,0.0
-168,15269,17278,0.0
-202,14930,17263,0.0
-237,14713,17384,0.0
-23,1205,1455,0.0
-23,1111,1371,0.0
-593,24547,30972,0.0
-37,1391,1794,0.0
-695,23347,30794,0.0
-747,22840,30806,0.0
-520,14563,20091,0.0
-580,14962,21116,0.0
-615,14678,21193,0.0
-645,14288,21113,0.0
-60,1233,1865,0.0
-1007,19438,30099,0.0
-1063,19223,30483,0.0
-47,809,1315,0.0
-1159,18521,30823,0.0
-1310,19732,33655,0.0
-101,1443,2525,0.0
-88,1188,2130,0.0
-1143,14554,26775,0.0
-1197,14443,27269,0.0
-1244,14234,27593,0.0
-1274,13849,27573,0.0
-1301,13427,27472,0.0
-1332,13073,27498,0.0
-1361,12700,27478,0.0
-1419,12596,28045,0.0
-1407,11886,27252,0.0
-1427,11483,27126,0.0
-1447,11083,26994,0.0
-1678,12233,30735,0.0
-1737,12055,31272,0.0
0,0,0,0.0
-142,892,2474,0.0
-1857,11111,31882,0.0
-1885,10727,31888,0.0
-1910,10336,31866,0.0
-1317,6768,21666,0.0
-1336,6518,21693,0.0
-1351,6254,21662,0.0
-1362,5978,21585,0.0
-1376,5716,21545,0.0
-1391,5463,21534,0.0
-1406,5210,21517,0.0
-1415,4944,21432,0.0
-1426,4685,21372,0.0
-1438,4437,21346,0.0
-1449,4187,21300,0.0
-1457,3931,21214,0.0
-1468,3687,21184,0.0
-1477,3441,21127,0.0
-1489,3203,21113,0.0
-1494,2955,21020,0.0
-1504,2718,20986,0.0
-1511,2482,20943,0.0
-1519,2245,20894,0.0
-1527,2011,20856,0.0
-1533,1777,20791,0.0
-1540,1547,20755,0.0
-1544,1315,20673,0.0
-1555,1089,20677,0.0
-1557,860,20598,0.0
-1563,635,20548,0.0
-1567,409,20494,0.0
-1569,185,20411,0.0
-1578,-36,20414,0.0
-1583,-258,20386,0.0
0,0,0,0.0
-1591,-699,20287,0.0
-1675,-965,21273,0.0
-1780,-1266,22502,0.0
-186,-158,2349,0.0
-170,-167,2135,0.0
-2685,-2992,33573,1.0
-200,-251,2503,0.0
0,0,0,0.0
-146,-220,1805,0.0
0,0,0,0.0
-159,-283,1956,0.0
-2818,-5377,34574,1.0
-177,-360,2162,0.0
-146,-318,1787,0.0
0,0,0,0.0
0,0,0,0.0
0,0,0,0.0
0,0,0,0.0
-173,-492,2095,0.0
0,0,0,0.0
0,0,0,0.0
-168,-543,2021,0.0
0,0,0,0.0
0,0,0,0.0
0,0,0,0.0
-178,-674,2132,0.0
0,0,0,0.0
-170,-693,2034,0.0
-193,-819,2321,0.0
-166,-729,1995,0.0
-160,-729,1929,0.0
-187,-874,2243,0.0
-187,-907,2253,0.0
-191,-956,2300,0.0
-178,-921,2151,0.0
-184,-978,2217,0.0
-169,-926,2038,0.0
-187,-1056,2260,0.0
-186,-1083,2252,0.0
-121,-725,1468,0.0
-157,-970,1909,0.0
-167,-1062,2037,0.0
-142,-934,1745,0.0
-141,-947,1723,0.0
0,0,0,0.0
-139,-993,1716,0.0
-2394,-17565,29616,1.0
-216,-1624,2674,0.0
-130,-1009,1621,0.0
-182,-1456,2283,0.0
-2279,-18729,28662,1.0
-145,-1224,1830,0.0
-2218,-19296,28174,1.0
-233,-2086,2977,0.0
-124,-1145,1596,0.0
-143,-1360,1853,0.0
-141,-1378,1837,0.0
-2027,-20376,26537,1.0
-1992,-20625,26267,1.0
-1518,-16188,20160,0.0
-1468,-16124,19641,0.0
-1416,-16043,19115,0.0
-1363,-15924,18561,0.0
-1338,-16127,18391,0.0
-1287,-16007,17859,0.0
-1246,-16003,17469,0.0
-4,-53,57,0.0
-4,-62,65,0.0
-5,-72,74,0.0
-5,-75,76,0.0
-4,-65,64,0.0
-6,-84,80,0.0
-5,-90,85,0.0
-4,-85,79,0.0
-6,-95,85,0.0
-5,-99,87,0.0
-5,-110,94,0.0
-6,-117,99,0.0
-5,-113,93,0.0
-5,-112,90,0.0
-5,-111,88,0.0
-5,-126,97,0.0
-5,-125,94,0.0
-5,-132,97,0.0
-5,-123,88,0.0
-4,-122,85,0.0
-5,-142,97,0.0
-4,-132,88,0.0
-4,-139,91,0.0
-4,-149,96,0.0
-3,-151,94,0.0
-4,-150,92,0.0
-3,-163,96,0.0
-3,-166,96,0.0
-3,-176,99,0.0
-2,-181,101,0.0
-2,-195,105,0.0
-2,-207,108,0.0
-2,-208,106,0.0
-1,-209,103,0.0
-1,-225,109,0.0
-1,-219,103,0.0
0,-225,103,0.0
0,-229,102,0.0
0,-239,103,0.0
0,-239,101,0.0
0,-250,101,0.0
1,-249,98,0.0
2,-264,101,0.0
3,-321,118,0.0
4,-330,118,0.0
4,-332,114,0.0
4,-338,113,0.0
5,-335,108,0.0
6,-337,104,0.0
1435,13457,13242,0.0
1408,13299,13367,0.0
1406,13376,13735,0.0
1388,13306,13956,0.0
1381,13330,14283,0.0
1356,13189,14438,0.0
1339,13108,14660,0.0
1313,12951,14800,0.0
1508,14968,17479,0.0
1508,15079,17994,0.0
1599,16106,19643,0.0
1363,13829,17241,0.0
1242,12687,16169,0.0
1226,12610,16430,0.0
1612,16697,22244,0.0
1472,15350,20914,0.0
1361,14296,19923,0.0
1342,14187,20225,0.0
1391,14806,21598,0.0
1706,18280,27289,0.0
1295,13964,21339,0.0
1454,15782,24691,0.0
81,894,1432,0.0
1446,15881,26064,0.0
1396,15432,25951,0.0
1363,15161,26132,0.0
1276,14268,25214,0.0
1299,14613,26484,0.0
1256,14209,26420,0.0
1209,13744,26229,0.0
1163,13288,26037,0.0
1125,12918,26000,0.0
1085,12518,25893,0.0
1124,13026,27701,0.0
1101,12810,28023,0.0
1096,12799,28817,0.0
1169,13696,31755,0.0
1117,13136,31384,0.0
53,629,1551,0.0
1047,12364,31426,0.0
1029,12169,31936,0.0
996,11792,31981,0.0
962,11395,31964,0.0
927,10978,31881,0.0
57,683,2057,0.0
585,6919,21595,0.0
566,6675,21636,0.0
546,6410,21601,0.0
526,6151,21579,0.0
506,5891,21550,0.0
487,5635,21522,0.0
469,5367,21445,0.0
451,5126,21459,0.0
433,4857,21354,0.0
416,4609,21326,0.0
401,4357,21266,0.0
385,4111,21233,0.0
369,3861,21160,0.0
354,3619,21127,0.0
341,3377,21078,0.0
327,3136,21029,0.0
314,2898,20982,0.0
301,2663,20948,0.0
289,2428,20903,0.0
278,2193,20835,0.0
267,1961,20782,0.0
257,1731,20742,0.0
247,1504,20719,0.0
237,1274,20623,0.0
227,1047,20565,0.0
219,823,20528,0.0
211,600,20502,0.0
203,378,20422,0.0
195,157,20433,0.0
188,-62,20399,0.0
182,-282,20352,0.0
176,-500,20284,0.0
172,-723,20386,0.0
174,-985,21291,0.0
181,-1295,22685,0.0
259,-2269,33389,1.0
0,0,0,0.0
250,-3027,33753,1.0
247,-3412,33926,1.0
16,-265,2380,0.0
0,0,0,0.0
19,-363,2716,0.0
0,0,0,0.0
0,0,0,0.0
14,-356,2135,0.0
12,-333,1876,0.0
16,-453,2398,0.0
0,0,0,0.0
0,0,0,0.0
0,0,0,0.0
0,0,0,0.0
0,0,0,0.0
0,0,0,0.0
0,0,0,0.0
17,-637,2278,0.0
23,-862,2956,0.0
14,-546,1802,0.0
16,-626,1988,0.0
0,0,0,0.0
302,-11498,33909,1.0
21,-846,2409,0.0
22,-849,2339,0.0
20,-801,2136,0.0
23,-872,2250,0.0
19,-729,1823,0.0
25,-962,2331,0.0
19,-745,1751,0.0
0,0,0,0.0
24,-875,1939,0.0
0,0,0,0.0
27,-959,2008,0.0
0,0,0,0.0
0,0,0,0.0
0,0,0,0.0
502,-16452,30935,1.0
34,-1105,2025,0.0
0,0,0,0.0
0,0,0,0.0
56,-1752,2978,0.0
40,-1239,2055,0.0
0,0,0,0.0
52,-1521,2403,0.0
0,0,0,0.0
61,-1731,2609,0.0
701,-19207,28277,1.0
63,-1704,2453,0.0
55,-1470,2067,0.0
54,-1435,1974,0.0
793,-20165,27094,1.0
66,-1651,2171,0.0
75,-1858,2386,0.0
675,-16258,20429,0.0
681,-16108,19799,0.0
693,-16090,19346,0.0
703,-16011,18834,0.0
713,-15984,18396,0.0
730,-16050,18075,0.0
744,-16074,17713,0.0
756,-16055,17313,0.0
784,-16352,17256,0.0
808,-16544,17087,0.0
841,-16947,17129,0.0
871,-17265,17078,0.0
903,-17581,17019,0.0
3,-79,75,0.0
3,-76,70,0.0
3,-77,70,0.0
5,-103,92,0.0
4,-95,83,0.0
5,-99,84,0.0
5,-104,86,0.0
5,-104,85,0.0
6,-113,89,0.0
5,-99,78,0.0
7,-123,93,0.0
6,-121,91,0.0
7,-125,91,0.0
9,-145,102,0.0
8,-135,94,0.0
1550,-23380,15884,0.0
1593,-23675,15715,0.0
9,-138,89,0.0
8,-138,87,0.0
10,-150,93,0.0
11,-161,98,0.0
11,-173,102,0.0
12,-178,102,0.0
12,-180,101,0.0
12,-178,97,0.0
14,-194,103,0.0
16,-210,109,0.0
14,-195,97,0.0
16,-206,101,0.0
17,-218,104,0.0
19,-230,107,0.0
19,-244,110,0.0
20,-245,106,0.0
21,-254,109,0.0
21,-254,104,0.0
22,-258,104,0.0
23,-266,103,0.0
26,-294,110,0.0
28,-317,116,0.0
29,-324,114,0.0
30,-329,112,0.0
30,-321,105,0.0
31,-332,105,0.0
2102,13321,13132,0.0
2091,13249,13342,0.0
2107,13351,13734,0.0
2086,13217,13889,0.0
2184,13834,14851,0.0
2075,13128,14398,0.0
2073,13109,14690,0.0
2382,15048,17229,0.0
2320,14632,17120,0.0
2101,13239,15831,0.0
1903,11973,14632,0.0
2140,13434,16781,0.0
2158,13516,17259,0.0
2163,13518,17649,0.0
2169,13517,18045,0.0
2180,13544,18493,0.0
2192,13568,18947,0.0
2193,13532,19332,0.0
2190,13451,19663,0.0
2187,13376,20012,0.0
2196,13372,20478,0.0
2559,15503,24307,0.0
2185,13169,21147,0.0
2136,12796,21048,0.0
170,1012,1705,0.0
101,598,1034,0.0
1993,11705,20731,0.0
1990,11598,21068,0.0
1992,11511,21453,0.0
2390,13697,26200,0.0
2328,13220,25966,0.0
2279,12813,25852,0.0
2029,11291,23411,0.0
2187,12040,25667,0.0
2053,11167,24489,0.0
2090,11228,25341,0.0
2071,10983,25529,0.0
2057,10753,25754,0.0
2037,10498,25926,0.0
2026,10276,26186,0.0
2453,12237,32200,0.0
2405,11789,32055,0.0
129,626,1762,0.0
95,452,1319,0.0
2276,10511,31713,0.0
2235,10100,31608,0.0
70,315,1025,0.0
1486,6399,21624,0.0
1458,6116,21516,0.0
1438,5861,21502,0.0
1416,5602,21461,0.0
1395,5346,21419,0.0
1375,5092,21382,0.0
1352,4829,21294,0.0
1337,4593,21317,0.0
1315,4333,21222,0.0
1297,4085,21165,0.0
1279,3839,21111,0.0
1261,3594,21050,0.0
1247,3359,21039,0.0
1231,3119,20987,0.0
1216,2883,20950,0.0
1200,2645,20883,0.0
1184,2407,20799,0.0
1174,2181,20807,0.0
1161,1951,20763,0.0
1147,1719,20691,0.0
1137,1494,20680,0.0
1124,1265,20595,0.0
1112,1039,20533,0.0
1106,819,20571,0.0
1092,593,20443,0.0
1084,373,20409,0.0
1076,152,20376,0.0
1070,-66,20362,0.0
1062,-285,20312,0.0
1055,-502,20272,0.0
1053,-723,20326,0.0
1095,-984,21222,0.0
1173,-1302,22785,0.0
128,-171,2511,0.0
108,-167,2128,0.0
112,-198,2211,0.0
0,0,0,0.0
1697,-3708,33280,1.0
0,0,0,0.0
0,0,0,0.0
1713,-4850,33622,1.0
112,-345,2222,0.0
110,-361,2169,0.0
183,-639,3602,0.0
1750,-6435,34139,1.0
0,0,0,0.0
0,0,0,0.0
0,0,0,0.0
0,0,0,0.0
0,0,0,0.0
167,-818,3197,0.0
102,-525,1963,0.0
0,0,0,0.0
0,0,0,0.0
0,0,0,0.0
145,-850,2705,0.0
94,-564,1732,0.0
0,0,0,0.0
119,-761,2172,0.0
124,-810,2236,0.0
111,-739,1976,0.0
0,0,0,0.0
0,0,0,0.0
141,-1005,2442,0.0
124,-900,2120,0.0
0,0,0,0.0
0,0,0,0.0
120,-917,1980,0.0
133,-1028,2159,0.0
133,-1045,2134,0.0
117,-935,1858,0.0
0,0,0,0.0
0,0,0,0.0
2024,-16650,30587,1.0
145,-1212,2171,0.0
0,0,0,0.0
113,-963,1642,0.0
2076,-17758,29519,1.0
0,0,0,0.0
2102,-18263,28930,1.0
2118,-18529,28663,1.0
2139,-18829,28449,1.0
174,-1550,2289,0.0
169,-1512,2182,0.0
152,-1369,1929,0.0
127,-1151,1587,0.0
2216,-19983,26923,1.0
2238,-20261,26692,1.0
2240,-20332,26196,1.0
1789,-16285,20522,0.0
1773,-16176,19939,0.0
1763,-16109,19425,0.0
1749,-16005,18882,0.0
1738,-15932,18391,0.0
1757,-16115,18201,0.0
1747,-16024,17710,0.0
1745,-16016,17322,0.0
1772,-16261,17212,0.0
1806,-16562,17156,0.0
1843,-16890,17122,0.0
1879,-17195,17061,0.0
1913,-17492,16985,0.0
1953,-17829,16942,0.0
1992,-18156,16884,0.0
2032,-18483,16820,0.0
2072,-18808,16751,0.0
2115,-19152,16690,0.0
2161,-19510,16635,0.0
10,-100,83,0.0
2250,-20202,16488,0.0
2297,-20557,16410,0.0
10,-97,75,0.0
11,-108,82,0.0
12,-107,81,0.0
12,-115,84,0.0
14,-125,89,0.0
2614,-22862,15948,0.0
2672,-23273,15865,0.0
2713,-23519,15665,0.0
227,-1960,1274,0.0
230,-1982,1259,0.0
15,-136,84,0.0
17,-150,90,0.0
18,-158,93,0.0
18,-157,91,0.0
20,-168,94,0.0
20,-172,94,0.0
21,-180,96,0.0
22,-188,97,0.0
23,-195,99,0.0
25,-212,104,0.0
27,-221,106,0.0
27,-228,106,0.0
29,-235,106,0.0
30,-249,110,0.0
30,-248,106,0.0
31,-249,103,0.0
32,-255,103,0.0
32,-257,100,0.0
35,-275,104,0.0
40,-304,111,0.0
41,-320,113,0.0
40,-311,106,0.0
42,-320,106,0.0
41,-308,98,0.0
-3808,16032,14689,0.0
-3885,15971,14950,0.0
-3968,15922,15228,0.0
-4047,15859,15497,0.0
-4130,15803,15777,0.0
-4213,15735,16051,0.0
-4290,15644,16306,0.0
-4221,15029,16007,0.0
-4416,15348,16705,0.0
-4439,15063,16756,0.0
-4432,14681,16690,0.0
-75,245,284,0.0
-4840,15276,18145,0.0
-4934,15200,18459,0.0
-5031,15121,18776,0.0
-5129,15045,19102,0.0
-5105,14608,18971,0.0
-5250,14656,19469,0.0
-5250,14297,19430,0.0
-5262,13975,19435,0.0
-97,254,361,0.0
-102,259,377,0.0
-106,262,391,0.0
-6001,14387,21983,0.0
-6703,15654,24503,0.0
-6687,15211,24398,0.0
-6681,14795,24324,0.0
-6492,13994,23589,0.0
-6665,13979,24169,0.0
-6478,13218,23448,0.0
-6642,13176,23990,0.0
-6671,12865,24052,0.0
-9159,17158,32953,0.0
-9193,16726,33013,0.0
-9228,16298,33076,0.0
-9244,15839,33067,0.0
-807,1342,2884,0.0
-8532,13740,30405,0.0
-8481,13229,30167,0.0
-450,680,1600,0.0
-8609,12571,30501,0.0
-8689,12264,30725,0.0
-8975,12234,31677,0.0
-645,848,2272,0.0
-70,89,249,0.0
-80,98,283,0.0
-146,173,517,0.0
0,0,0,0.0
-627,680,2191,0.0
-9041,9397,31489,0.0
-6873,6839,23892,0.0
-846,804,2938,0.0
0,0,0,0.0
-7129,6160,24641,0.0
-7131,5856,24600,0.0
-7110,5537,24483,0.0
-7123,5247,24480,0.0
-7110,4940,24389,0.0
-7105,4641,24322,0.0
-7105,4348,24275,0.0
-6867,3921,23418,0.0
-6621,3513,22535,0.0
-6667,3268,22647,0.0
-6715,3022,22764,0.0
-6767,2776,22895,0.0
-6707,2486,22648,0.0
-6740,2233,22714,0.0
-6717,1962,22591,0.0
-6742,1707,22630,0.0
-6739,1445,22571,0.0
-6730,1184,22497,0.0
-6719,925,22415,0.0
-6711,667,22344,0.0
-6719,413,22325,0.0
-6989,165,23173,0.0
-6862,-96,22702,0.0
-6990,-360,23077,0.0
-7003,-623,23071,0.0
-7001,-884,23019,0.0
-6985,-1141,22917,0.0
-6946,-1392,22741,0.0
-6480,-1538,21165,0.0
-6739,-1848,21967,0.0
-6746,-2098,21941,0.0
-6484,-2254,21041,0.0
-6957,-2673,22526,0.0
-6949,-2924,22450,0.0
-6947,-3177,22393,0.0
-6929,-3421,22284,0.0
-6865,-3639,22025,0.0
-6922,-3921,22156,0.0
-6916,-4169,22085,0.0
-6926,-4426,22067,0.0
-6928,-4680,22022,0.0
-6922,-4926,21949,0.0
-6925,-5180,21907,0.0
-6933,-5438,21878,0.0
-6934,-5688,21825,0.0
-6937,-5943,21780,0.0
-6927,-6186,21693,0.0
-6923,-6434,21626,0.0
-6923,-6686,21569,0.0
-6919,-6935,21501,0.0
-6914,-7182,21430,0.0
-6658,-7161,20586,0.0
-6461,-7184,19918,0.0
-6466,-7429,19883,0.0
-6468,-7668,19831,0.0
-6956,-8504,21271,0.0
-6957,-8764,21216,0.0
-6973,-9040,21200,0.0
-6855,-9144,20785,0.0
-6836,-9374,20666,0.0
-6849,-9648,20643,0.0
-6791,-9822,20408,0.0
-6771,-10048,20285,0.0
-6820,-10381,20372,0.0
-6809,-10623,20274,0.0
-6795,-10861,20168,0.0
-6812,-11150,20153,0.0
-6827,-11439,20134,0.0
-6862,-11764,20171,0.0
-6845,-12003,20055,0.0
-6849,-12278,19997,0.0
-6880,-12604,20018,0.0
-6885,-12889,19964,0.0
-6896,-13185,19925,0.0
-6912,-13495,19901,0.0
-7106,-14161,20385,0.0
-7130,-14498,20375,0.0
-7137,-14808,20321,0.0
-7132,-15093,20229,0.0
-6861,-14805,19382,0.0
-6883,-15143,19371,0.0
-7158,-16052,20062,0.0
-7167,-16379,20006,0.0
-7201,-16766,20014,0.0
-7213,-17108,19963,0.0
-7233,-17472,19931,0.0
-7248,-17831,19885,0.0
-7260,-18185,19827,0.0
-7275,-18552,19777,0.0
-7272,-18876,19677,0.0
-7292,-19266,19638,0.0
-7154,-19233,19171,0.0
-7312,-20003,19498,0.0
-22,-64,62,0.0
-22,-66,61,0.0
-20,-57,53,0.0
-26,-80,71,0.0
-24,-74,65,0.0
-24,-76,64,0.0
-26,-84,70,0.0
-29,-92,75,0.0
-30,-99,79,0.0
-28,-95,73,0.0
-32,-107,81,0.0
-32,-108,81,0.0
-31,-107,78,0.0
-33,-119,84,0.0
-31,-109,75,0.0
-33,-123,84,0.0
-31,-114,75,0.0
-35,-130,84,0.0
-32,-122,77,0.0
-37,-145,88,0.0
-36,-144,86,0.0
-38,-150,88,0.0
-36,-148,84,0.0
-39,-164,91,0.0
-39,-164,88,0.0
-41,-173,92,0.0
-42,-181,93,0.0
-43,-192,96,0.0
-41,-185,90,0.0
-44,-199,93,0.0
-44,-204,94,0.0
-45,-216,96,0.0
-48,-230,100,0.0
-47,-230,97,0.0
-46,-230,93,0.0
-47,-243,96,0.0
-49,-249,95,0.0
-58,-307,114,0.0
-62,-332,118,0.0
-60,-329,113,0.0
-58,-322,107,0.0
-58,-329,106,0.0
-58,-334,103,0.0
-56,-325,97,0.0
-55,-330,94,0.0
-55,-334,92,0.0
-2650,15930,14954,0.0
-2693,15737,15090,0.0
-209,1188,1163,0.0
-4092,22622,22641,0.0
-3023,16254,16620,0.0
-3030,15851,16559,0.0
-3071,15628,16681,0.0
-3135,15527,16935,0.0
-3204,15441,17209,0.0
-3271,15341,17471,0.0
-3352,15300,17809,0.0
-3354,14900,17727,0.0
-3378,14603,17759,0.0
-3499,14723,18305,0.0
-3674,15045,19126,0.0
-3755,14968,19457,0.0
-3841,14896,19806,0.0
-3927,14820,20156,0.0
-3998,14681,20429,0.0
-4048,14464,20596,0.0
-4060,14114,20568,0.0
-4074,13776,20553,0.0
-4372,14375,21960,0.0
-4471,14296,22369,0.0
-4574,14220,22794,0.0
-4677,14134,23217,0.0
-4780,14036,23634,0.0
-4888,13944,24075,0.0
-4993,13835,24502,0.0
-5097,13712,24919,0.0
-5222,13636,25437,0.0
-5249,13300,25480,0.0
-5244,12888,25366,0.0
-5584,13307,26917,0.0
-5711,13191,27439,0.0
-5846,13079,27992,0.0
-5946,12879,28377,0.0
-6093,12771,28983,0.0
-6172,12511,29264,0.0
-6307,12356,29808,0.0
-6544,12383,30832,0.0
-6725,12283,31588,0.0
-6815,12005,31912,0.0
-6875,11669,32093,0.0
-6859,11209,31925,0.0
-6878,10812,31919,0.0
-6880,10391,31835,0.0
-4742,6875,21882,0.0
-4744,6593,21829,0.0
-4741,6308,21752,0.0
-4741,6029,21689,0.0
-4749,5764,21666,0.0
-4751,5495,21618,0.0
-4753,5226,21565,0.0
-4748,4955,21487,0.0
-4762,4705,21490,0.0
-4759,4441,21420,0.0
-4748,4173,21315,0.0
-4757,3923,21301,0.0
-4759,3671,21252,0.0
-4757,3417,21193,0.0
-4762,3170,21160,0.0
-4752,2916,21059,0.0
-4759,2674,21039,0.0
-4766,2433,21018,0.0
-4751,2184,20900,0.0
-4767,1950,20917,0.0
-4762,1708,20846,0.0
-4764,1471,20803,0.0
-4764,1235,20755,0.0
-4769,1001,20725,0.0
-4772,767,20686,0.0
-4772,534,20640,0.0
-4769,303,20580,0.0
-4774,72,20554,0.0
-4771,-156,20487,0.0
-4761,-384,20401,0.0
-4761,-610,20349,0.0
-4902,-862,20906,0.0
-5190,-1158,22080,0.0
-5207,-1408,22101,0.0
-5198,-1650,22011,0.0
-5205,-1896,21989,0.0
-309,-127,1302,0.0
-5202,-2381,21876,0.0
-5194,-2619,21793,0.0
-5199,-2863,21760,0.0
-5200,-3105,21717,0.0
-5202,-3348,21679,0.0
-5199,-3587,21612,0.0
-5205,-3832,21591,0.0
-5222,-4086,21607,0.0
-5236,-4339,21619,0.0
-5226,-4573,21528,0.0
-5232,-4821,21504,0.0
-5247,-5078,21517,0.0
-5234,-5307,21409,0.0
-5220,-5534,21306,0.0
-5236,-5794,21321,0.0
-5229,-6028,21241,0.0
-5234,-6279,21217,0.0
-5231,-6520,21154,0.0
-5228,-6759,21090,0.0
-5220,-6994,21008,0.0
-5249,-7279,21074,0.0
-5245,-7520,21007,0.0
-5245,-7768,20956,0.0
-5242,-8014,20900,0.0
-5240,-8259,20838,0.0
-5250,-8526,20829,0.0
-5247,-8773,20766,0.0
-5247,-9027,20716,0.0
-5240,-9267,20635,0.0
-5249,-9540,20621,0.0
-5236,-9772,20519,0.0
-5244,-10047,20502,0.0
-5252,-10323,20482,0.0
-5241,-10561,20385,0.0
-5250,-10843,20369,0.0
-5249,-11105,20313,0.0
-5246,-11367,20250,0.0
-5251,-11643,20212,0.0
-5260,-11935,20194,0.0
-5238,-12158,20057,0.0
-5259,-12483,20085,0.0
-5271,-12791,20078,0.0
-5265,-13055,19999,0.0
-5244,-13284,19863,0.0
-5252,-13591,19839,0.0
-5248,-13868,19769,0.0
-5277,-14236,19821,0.0
-5273,-14520,19749,0.0
-5258,-14776,19636,0.0
-5269,-15104,19615,0.0
-5264,-15395,19541,0.0
-5273,-15731,19519,0.0
-5262,-16007,19416,0.0
-5148,-15967,18935,0.0
-5048,-15961,18508,0.0
-4972,-16027,18173,0.0
-4882,-16036,17782,0.0
-4795,-16051,17408,0.0
-4777,-16298,17288,0.0
-18,-60,62,0.0
-16,-56,57,0.0
-21,-76,76,0.0
-23,-84,82,0.0
-25,-92,88,0.0
-24,-90,84,0.0
-25,-97,88,0.0
-27,-109,97,0.0
-24,-99,86,0.0
-23,-94,80,0.0
-23,-95,79,0.0
-23,-97,78,0.0
-26,-112,89,0.0
-26,-115,89,0.0
-28,-127,96,0.0
-26,-120,89,0.0
-26,-123,89,0.0
-25,-120,86,0.0
-29,-140,97,0.0
-29,-141,95,0.0
-28,-142,93,0.0
-26,-133,86,0.0
-26,-136,85,0.0
-28,-147,90,0.0
-29,-155,93,0.0
-30,-162,94,0.0
-31,-171,97,0.0
-30,-170,94,0.0
-29,-168,91,0.0
-31,-181,95,0.0
-31,-187,95,0.0
-31,-188,94,0.0
-32,-199,97,0.0
-32,-208,99,0.0
-32,-213,98,0.0
-32,-220,98,0.0
-31,-216,94,0.0
-32,-223,94,0.0
-32,-235,95,0.0
-32,-237,94,0.0
-33,-247,94,0.0
-41,-311,115,0.0
-42,-327,117,0.0
-41,-326,113,0.0
-41,-329,110,0.0
-40,-332,107,0.0
-40,-335,104,0.0
-38,-330,99,0.0
-38,-334,96,0.0
0,0,0,0.0
-80,1355,1334,0.0
-911,14445,14536,0.0
-946,14279,14678,0.0
-2132,30620,32156,0.0
-2190,29968,32152,0.0
-88,1151,1262,0.0
-2273,28377,31782,0.0
0,0,0,0.0
-154,1761,2058,0.0
-2396,26250,31376,0.0
0,0,0,0.0
-1531,15435,19276,0.0
-1560,15109,19290,0.0
-1581,14706,19197,0.0
-1693,15146,20218,0.0
-1740,14977,20448,0.0
-1748,14471,20211,0.0
-1830,14591,20849,0.0
-1884,14466,21154,0.0
-1920,14208,21267,0.0
-2761,19682,30159,0.0
-2827,19428,30486,0.0
-2864,18972,30493,0.0
0,0,0,0.0
-2960,18229,30765,0.0
-185,1097,1896,0.0
-183,1047,1857,0.0
-2649,14629,26627,0.0
-2740,14597,27264,0.0
-2803,14394,27602,0.0
-2833,14028,27627,0.0
-2851,13608,27539,0.0
-2869,13197,27454,0.0
-2924,12963,27737,0.0
-2949,12595,27730,0.0
-2922,12012,27233,0.0
-2825,11179,26109,0.0
-2969,11306,27222,0.0
-3390,12417,30843,0.0
-3498,12318,31586,0.0
-3588,12133,32144,0.0
-3598,11683,32004,0.0
-3621,11283,31986,0.0
-53,158,466,0.0
-51,144,439,0.0
-2518,6896,21804,0.0
-255,667,2193,0.0
-2538,6345,21700,0.0
-2550,6080,21668,0.0
-2560,5811,21619,0.0
-2570,5549,21582,0.0
-2580,5288,21541,0.0
-2585,5022,21466,0.0
-2593,4763,21418,0.0
-2601,4507,21367,0.0
-2609,4255,21321,0.0
-2618,4006,21285,0.0
-2623,3754,21225,0.0
-2629,3505,21171,0.0
-2635,3260,21124,0.0
-2643,3020,21096,0.0
-2640,2769,20976,0.0
-2650,2533,20960,0.0
-2655,2294,20903,0.0
-2660,2058,20861,0.0
-2668,1826,20840,0.0
-2669,1589,20761,0.0
-2671,1357,20702,0.0
-2677,1127,20661,0.0
-2687,900,20666,0.0
-2688,671,20595,0.0
-2692,444,20558,0.0
-2697,218,20517,0.0
-2700,-7,20475,0.0
-2698,-230,20392,0.0
-2703,-453,20361,0.0
-2705,-676,20315,0.0
-2841,-941,21268,0.0
-3023,-1247,22561,0.0
-4359,-2151,32440,1.0
0,0,0,0.0
-4434,-2899,32803,1.0
-4449,-3265,32828,1.0
0,0,0,0.0
0,0,0,0.0
0,0,0,0.0
0,0,0,0.0
-449,-508,3275,0.0
0,0,0,0.0
-4518,-5827,32757,1.0
-4522,-6190,32708,1.0
0,0,0,0.0
0,0,0,0.0
0,0,0,0.0
-355,-601,2551,0.0
0,0,0,0.0
0,0,0,0.0
0,0,0,0.0
0,0,0,0.0
-324,-676,2300,0.0
0,0,0,0.0
0,0,0,0.0
0,0,0,0.0
-263,-636,1859,0.0
-309,-772,2178,0.0
-301,-776,2118,0.0
-249,-665,1753,0.0
0,0,0,0.0
-322,-913,2255,0.0
0,0,0,0.0
-310,-934,2170,0.0
-295,-915,2062,0.0
0,0,0,0.0
0,0,0,0.0
-247,-835,1727,0.0
-403,-1396,2809,0.0
0,0,0,0.0
-298,-1089,2076,0.0
-312,-1169,2170,0.0
-247,-949,1716,0.0
-264,-1041,1834,0.0
-4242,-17146,29449,1.0
-253,-1048,1756,0.0
-285,-1209,1977,0.0
-285,-1240,1978,0.0
-280,-1251,1947,0.0
-335,-1528,2322,0.0
-4017,-18767,27853,1.0
-251,-1198,1738,0.0
-239,-1170,1656,0.0
-3911,-19599,27124,1.0
-284,-1455,1968,0.0
-3822,-20058,26518,1.0
-281,-1505,1947,0.0
-2967,-16308,20608,0.0
-2864,-16108,19906,0.0
-2796,-16091,19447,0.0
-2710,-15959,18864,0.0
-2646,-15940,18430,0.0
-2595,-15998,18094,0.0
-2540,-16025,17730,0.0
-2486,-16050,17373,0.0
-9,-59,63,0.0
-10,-64,66,0.0
-11,-73,73,0.0
-12,-79,79,0.0
-12,-83,80,0.0
-11,-85,81,0.0
-10,-80,74,0.0
-12,-96,87,0.0
-12,-95,85,0.0
-13,-108,94,0.0
-14,-116,99,0.0
-13,-114,96,0.0
-13,-114,93,0.0
-12,-116,92,0.0
-13,-125,97,0.0
-14,-131,100,0.0
-13,-135,101,0.0
-13,-133,96,0.0
-13,-128,91,0.0
-13,-139,97,0.0
-13,-141,95,0.0
-13,-149,98,0.0
-13,-151,98,0.0
-13,-164,103,0.0
-13,-161,99,0.0
-13,-163,98,0.0
-13,-163,96,0.0
-13,-174,100,0.0
-13,-184,103,0.0
-12,-183,100,0.0
-14,-209,111,0.0
-13,-201,103,0.0
-14,-220,110,0.0
-14,-231,113,0.0
-13,-222,106,0.0
-13,-234,108,0.0
-13,-237,106,0.0
-11,-233,102,0.0
-12,-249,105,0.0
-11,-242,99,0.0
-11,-250,100,0.0
-11,-264,102,0.0
-12,-308,115,0.0
-12,-320,116,0.0
-12,-333,117,0.0
-12,-331,112,0.0
-11,-334,109,0.0
-10,-338,107,0.0
-9,-341,103,0.0
845,15131,14831,0.0
800,14727,14746,0.0
757,14337,14663,0.0
689,13427,14027,0.0
674,13546,14457,0.0
635,13194,14386,0.0
611,13130,14629,0.0
585,13015,14816,0.0
561,12938,15050,0.0
534,12829,15249,0.0
507,12676,15400,0.0
628,16404,20370,0.0
593,16221,20589,0.0
553,15893,20624,0.0
510,15410,20447,0.0
482,15422,20926,0.0
422,14320,19875,0.0
393,14242,20221,0.0
381,14840,21558,0.0
335,14095,20954,0.0
305,13999,21304,0.0
318,16078,25049,0.0
280,15807,25221,0.0
243,15521,25367,0.0
207,15255,25545,0.0
170,14963,25680,0.0
135,14713,25888,0.0
99,14462,26099,0.0
64,14104,26112,0.0
28,13721,26072,0.0
-4,13368,26078,0.0
-36,12659,25367,0.0
-72,12953,26673,0.0
-104,12654,26791,0.0
-135,12219,26608,0.0
-168,12048,27002,0.0
-200,11757,27134,0.0
-226,11229,26704,0.0
-258,11019,27019,0.0
-19,727,1840,0.0
-15,473,1237,0.0
-404,11869,32038,0.0
0,0,0,0.0
-462,11021,31845,0.0
-490,10599,31734,0.0
-520,10221,31743,0.0
-375,6744,21749,0.0
-392,6462,21665,0.0
-410,6205,21657,0.0
-425,5919,21536,0.0
-442,5660,21505,0.0
-459,5414,21510,0.0
-474,5155,21461,0.0
-487,4885,21358,0.0
-502,4634,21318,0.0
-516,4388,21292,0.0
-529,4144,21268,0.0
-541,3889,21187,0.0
-553,3642,21125,0.0
-566,3405,21108,0.0
-577,3162,21054,0.0
-587,2919,20978,0.0
-598,2682,20938,0.0
-608,2447,20903,0.0
-618,2213,20852,0.0
-626,1979,20792,0.0
-637,1753,20798,0.0
-644,1520,20712,0.0
-652,1290,20653,0.0
-659,1065,20630,0.0
-666,838,20565,0.0
-675,615,20565,0.0
0,0,0,0.0
-686,168,20455,0.0
0,0,0,0.0
-696,-272,20297,0.0
-701,-491,20255,0.0
-709,-713,20317,0.0
-748,-976,21231,0.0
-813,-1303,22933,0.0
-78,-148,2187,0.0
-72,-159,2019,0.0
-1232,-3045,34024,1.0
-1246,-3440,34239,1.0
0,0,0,0.0
0,0,0,0.0
0,0,0,0.0
0,0,0,0.0
0,0,0,0.0
-98,-433,2602,0.0
0,0,0,0.0
0,0,0,0.0
-81,-433,2162,0.0
-86,-484,2285,0.0
-84,-497,2232,0.0
-90,-558,2378,0.0
0,0,0,0.0
-125,-849,3303,0.0
-78,-558,2077,0.0
0,0,0,0.0
-93,-720,2467,0.0
0,0,0,0.0
-87,-733,2322,0.0
-78,-685,2093,0.0
-66,-601,1771,0.0
-98,-932,2649,0.0
-83,-821,2257,0.0
0,0,0,0.0
-75,-800,2056,0.0
-75,-838,2088,0.0
0,0,0,0.0
-67,-794,1861,0.0
-80,-997,2270,0.0
0,0,0,0.0
-82,-1105,2374,0.0
0,0,0,0.0
-63,-913,1855,0.0
0,0,0,0.0
-63,-994,1915,0.0
-98,-1607,3012,0.0
0,0,0,0.0
-82,-1457,2595,0.0
-63,-1152,2000,0.0
0,0,0,0.0
-58,-1171,1936,0.0
-871,-18301,29511,1.0
-843,-18545,29194,1.0
-816,-18800,28901,1.0
-790,-19074,28639,1.0
-59,-1490,2186,0.0
-49,-1301,1866,0.0
-60,-1695,2375,0.0
-44,-1321,1808,0.0
-639,-20160,26985,1.0
-41,-1382,1809,0.0
-63,-2241,2868,0.0
-426,-16237,20323,0.0
-395,-16136,19756,0.0
-365,-16049,19220,0.0
-336,-15966,18706,0.0
-310,-16042,18389,0.0
-282,-15995,17939,0.0
-255,-16038,17601,0.0
-230,-16132,17325,0.0
-207,-16409,17244,0.0
-183,-16683,17157,0.0
0,-61,61,0.0
-1,-79,78,0.0
-1,-65,62,0.0
0,-78,74,0.0
0,-76,70,0.0
0,-81,72,0.0
0,-87,77,0.0
0,-90,78,0.0
0,-81,68,0.0
0,-107,89,0.0
0,-86,70,0.0
0,-115,92,0.0
0,-112,87,0.0
0,-120,91,0.0
0,-107,80,0.0
1,-127,92,0.0
1,-121,86,0.0
1,-128,89,0.0
1,-121,82,0.0
2,-122,80,0.0
2,-134,86,0.0
2,-133,83,0.0
3,-142,87,0.0
3,-150,90,0.0
3,-153,89,0.0
4,-163,93,0.0
4,-169,94,0.0
5,-178,96,0.0
5,-192,101,0.0
5,-191,98,0.0
6,-197,99,0.0
7,-201,98,0.0
7,-209,98,0.0
8,-224,103,0.0
8,-223,99,0.0
9,-225,98,0.0
9,-228,96,0.0
9,-235,97,0.0
10,-240,96,0.0
10,-238,92,0.0
14,-293,109,0.0
16,-316,114,0.0
16,-320,112,0.0
16,-325,109,0.0
17,-326,105,0.0
18,-320,101,0.0
1765,13358,13160,0.0
1748,13263,13347,0.0
1756,13365,13739,0.0
1739,13268,13933,0.0
1708,13064,14016,0.0
1707,13092,14349,0.0
1687,12963,14516,0.0
1668,12850,14702,0.0
1630,12588,14717,0.0
1579,12216,14596,0.0
1556,12049,14714,0.0
1632,12660,15802,0.0
1622,12602,16081,0.0
1612,12536,16353,0.0
1603,12474,16641,0.0
1591,12398,16915,0.0
1583,12333,17209,0.0
1572,12251,17489,0.0
1563,12182,17793,0.0
1554,12114,18108,0.0
1546,12043,18428,0.0
1538,11964,18744,0.0
1529,11883,19065,0.0
1521,11806,19403,0.0
1514,11726,19746,0.0
1507,11637,20086,0.0
1499,11552,20442,0.0
1493,11471,20820,0.0
1488,11384,21199,0.0
1483,11311,21617,0.0
1477,11208,21993,0.0
1473,11129,22434,0.0
1469,11031,22851,0.0
1465,10939,23297,0.0
1464,10857,23786,0.0
1465,10788,24326,0.0
1559,11383,26433,0.0
1521,11015,26355,0.0
1451,10414,25694,0.0
1673,11881,30244,0.0
1644,11551,30363,0.0
1700,11796,32043,0.0
1658,11359,31914,0.0
1621,10944,31830,0.0
1584,10536,31753,0.0
1546,10119,31635,0.0
0,0,0,0.0
1014,6392,21576,0.0
993,6135,21561,0.0
971,5868,21502,0.0
952,5617,21492,0.0
932,5358,21445,0.0
913,5103,21402,0.0
892,4840,21315,0.0
875,4593,21288,0.0
858,4347,21260,0.0
843,4103,21231,0.0
824,3850,21146,0.0
810,3611,21122,0.0
794,3371,21081,0.0
780,3132,21041,0.0
765,2891,20973,0.0
752,2653,20921,0.0
738,2420,20880,0.0
725,2186,20819,0.0
712,1952,20743,0.0
703,1727,20751,0.0
691,1496,20672,0.0
679,1268,20598,0.0
670,1044,20576,0.0
661,820,20539,0.0
654,597,20524,0.0
643,374,20408,0.0
636,154,20395,0.0
630,-65,20388,0.0
620,-283,20268,0.0
614,-501,20251,0.0
612,-723,20353,0.0
634,-984,21223,0.0
674,-1296,22682,0.0
0,0,0,0.0
61,-165,2097,0.0
980,-3004,33496,1.0
976,-3369,33509,1.0
0,0,0,0.0
0,0,0,0.0
58,-267,2005,0.0
56,-282,1955,0.0
60,-330,2126,0.0
988,-5685,34162,1.0
68,-420,2364,0.0
0,0,0,0.0
67,-465,2326,0.0
58,-420,1991,0.0
78,-599,2694,0.0
0,0,0,0.0
0,0,0,0.0
65,-564,2202,0.0
63,-574,2144,0.0
58,-549,1966,0.0
0,0,0,0.0
55,-549,1814,0.0
0,0,0,0.0
0,0,0,0.0
68,-733,2168,0.0
84,-919,2624,0.0
0,0,0,0.0
0,0,0,0.0
0,0,0,0.0
64,-762,1907,0.0
70,-838,2033,0.0
0,0,0,0.0
85,-1051,2402,0.0
68,-847,1881,0.0
0,0,0,0.0
64,-823,1725,0.0
0,0,0,0.0
83,-1071,2127,0.0
0,0,0,0.0
0,0,0,0.0
91,-1213,2227,0.0
71,-952,1703,0.0
1306,-17299,30176,1.0
0,0,0,0.0
0,0,0,0.0
98,-1323,2145,0.0
1372,-18350,29031,1.0
0,0,0,0.0
100,-1347,2034,0.0
1433,-19197,28304,1.0
1452,-19442,28010,1.0
122,-1636,2304,0.0
1492,-19926,27426,1.0
1503,-20042,26968,1.0
1527,-20304,26716,1.0
1544,-20472,26342,1.0
1227,-16228,20424,0.0
1231,-16221,19969,0.0
1227,-16098,19387,0.0
1223,-15998,18848,0.0
1225,-15951,18388,0.0
1242,-16090,18150,0.0
1247,-16068,17735,0.0
1251,-16041,17326,0.0
1279,-16314,17245,0.0
1306,-16560,17131,0.0
1342,-16916,17126,0.0
1375,-17222,17064,0.0
1409,-17545,17014,0.0
1444,-17861,16949,0.0
6,-86,80,0.0
1515,-18496,16809,0.0
6,-80,72,0.0
6,-92,80,0.0
6,-90,76,0.0
6,-84,70,0.0
8,-99,81,0.0
8,-104,83,0.0
9,-111,86,0.0
8,-108,82,0.0
10,-119,89,0.0
10,-123,90,0.0
11,-134,95,0.0
12,-136,94,0.0
2110,-23313,15869,0.0
2152,-23573,15677,0.0
189,-2060,1338,0.0
12,-137,87,0.0
14,-153,95,0.0
14,-158,96,0.0
15,-165,98,0.0
16,-164,95,0.0
16,-176,98,0.0
17,-179,98,0.0
18,-194,103,0.0
18,-197,102,0.0
21,-215,109,0.0
21,-213,105,0.0
21,-221,105,0.0
21,-215,100,0.0
23,-226,102,0.0
25,-240,106,0.0
25,-238,101,0.0
26,-249,103,0.0
27,-260,104,0.0
29,-268,104,0.0
30,-285,107,0.0
34,-312,113,0.0
36,-325,115,0.0
35,-320,109,0.0
36,-317,104,0.0
36,-321,102,0.0
-3997,16044,14633,0.0
-4083,16004,14913,0.0
-4162,15934,15170,0.0
-4243,15868,15436,0.0
-4329,15810,15713,0.0
-4382,15631,15874,0.0
-4491,15646,16235,0.0
-4559,15513,16450,0.0
-4503,14964,16216,0.0
-4604,14943,16547,0.0
-4642,14713,16654,0.0
-4958,15348,17756,0.0
-5053,15272,18060,0.0
-5159,15224,18406,0.0
-5223,15045,18599,0.0
-5344,15026,18996,0.0
-5416,14860,19214,0.0
-5340,14297,18909,0.0
-5405,14119,19106,0.0
-5763,14685,20333,0.0
0,0,0,0.0
-8630,20913,30337,0.0
-6885,16266,24161,0.0
-6989,16092,24481,0.0
-7004,15717,24493,0.0
-6994,15289,24415,0.0
-6983,14866,24332,0.0
-6976,14460,24268,0.0
-6962,14043,24171,0.0
-6951,13642,24091,0.0
-6947,13259,24034,0.0
-103,193,360,0.0
-9399,16950,32405,0.0
-9599,16816,33038,0.0
-637,1086,2194,0.0
-957,1580,3286,0.0
0,0,0,0.0
0,0,0,0.0
-8840,13288,30157,0.0
-8973,13057,30555,0.0
-8884,12508,30202,0.0
-9015,12271,30595,0.0
-9326,12261,31591,0.0
-9427,11963,31881,0.0
-9497,11622,32062,0.0
0,0,0,0.0
0,0,0,0.0
0,0,0,0.0
0,0,0,0.0
-9429,9466,31549,0.0
-7134,6857,23826,0.0
-7342,6747,24479,0.0
-838,734,2790,0.0
0,0,0,0.0
-7441,5908,24674,0.0
-664,501,2201,0.0
-601,428,1989,0.0
-7422,4989,24475,0.0
-7395,4675,24342,0.0
-7398,4383,24307,0.0
-6990,3866,22921,0.0
-6863,3527,22464,0.0
-6978,3315,22797,0.0
-6991,3051,22796,0.0
-7017,2792,22835,0.0
-6984,2513,22686,0.0
-6995,2250,22675,0.0
-7015,1992,22697,0.0
-7031,1733,22705,0.0
-7040,1472,22688,0.0
-7024,1208,22596,0.0
-7045,950,22616,0.0
-7153,701,22915,0.0
-7083,435,22646,0.0
-7050,176,22494,0.0
-7050,-80,22448,0.0
-7055,-336,22415,0.0
-7054,-590,22366,0.0
-7052,-845,22315,0.0
-7054,-1098,22272,0.0
-7060,-1351,22246,0.0
-6742,-1531,21197,0.0
-7013,-1842,22000,0.0
-7014,-2092,21957,0.0
-6746,-2250,21069,0.0
-7061,-2605,22009,0.0
-7068,-2858,21980,0.0
-7078,-3111,21961,0.0
-7079,-3360,21911,0.0
-7076,-3608,21855,0.0
-7079,-3857,21812,0.0
-7076,-4103,21751,0.0
-7090,-4361,21745,0.0
-7094,-4612,21705,0.0
-7088,-4857,21634,0.0
-7093,-5107,21594,0.0
-7088,-5353,21529,0.0
-7088,-5599,21470,0.0
-7109,-5866,21484,0.0
-7101,-6108,21403,0.0
-7107,-6363,21367,0.0
-7105,-6610,21303,0.0
-7090,-6846,21203,0.0
-7099,-7105,21175,0.0
-7027,-7281,20902,0.0
-6738,-7220,19989,0.0
-6740,-7460,19941,0.0
-6726,-7684,19843,0.0
-7112,-8378,20922,0.0
-7120,-8642,20885,0.0
-7126,-8903,20841,0.0
-7101,-9127,20708,0.0
-7108,-9392,20668,0.0
-7129,-9676,20663,0.0
-7132,-9939,20612,0.0
-7136,-10205,20561,0.0
-7142,-10474,20512,0.0
-7127,-10713,20403,0.0
-7140,-10995,20373,0.0
-7142,-11264,20316,0.0
-7150,-11541,20270,0.0
-7155,-11816,20215,0.0
-7156,-12086,20147,0.0
-7158,-12361,20084,0.0
-7162,-12640,20026,0.0
-7176,-12938,19990,0.0
-7160,-13184,19874,0.0
-7173,-13484,19835,0.0
-7186,-13790,19798,0.0
-7195,-14090,19748,0.0
-7203,-14389,19693,0.0
-7207,-14681,19624,0.0
-7167,-14886,19436,0.0
-7185,-15214,19406,0.0
-7212,-15565,19397,0.0
-7010,-15418,18777,0.0
-7236,-16211,19296,0.0
-7245,-16534,19235,0.0
-7249,-16848,19161,0.0
-7263,-17188,19109,0.0
-380,-916,996,0.0
-7272,-17836,18955,0.0
-7274,-18156,18865,0.0
-7297,-18534,18831,0.0
-7305,-18881,18757,0.0
-7334,-19287,18737,0.0
-25,-68,65,0.0
-26,-74,69,0.0
-30,-86,78,0.0
-27,-79,70,0.0
-28,-82,71,0.0
-29,-85,72,0.0
-31,-94,78,0.0
-32,-97,79,0.0
-32,-99,79,0.0
-33,-105,81,0.0
-29,-96,73,0.0
-31,-101,75,0.0
-35,-116,84,0.0
-33,-113,79,0.0
-36,-125,86,0.0
-36,-125,85,0.0
-36,-127,83,0.0
-32,-117,75,0.0
-36,-133,84,0.0
-39,-146,89,0.0
-39,-148,88,0.0
-38,-145,84,0.0
-38,-149,85,0.0
-41,-162,89,0.0
-40,-161,87,0.0
-39,-160,84,0.0
-40,-169,86,0.0
-43,-183,91,0.0
-47,-203,98,0.0
-47,-206,97,0.0
-47,-212,96,0.0
-50,-225,100,0.0
-49,-228,98,0.0
-52,-248,103,0.0
-48,-229,93,0.0
-54,-262,103,0.0
-56,-275,104,0.0
-63,-315,116,0.0
-66,-335,119,0.0
-64,-332,114,0.0
-62,-327,108,0.0
-61,-331,105,0.0
-60,-325,100,0.0
-61,-339,100,0.0
-59,-333,95,0.0
-58,-337,92,0.0
123,-325,65,0.0
122,-318,67,0.0
117,-300,66,0.0
117,-296,69,0.0
118,-296,73,0.0
116,-286,74,0.0
112,-274,74,0.0
116,-279,78,0.0
113,-269,78,0.0
112,-263,80,0.0
111,-255,81,0.0
111,-254,83,0.0
110,-250,85,0.0
111,-248,88,0.0
116,-255,92,0.0
115,-250,95,0.0
116,-248,97,0.0
116,-243,98,0.0
118,-245,102,0.0
120,-245,105,0.0
120,-243,108,0.0
117,-234,107,0.0
126,-247,117,0.0
123,-239,116,0.0
125,-239,120,0.0
126,-239,123,0.0
128,-237,126,0.0
146,-270,146,0.0
150,-273,152,0.0
152,-273,157,0.0
151,-266,157,0.0
148,-257,156,0.0
130,-223,138,0.0
127,-214,136,0.0
128,-214,139,0.0
121,-199,134,0.0
113,-182,125,0.0
1120,-1779,1255,0.0
15574,-24379,17638,0.0
15815,-24390,18088,0.0
15836,-24056,18285,0.0
15733,-23541,18337,0.0
15733,-23182,18504,0.0
15779,-22893,18724,0.0
15652,-22356,18734,0.0
15613,-21951,18845,0.0
15483,-21424,18844,0.0
15448,-21033,18952,0.0
15449,-20697,19105,0.0
1410,-1858,1758,0.0
15314,-19847,19228,0.0
14393,-18341,18203,0.0
14390,-18028,18331,0.0
14361,-17684,18423,0.0
14403,-17428,18605,0.0
14411,-17131,18740,0.0
14959,-17466,19581,0.0
14934,-17121,19673,0.0
14866,-16732,19707,0.0
14810,-16359,19754,0.0
14777,-16015,19830,0.0
14728,-15657,19881,0.0
14664,-15285,19908,0.0
14634,-14951,19980,0.0
14600,-14616,20043,0.0
14556,-14274,20092,0.0
14510,-13933,20135,0.0
14478,-13607,20195,0.0
14448,-13286,20258,0.0
14413,-12961,20309,0.0
14357,-12621,20330,0.0
14322,-12301,20377,0.0
14295,-11990,20435,0.0
14260,-11674,20478,0.0
14225,-11361,20520,0.0
14191,-11049,20562,0.0
14163,-10745,20612,0.0
14151,-10453,20682,0.0
14130,-10157,20737,0.0
14100,-9855,20777,0.0
14076,-9558,20824,0.0
14088,-9287,20925,0.0
14078,-9001,20991,0.0
14048,-8703,21025,0.0
14011,-8403,21048,0.0
14014,-8128,21129,0.0
13998,-7841,21179,0.0
13997,-7564,21252,0.0
13969,-7273,21281,0.0
13980,-7002,21370,0.0
13960,-6716,21410,0.0
13973,-6447,21497,0.0
13973,-6170,21565,0.0
13967,-5891,21623,0.0
13974,-5618,21699,0.0
13955,-5334,21735,0.0
13963,-5061,21810,0.0
13977,-4789,21893,0.0
13962,-4506,21930,0.0
13972,-4232,22005,0.0
13979,-3956,22076,0.0
13988,-3680,22149,0.0
14005,-3406,22232,0.0
14020,-3129,22311,0.0
14016,-2848,22360,0.0
14001,-2564,22390,0.0
14014,-2285,22463,0.0
14020,-2003,22523,0.0
14041,-1724,22606,0.0
14045,-1441,22664,0.0
14047,-1156,22714,0.0
14070,-872,22800,0.0
13997,-583,22727,0.0
14047,-298,22854,0.0
14094,-11,22974,0.0
14129,278,23074,0.0
14102,569,23072,0.0
13807,843,22629,0.0
14078,1151,23113,0.0
14185,1455,23327,0.0
13643,1684,22473,0.0
14243,2056,23497,0.0
14281,2363,23598,0.0
14153,2640,23420,0.0
14304,2971,23704,0.0
14320,3280,23765,0.0
14359,3596,23860,0.0
14360,3905,23892,0.0
14408,4228,24002,0.0
14201,4476,23688,0.0
13983,4712,23349,0.0
13933,5000,23291,0.0
14489,5519,24245,0.0
14512,5848,24310,0.0
14515,6172,24338,0.0
1110,496,1863,0.0
35,16,60,0.0
38,19,65,0.0
35,17,58,0.0
26,14,45,0.0
28,15,47,0.0
33,19,57,0.0
36,22,62,0.0
40,24,68,0.0
50,33,85,0.0
40,26,68,0.0
54,37,93,0.0
45,33,78,0.0
52,39,89,0.0
53,42,92,0.0
62,49,105,0.0
62,51,105,0.0
63,54,109,0.0
68,59,116,0.0
54,49,92,0.0
69,64,117,0.0
64,61,110,0.0
62,61,105,0.0
61,61,103,0.0
64,66,109,0.0
62,65,105,0.0
67,74,114,0.0
65,72,110,0.0
68,78,115,0.0
71,83,119,0.0
66,79,112,0.0
70,87,119,0.0
67,86,115,0.0
70,90,118,0.0
71,94,120,0.0
70,95,119,0.0
72,100,121,0.0
69,98,117,0.0
69,100,116,0.0
69,101,115,0.0
73,109,121,0.0
71,110,120,0.0
74,117,125,0.0
73,117,122,0.0
72,119,121,0.0
76,126,125,0.0
74,127,123,0.0
73,127,121,0.0
72,128,119,0.0
75,135,123,0.0
73,136,121,0.0
76,144,125,0.0
77,148,125,0.0
76,149,124,0.0
79,158,128,0.0
76,154,123,0.0
80,165,128,0.0
123,-334,68,0.0
118,-316,68,0.0
119,-312,71,0.0
115,-297,71,0.0
114,-291,72,0.0
111,-282,74,0.0
112,-281,76,0.0
113,-279,79,0.0
110,-266,79,0.0
109,-262,81,0.0
110,-261,84,0.0
108,-254,84,0.0
109,-250,87,0.0
108,-246,88,0.0
111,-248,92,0.0
112,-248,95,0.0
112,-246,97,0.0
114,-246,101,0.0
116,-247,104,0.0
117,-244,106,0.0
119,-245,110,0.0
118,-241,112,0.0
120,-241,114,0.0
117,-234,115,0.0
122,-239,120,0.0
121,-235,122,0.0
130,-247,132,0.0
140,-263,144,0.0
146,-272,153,0.0
148,-270,156,0.0
144,-259,155,0.0
139,-247,151,0.0
144,-252,158,0.0
137,-237,152,0.0
130,-220,145,0.0
127,-212,143,0.0
1093,-1802,1249,0.0
15146,-24587,17480,0.0
1086,-1738,1267,0.0
15528,-24467,18274,0.0
15411,-23918,18308,0.0
15333,-23437,18383,0.0
15409,-23195,18639,0.0
15408,-22837,18802,0.0
15363,-22416,18907,0.0
15245,-21896,18918,0.0
15184,-21462,18997,0.0
15113,-21020,19059,0.0
15038,-20577,19110,0.0
14983,-20167,19185,0.0
14943,-19781,19277,0.0
14877,-19363,19330,0.0
13902,-17788,18191,0.0
13954,-17550,18387,0.0
14220,-17573,18863,0.0
14504,-17610,19368,0.0
14472,-17257,19450,0.0
14553,-17042,19684,0.0
14503,-16672,19738,0.0
14448,-16300,19783,0.0
14386,-15925,19816,0.0
14364,-15594,19900,0.0
14314,-15239,19944,0.0
14262,-14883,19982,0.0
14239,-14561,20059,0.0
14178,-14202,20081,0.0
14160,-13888,20161,0.0
14106,-13542,20186,0.0
14071,-13217,20239,0.0
14025,-12883,20272,0.0
14008,-12579,20346,0.0
13962,-12250,20375,0.0
13955,-11958,20460,0.0
13918,-11642,20499,0.0
13878,-11324,20531,0.0
13842,-11012,20566,0.0
13811,-10706,20609,0.0
13774,-10397,20641,0.0
13776,-10119,20730,0.0
13731,-9808,20745,0.0
13742,-9537,20844,0.0
13709,-9236,20874,0.0
13718,-8965,20969,0.0
13702,-8678,21022,0.0
13688,-8394,21079,0.0
13674,-8108,21132,0.0
13653,-7821,21174,0.0
13635,-7535,21217,0.0
13622,-7254,21270,0.0
13624,-6980,21343,0.0
13615,-6702,21398,0.0
13603,-6422,21447,0.0
13619,-6156,21542,0.0
13632,-5886,21628,0.0
13622,-5607,21677,0.0
13599,-5323,21705,0.0
13617,-5056,21796,0.0
13622,-4783,21866,0.0
13633,-4512,21944,0.0
13639,-4237,22013,0.0
13658,-3966,22101,0.0
13652,-3688,22150,0.0
13650,-3410,22202,0.0
13644,-3131,22249,0.0
13685,-2861,22369,0.0
13679,-2580,22413,0.0
13685,-2302,22477,0.0
13704,-2024,22557,0.0
13673,-1738,22558,0.0
13710,-1461,22666,0.0
13708,-1177,22712,0.0
13732,-895,22798,0.0
13742,-611,22861,0.0
13772,-326,22957,0.0
13770,-39,22997,0.0
13836,250,23152,0.0
13668,534,22913,0.0
13546,814,22749,0.0
13439,1092,22609,0.0
13812,1415,23275,0.0
13338,1651,22513,0.0
13861,2011,23435,0.0
13913,2317,23558,0.0
13933,2620,23628,0.0
13978,2930,23740,0.0
13990,3237,23793,0.0
13987,3541,23820,0.0
14027,3858,23919,0.0
14034,4169,23961,0.0
13882,4430,23731,0.0
13803,4712,23625,0.0
14027,5101,24033,0.0
14179,5475,24321,0.0
14195,5802,24374,0.0
14233,6140,24462,0.0
14236,6466,24492,0.0
33,15,58,0.0
32,16,57,0.0
34,17,60,0.0
39,21,70,0.0
41,22,72,0.0
39,22,68,0.0
44,26,77,0.0
40,26,70,0.0
46,31,81,0.0
42,29,75,0.0
52,37,91,0.0
51,39,91,0.0
55,42,96,0.0
53,42,94,0.0
54,43,94,0.0
52,45,92,0.0
61,53,107,0.0
54,49,96,0.0
71,64,123,0.0
59,56,104,0.0
60,59,106,0.0
61,61,106,0.0
63,65,111,0.0
67,70,116,0.0
60,64,104,0.0
65,72,113,0.0
66,76,117,0.0
61,70,105,0.0
59,72,104,0.0
64,78,112,0.0
63,80,111,0.0
63,81,109,0.0
68,88,117,0.0
66,89,114,0.0
66,90,114,0.0
69,97,120,0.0
67,96,116,0.0
67,100,117,0.0
71,106,122,0.0
68,105,117,0.0
66,105,116,0.0
69,111,120,0.0
69,112,119,0.0
70,117,121,0.0
72,124,123,0.0
72,126,123,0.0
70,125,120,0.0
70,126,118,0.0
74,137,126,0.0
73,137,123,0.0
72,138,122,0.0
74,145,125,0.0
75,149,125,0.0
74,152,125,0.0
75,156,126,0.0
73,155,122,0.0
119,-331,69,0.0
115,-315,70,0.0
116,-311,71,0.0
113,-301,73,0.0
113,-297,75,0.0
110,-287,76,0.0
108,-275,76,0.0
110,-277,79,0.0
104,-261,78,0.0
106,-260,81,0.0
107,-260,84,0.0
107,-255,86,0.0
106,-252,88,0.0
111,-259,94,0.0
110,-254,95,0.0
112,-256,99,0.0
114,-256,102,0.0
115,-253,105,0.0
116,-253,108,0.0
116,-249,109,0.0
118,-251,114,0.0
118,-246,115,0.0
121,-250,121,0.0
120,-244,121,0.0
121,-244,124,0.0
120,-239,125,0.0
131,-256,138,0.0
138,-264,147,0.0
146,-277,158,0.0
144,-269,158,0.0
147,-271,163,0.0
143,-259,159,0.0
133,-239,150,0.0
127,-226,146,0.0
129,-225,150,0.0
112,-193,131,0.0
1069,-1800,1257,0.0
14909,-24741,17715,0.0
15055,-24613,18063,0.0
15103,-24323,18293,0.0
15025,-23835,18368,0.0
14968,-23386,18465,0.0
15072,-23186,18756,0.0
14980,-22691,18804,0.0
14921,-22249,18885,0.0
14850,-21795,18950,0.0
14794,-21370,19031,0.0
14745,-20956,19116,0.0
14668,-20511,19162,0.0
14629,-20122,19255,0.0
14547,-19677,19287,0.0
14491,-19272,19347,0.0
13776,-18012,18522,0.0
13722,-17635,18577,0.0
14141,-17856,19270,0.0
14134,-17534,19387,0.0
14159,-17252,19545,0.0
14180,-16965,19696,0.0
14123,-16588,19737,0.0
14078,-16229,19794,0.0
14045,-15886,19863,0.0
14018,-15550,19937,0.0
13957,-15182,19963,0.0
13904,-14826,19997,0.0
13875,-14497,20064,0.0
13832,-14158,20108,0.0
13804,-13835,20171,0.0
13736,-13475,20173,0.0
13673,-13123,20179,0.0
13658,-12822,20257,0.0
13653,-12529,20347,0.0
13620,-12212,20391,0.0
13573,-11885,20414,0.0
13582,-11610,20521,0.0
13550,-11300,20562,0.0
13510,-10985,20589,0.0
13483,-10683,20636,0.0
13461,-10386,20687,0.0
13451,-10099,20757,0.0
13425,-9803,20801,0.0
13428,-9527,20886,0.0
13382,-9219,20895,0.0
