//X,Y,Z,Classification
-5000,-4834,18591,0.0
-5005,-5052,18567,0.0
-4999,-5258,18499,0.0
-4995,-5466,18439,0.0
-4994,-5679,18391,0.0
-4994,-5892,18348,0.0
-4992,-6104,18297,0.0
-4993,-6318,18251,0.0
-4988,-6527,18190,0.0
-4991,-6747,18157,0.0
-4985,-6954,18088,0.0
-4983,-7168,18037,0.0
-4983,-7384,17986,0.0
-4980,-7598,17931,0.0
-4981,-7819,17889,0.0
-4985,-8045,17857,0.0
-4985,-8266,17809,0.0
-4975,-8469,17725,0.0
-4977,-8695,17684,0.0
-4977,-8920,17637,0.0
-4967,-9126,17553,0.0
-4974,-9366,17530,0.0
-4975,-9593,17481,0.0
-4970,-9812,17415,0.0
-4968,-10040,17362,0.0
-4964,-10262,17295,0.0
-4961,-10489,17234,0.0
-4967,-10737,17205,0.0
-4963,-10964,17138,0.0
-4959,-11192,17073,0.0
-4964,-11443,17037,0.0
-4961,-11679,16974,0.0
-4955,-11909,16901,0.0
-4957,-12160,16854,0.0
-4950,-12390,16775,0.0
-4957,-12657,16742,0.0
-4955,-12906,16681,0.0
-4951,-13153,16614,0.0
-4946,-13396,16539,0.0
-4949,-13663,16490,0.0
-4947,-13921,16426,0.0
-4948,-14189,16369,0.0
-4920,-14373,16214,0.0
-4805,-14304,15778,0.0
-4698,-14246,15368,0.0
-4660,-14393,15185,0.0
-4668,-14683,15150,0.0
-4665,-14945,15082,0.0
-4664,-15216,15019,0.0
-18,-61,60,0.0
-22,-77,72,0.0
-24,-86,80,0.0
-24,-85,77,0.0
-23,-82,74,0.0
-22,-83,72,0.0
-25,-97,82,0.0
-22,-86,71,0.0
-14,-60,48,0.0
-21,-83,65,0.0
-21,-87,67,0.0
-22,-90,68,0.0
-24,-100,74,0.0
-24,-103,74,0.0
-25,-109,76,0.0
-23,-104,71,0.0
-4654,-20512,13776,0.0
-4654,-20877,13692,0.0
-26,-124,79,0.0
-4654,-21626,13516,0.0
-27,-131,80,0.0
-26,-129,77,0.0
-29,-146,85,0.0
-29,-150,85,0.0
-27,-141,78,0.0
-29,-158,86,0.0
-29,-159,83,0.0
-31,-168,85,0.0
-31,-172,85,0.0
-31,-173,84,0.0
-35,-204,96,0.0
-37,-216,99,0.0
-35,-212,94,0.0
-38,-233,100,0.0
-39,-247,103,0.0
-39,-252,102,0.0
-43,-277,109,0.0
-45,-297,112,0.0
-48,-327,120,0.0
-47,-326,115,0.0
-47,-332,114,0.0
-45,-327,108,0.0
-45,-332,106,0.0
-44,-334,102,0.0
-44,-338,100,0.0
-42,-332,94,0.0
-5165,39694,37642,0.0
-4540,33795,32739,0.0
-2525,18207,18018,0.0
-4566,31909,32260,0.0
-4629,31360,32390,0.0
-2747,18051,19048,0.0
-2774,17680,19061,0.0
-2762,17076,18811,0.0
-2795,16766,18873,0.0
-2597,15124,17398,0.0
-2774,15677,18431,0.0
-2773,15216,18285,0.0
-2810,14968,18386,0.0
-3347,17313,21742,0.0
-3363,16894,21692,0.0
-3369,16429,21573,0.0
-3379,16003,21490,0.0
-3393,15611,21445,0.0
-3215,14362,20186,0.0
-3287,14258,20507,0.0
-3406,14348,21119,0.0
-3464,14168,21350,0.0
-4939,19607,30256,0.0
-5082,19586,30956,0.0
-5129,19191,31075,0.0
0,0,0,0.0
-5620,19800,33682,0.0
-4689,16027,27956,0.0
-4709,15608,27929,0.0
-4728,15197,27904,0.0
-4378,13641,25711,0.0
-4493,13566,26260,0.0
-4535,13263,26376,0.0
-4857,13755,28118,0.0
-4948,13564,28516,0.0
-5055,13407,28999,0.0
-5146,13199,29396,0.0
-5262,13047,29929,0.0
-5583,13372,31619,0.0
-3665,8473,20666,0.0
-3666,8178,20589,0.0
-3672,7900,20544,0.0
-3670,7608,20453,0.0
-3675,7336,20405,0.0
-3676,7055,20328,0.0
-3681,6789,20276,0.0
-3681,6517,20203,0.0
-3684,6255,20149,0.0
-3686,5994,20086,0.0
-3692,5742,20048,0.0
-3689,5480,19962,0.0
-3692,5230,19912,0.0
-3693,4980,19846,0.0
-3694,4733,19786,0.0
-3694,4488,19726,0.0
-3694,4245,19657,0.0
-3698,4008,19615,0.0
-3684,3757,19480,0.0
-3687,3525,19437,0.0
-3692,3299,19403,0.0
-3698,3074,19376,0.0
-3696,2844,19311,0.0
-3701,2621,19276,0.0
-3698,2396,19206,0.0
-3696,2172,19142,0.0
-3696,1952,19089,0.0
-3695,1733,19025,0.0
-3695,1516,18973,0.0
-3688,1299,18885,0.0
-3694,1087,18867,0.0
-3807,902,19388,0.0
-3910,703,19862,0.0
-3934,483,19932,0.0
-4137,275,20901,0.0
-4303,44,21685,0.0
-6853,-311,34451,1.0
-6853,-692,34361,1.0
-6854,-1072,34283,1.0
0,0,0,0.0
-6860,-1827,34137,1.0
-6865,-2205,34078,1.0
-6915,-2598,34241,1.0
-6940,-2984,34283,1.0
0,0,0,0.0
-6954,-3744,34188,1.0
-6915,-4097,33917,1.0
-6914,-4469,33833,1.0
-6901,-4832,33689,1.0
-6919,-5217,33700,1.0
-6893,-5568,33494,1.0
-6882,-5928,33362,1.0
-6856,-6274,33163,1.0
0,0,0,0.0
-6943,-7099,33433,1.0
-6942,-7471,33352,1.0
-6935,-7836,33244,1.0
-6928,-8202,33139,1.0
-6960,-8613,33215,1.0
-6928,-8948,32989,1.0
0,0,0,0.0
0,0,0,0.0
-6917,-10059,32721,1.0
-6893,-10399,32537,1.0
0,0,0,0.0
-6864,-11109,32263,1.0
0,0,0,0.0
0,0,0,0.0
-6820,-12169,31850,1.0
-6842,-12590,31884,1.0
-6839,-12967,31803,1.0
-6784,-13246,31480,1.0
-6755,-13570,31275,1.0
-6723,-13889,31061,1.0
-6695,-14216,30868,1.0
-6717,-14650,30901,1.0
-6384,-14296,29311,0.0
-6385,-14671,29250,0.0
-6374,-15019,29135,0.0
-6375,-15401,29081,0.0
0,0,0,0.0
-6707,-17012,30469,1.0
-6691,-17377,30329,1.0
-6661,-17708,30127,1.0
-6674,-18157,30121,1.0
-6606,-18386,29752,1.0
-6592,-18763,29624,1.0
-6549,-19060,29369,1.0
0,0,0,0.0
-6472,-19677,28900,1.0
-6430,-19973,28648,1.0
-6341,-20117,28187,1.0
-6301,-20417,27949,1.0
-6266,-20734,27733,1.0
-6208,-20971,27415,1.0
-6163,-21251,27155,1.0
-4170,-14676,18333,0.0
-4062,-14587,17815,0.0
-3949,-14472,17283,0.0
-3839,-14354,16763,0.0
-3743,-14276,16305,0.0
-3682,-14326,16003,0.0
-3617,-14352,15681,0.0
-3522,-14253,15233,0.0
-3508,-14481,15139,0.0
-3503,-14747,15081,0.0
-3495,-15002,15009,0.0
-16,-72,70,0.0
-16,-68,65,0.0
-19,-85,79,0.0
-17,-79,73,0.0
-18,-85,76,0.0
-19,-95,83,0.0
-20,-97,83,0.0
-18,-88,74,0.0
-20,-101,83,0.0
-18,-98,78,0.0
-19,-101,79,0.0
-20,-106,81,0.0
-19,-108,81,0.0
-20,-111,81,0.0
-21,-117,84,0.0
-22,-130,91,0.0
-19,-115,78,0.0
-22,-135,89,0.0
-19,-116,76,0.0
-22,-139,88,0.0
-21,-139,86,0.0
-20,-135,81,0.0
-22,-149,88,0.0
-22,-149,86,0.0
-22,-156,87,0.0
-22,-163,89,0.0
-25,-189,100,0.0
-23,-175,90,0.0
-28,-211,107,0.0
-27,-215,106,0.0
-26,-207,100,0.0
-28,-230,106,0.0
-28,-235,106,0.0
-28,-243,107,0.0
-28,-251,107,0.0
-29,-264,110,0.0
-29,-270,108,0.0
-30,-287,112,0.0
-33,-324,122,0.0
-33,-329,120,0.0
-32,-329,115,0.0
-31,-333,113,0.0
-31,-336,111,0.0
-29,-329,104,0.0
-29,-334,102,0.0
-28,-337,99,0.0
-1249,15372,14748,0.0
-1286,15166,14863,0.0
-2884,32633,32673,0.0
-2931,31840,32568,0.0
-2911,30384,31749,0.0
-2978,29896,31915,0.0
-3026,29240,31893,0.0
-3030,28187,31412,0.0
-1838,16474,18760,0.0
-1882,16253,18914,0.0
-1877,15638,18598,0.0
-1903,15300,18599,0.0
-1921,14900,18515,0.0
-2128,15943,20253,0.0
-3329,24084,31283,0.0
-2177,15215,20210,0.0
-2321,15676,21298,0.0
-2353,15363,21349,0.0
-2376,14996,21321,0.0
-2368,14448,21021,0.0
-3435,20264,30178,0.0
-3523,20101,30647,0.0
-3602,19873,31025,0.0
-3629,19368,30971,0.0
-3661,18895,30957,0.0
-3269,16318,27398,0.0
-3365,16246,27961,0.0
-3445,16077,28378,0.0
-3454,15588,28225,0.0
-3431,14968,27812,0.0
-3435,14486,27633,0.0
-3456,14081,27587,0.0
-3488,13730,27640,0.0
-3490,13271,27461,0.0
-3504,12866,27381,0.0
-3398,12042,26371,0.0
-3462,11837,26690,0.0
-4002,13192,30644,0.0
-2699,8577,20539,0.0
-2716,8315,20539,0.0
-2719,8015,20438,0.0
-2729,7742,20394,0.0
-2743,7481,20376,0.0
-2747,7199,20292,0.0
-2758,6939,20262,0.0
-2763,6668,20190,0.0
-2768,6402,20121,0.0
-2778,6148,20084,0.0
-2782,5888,20012,0.0
-2790,5638,19968,0.0
-2792,5381,19890,0.0
-2801,5138,19855,0.0
-2805,4891,19793,0.0
-2807,4643,19714,0.0
-2805,4393,19616,0.0
-2815,4163,19596,0.0
-2815,3922,19513,0.0
-2822,3694,19483,0.0
-2825,3461,19421,0.0
-2832,3237,19387,0.0
-2828,3001,19282,0.0
-2835,2780,19258,0.0
-2841,2560,19226,0.0
-2838,2335,19132,0.0
-2844,2118,19103,0.0
-2846,1900,19046,0.0
-2847,1683,18988,0.0
-2847,1468,18923,0.0
-2850,1255,18876,0.0
-2878,1054,18996,0.0
-2982,872,19622,0.0
-3027,663,19851,0.0
-3107,454,20313,0.0
-3258,241,21233,0.0
-3372,8,21911,0.0
-5529,-380,35820,1.0
-5512,-771,35601,1.0
-5492,-1155,35371,1.0
-5515,-1548,35421,1.0
0,0,0,0.0
-5495,-2310,35089,1.0
0,0,0,0.0
-5472,-3059,34759,1.0
-5476,-3440,34695,1.0
-5510,-3840,34822,1.0
-5538,-4240,34909,1.0
0,0,0,0.0
-5559,-5018,34868,1.0
0,0,0,0.0
-5544,-5764,34616,1.0
0,0,0,0.0
0,0,0,0.0
0,0,0,0.0
-5574,-7318,34485,1.0
-5555,-7676,34302,1.0
-5561,-8066,34267,1.0
-5529,-8399,33996,1.0
0,0,0,0.0
-5522,-9148,33814,1.0
-5531,-9547,33802,1.0
0,0,0,0.0
0,0,0,0.0
-5579,-10798,33902,1.0
-5580,-11194,33851,1.0
-5567,-11562,33712,1.0
0,0,0,0.0
0,0,0,0.0
-5527,-12665,33296,1.0
-5496,-12992,33056,1.0
-5495,-13389,32993,1.0
-5485,-13767,32882,1.0
0,0,0,0.0
-5399,-14355,32272,1.0
-5400,-14764,32232,1.0
-5384,-15126,32085,1.0
-5371,-15502,31965,1.0
0,0,0,0.0
-5322,-16186,31586,1.0
0,0,0,0.0
-5253,-16808,31096,1.0
-5247,-17213,31023,1.0
-5229,-17580,30879,1.0
-5204,-17924,30696,1.0
-5178,-18267,30507,1.0
-5179,-18706,30477,1.0
0,0,0,0.0
-5149,-19491,30245,1.0
-5147,-19938,30205,1.0
-5079,-20126,29775,1.0
-5041,-20429,29519,1.0
-4990,-20686,29200,1.0
-4962,-21035,29012,1.0
-4902,-21245,28636,1.0
-4862,-21537,28375,1.0
-4818,-21820,28103,1.0
-3157,-14616,18404,0.0
-3073,-14537,17900,0.0
-2993,-14470,17424,0.0
-2904,-14352,16902,0.0
-2816,-14221,16379,0.0
-2777,-14324,16139,0.0
-2707,-14274,15733,0.0
-2635,-14192,15302,0.0
-2616,-14399,15189,0.0
-2605,-14648,15117,0.0
-2577,-14811,14955,0.0
-2586,-15189,15005,0.0
-10,-62,61,0.0
-11,-67,63,0.0
-14,-89,83,0.0
-12,-78,70,0.0
-14,-88,79,0.0
-15,-97,85,0.0
-14,-98,82,0.0
-15,-102,84,0.0
-16,-111,89,0.0
-15,-115,92,0.0
-15,-117,91,0.0
-18,-136,103,0.0
-15,-116,86,0.0
-13,-111,81,0.0
-15,-126,89,0.0
-14,-118,82,0.0
-2360,-20397,13782,0.0
-2344,-20763,13704,0.0
-16,-146,94,0.0
-16,-146,92,0.0
-15,-141,86,0.0
-17,-167,100,0.0
-18,-181,105,0.0
-18,-191,109,0.0
-19,-202,112,0.0
-19,-204,110,0.0
-19,-215,113,0.0
-19,-221,113,0.0
-17,-207,103,0.0
-18,-229,111,0.0
-19,-240,114,0.0
-18,-243,112,0.0
-18,-247,111,0.0
-18,-251,109,0.0
-19,-274,115,0.0
-18,-266,109,0.0
-18,-281,111,0.0
-19,-298,115,0.0
-20,-325,121,0.0
-19,-336,121,0.0
-18,-331,115,0.0
-18,-345,116,0.0
-18,-339,110,0.0
-17,-343,107,0.0
-16,-348,105,0.0
-1491,33674,32548,0.0
-702,14871,14683,0.0
-736,14638,14763,0.0
-1680,31487,32443,0.0
-1710,30258,31850,0.0
-1773,29692,31930,0.0
-1822,28906,31760,0.0
-1898,28585,32090,0.0
-1927,27602,31663,0.0
-1941,26480,31042,0.0
-2001,26029,31183,0.0
-1300,16145,19771,0.0
-1336,15847,19836,0.0
-1356,15391,19696,0.0
-2174,23617,30901,0.0
-1468,15291,20460,0.0
-1549,15461,21160,0.0
-1585,15179,21249,0.0
-1624,14929,21384,0.0
-2336,20617,30218,0.0
-2392,20288,30435,0.0
-2409,19640,30166,0.0
-2505,19627,30870,0.0
-2548,19207,30944,0.0
-2814,20411,33691,0.0
-2845,19859,33595,0.0
-2291,15389,26689,0.0
-2366,15293,27197,0.0
-2445,15217,27762,0.0
-2470,14797,27706,0.0
-2497,14402,27683,0.0
-2516,13962,27565,0.0
-2566,13714,27821,0.0
-2593,13336,27811,0.0
-2580,12767,27384,0.0
0,0,0,0.0
-2619,11993,27256,0.0
-2970,13072,30606,0.0
-2017,8533,20598,0.0
-2027,8238,20515,0.0
-2039,7957,20458,0.0
-2046,7663,20356,0.0
-2056,7386,20287,0.0
-2068,7122,20247,0.0
-2080,6858,20198,0.0
-2089,6592,20131,0.0
-2099,6333,20079,0.0
-2106,6071,20003,0.0
-2112,5809,19923,0.0
-2123,5564,19891,0.0
-2132,5317,19838,0.0
-2140,5073,19789,0.0
-2144,4822,19702,0.0
-2150,4577,19628,0.0
-2156,4340,19573,0.0
-2164,4105,19528,0.0
-2171,3873,19479,0.0
-2172,3635,19381,0.0
-2183,3415,19377,0.0
-2188,3186,19313,0.0
-2194,2963,19275,0.0
-2201,2743,19239,0.0
-2205,2522,19184,0.0
-2204,2295,19071,0.0
-2211,2080,19049,0.0
-2215,1864,18993,0.0
-2187,1627,18672,0.0
-2221,1436,18874,0.0
-2223,1225,18815,0.0
-2263,1033,19078,0.0
-2356,854,19789,0.0
-2365,636,19785,0.0
-2446,432,20380,0.0
-2560,218,21247,0.0
-4461,-25,36900,1.0
-4468,-427,36820,1.0
-4460,-827,36632,1.0
-4447,-1221,36400,1.0
0,0,0,0.0
-4460,-2014,36276,1.0
0,0,0,0.0
-4451,-2790,35979,1.0
-4413,-3150,35572,1.0
0,0,0,0.0
-4443,-3942,35606,1.0
0,0,0,0.0
-4488,-4758,35781,1.0
-4494,-5152,35739,1.0
-4486,-5529,35586,1.0
0,0,0,0.0
-4511,-6337,35619,1.0
0,0,0,0.0
0,0,0,0.0
-4503,-7491,35325,1.0
0,0,0,0.0
-4463,-8196,34864,1.0
-4465,-8588,34811,1.0
-4465,-8979,34753,1.0
-4439,-9316,34493,1.0
-4470,-9775,34675,1.0
-4475,-10180,34654,1.0
-4471,-10569,34573,1.0
0,0,0,0.0
0,0,0,0.0
-4515,-11890,34762,1.0
-4522,-12321,34775,1.0
-4503,-12683,34586,1.0
0,0,0,0.0
-4462,-13400,34201,1.0
0,0,0,0.0
-4422,-14116,33828,1.0
0,0,0,0.0
0,0,0,0.0
-4363,-15198,33298,1.0
-4337,-15535,33073,1.0
-4301,-15841,32787,1.0
-4284,-16209,32635,1.0
-4235,-16463,32255,1.0
-4215,-16825,32091,1.0
-4181,-17133,31826,1.0
-4149,-17445,31575,1.0
-4144,-17876,31534,1.0
0,0,0,0.0
0,0,0,0.0
0,0,0,0.0
-4079,-19450,31062,1.0
0,0,0,0.0
-4028,-20165,30693,1.0
-4011,-20577,30587,1.0
-3987,-20953,30422,1.0
-3977,-21410,30370,1.0
-3941,-21726,30115,1.0
-3909,-22074,29905,1.0
-3844,-22231,29440,1.0
-3791,-22450,29064,1.0
-3749,-22738,28782,1.0
-2350,-14592,18062,0.0
-2282,-14509,17565,0.0
-2207,-14373,17019,0.0
-2142,-14289,16551,0.0
-2103,-14364,16274,0.0
-2033,-14224,15767,0.0
-1988,-14252,15455,0.0
-1951,-14332,15207,0.0
-1938,-14579,15134,0.0
-1926,-14847,15081,0.0
-9,-67,67,0.0
-8,-64,62,0.0
-10,-84,80,0.0
-10,-86,80,0.0
-9,-81,74,0.0
-10,-90,80,0.0
-9,-81,71,0.0
-10,-98,83,0.0
-11,-104,87,0.0
-10,-102,82,0.0
-11,-115,92,0.0
-12,-119,93,0.0
-9,-103,78,0.0
-10,-111,83,0.0
-9,-111,81,0.0
-11,-123,88,0.0
-9,-114,80,0.0
-9,-111,75,0.0
-1594,-20614,13713,0.0
-10,-129,83,0.0
-12,-166,105,0.0
-11,-159,99,0.0
-11,-174,105,0.0
-12,-183,107,0.0
-11,-174,99,0.0
-12,-187,104,0.0
-11,-199,109,0.0
-11,-188,100,0.0
-11,-196,102,0.0
-10,-205,103,0.0
-11,-217,106,0.0
-10,-217,103,0.0
-10,-229,107,0.0
-10,-235,106,0.0
-11,-256,113,0.0
-10,-249,106,0.0
-9,-263,109,0.0
-9,-265,106,0.0
-9,-282,110,0.0
-9,-317,119,0.0
-9,-330,120,0.0
-9,-335,118,0.0
-9,-348,118,0.0
-8,-342,112,0.0
-6,-345,109,0.0
-6,-340,104,0.0
-341,17594,17079,0.0
-383,17392,17246,0.0
-357,14466,14653,0.0
-390,14247,14742,0.0
-498,16519,17462,0.0
-530,16061,17345,0.0
-561,15667,17286,0.0
-600,15483,17455,0.0
-1146,27481,31658,0.0
-1183,26410,31090,0.0
-1243,25961,31234,0.0
-1296,25382,31213,0.0
-1369,25219,31701,0.0
-912,15833,20347,0.0
-959,15728,20667,0.0
-977,15155,20365,0.0
-1046,15370,21124,0.0
-1084,15127,21267,0.0
-1123,14873,21394,0.0
-1629,20546,30245,0.0
-1682,20203,30440,0.0
-1717,19657,30322,0.0
-1786,19507,30815,0.0
-1838,19169,31016,0.0
-2046,20383,33792,0.0
-2079,19802,33645,0.0
-1682,15328,26699,0.0
-1749,15252,27243,0.0
-1807,15093,27660,0.0
-1845,14759,27757,0.0
-1871,14336,27680,0.0
-1897,13928,27621,0.0
-1937,13623,27759,0.0
-1972,13292,27846,0.0
-1967,12702,27370,0.0
-1908,11810,26188,0.0
-1998,11851,27059,0.0
-2164,12301,28938,0.0
-1560,8492,20595,0.0
-1570,8187,20484,0.0
-1587,7920,20459,0.0
-1597,7629,20361,0.0
-1610,7355,20300,0.0
-1624,7094,20264,0.0
-1636,6826,20204,0.0
-1647,6558,20130,0.0
-1657,6297,20067,0.0
-1667,6037,19996,0.0
-1677,5780,19929,0.0
-1689,5536,19898,0.0
-1699,5290,19846,0.0
-1708,5043,19781,0.0
-1714,4791,19689,0.0
-1722,4550,19627,0.0
-1727,4305,19532,0.0
-1742,4088,19559,0.0
-1751,3857,19517,0.0
-1754,3618,19414,0.0
-1762,3390,19364,0.0
-1767,3163,19306,0.0
-1773,2939,19247,0.0
-1779,2716,19190,0.0
-1782,2491,19101,0.0
-1789,2275,19064,0.0
-1795,2061,19030,0.0
-1801,1846,18979,0.0
-1801,1629,18878,0.0
-1807,1418,18845,0.0
-1812,1209,18800,0.0
-1837,1012,18970,0.0
-1890,824,19419,0.0
-1933,622,19765,0.0
-1990,416,20266,0.0
-2085,204,21140,0.0
-2161,-27,21818,0.0
0,0,0,0.0
0,0,0,0.0
0,0,0,0.0
-3739,-1672,37167,1.0
-3740,-2071,37045,1.0
-3751,-2476,37018,1.0
0,0,0,0.0
0,0,0,0.0
0,0,0,0.0
0,0,0,0.0
0,0,0,0.0
-3776,-4871,36590,1.0
-3787,-5281,36601,1.0
-3780,-5665,36440,1.0
0,0,0,0.0
-3746,-6395,35941,1.0
-3761,-6812,36001,1.0
0,0,0,0.0
-3781,-7639,36039,1.0
-3761,-7994,35781,1.0
-3763,-8396,35740,1.0
0,0,0,0.0
-3767,-9203,35661,1.0
0,0,0,0.0
-3734,-9923,35245,1.0
0,0,0,0.0
-3728,-10712,35094,1.0
-3730,-11128,35077,1.0
0,0,0,0.0
0,0,0,0.0
0,0,0,0.0
0,0,0,0.0
0,0,0,0.0
0,0,0,0.0
-3744,-14144,35039,1.0
0,0,0,0.0
-3677,-14768,34401,1.0
-3636,-15042,34009,1.0
0,0,0,0.0
0,0,0,0.0
0,0,0,0.0
-3531,-16388,33071,1.0
0,0,0,0.0
0,0,0,0.0
-3443,-17355,32320,1.0
0,0,0,0.0
0,0,0,0.0
0,0,0,0.0
-3370,-18892,31776,1.0
0,0,0,0.0
-3318,-19601,31389,1.0
0,0,0,0.0
0,0,0,0.0
-3248,-20738,30916,1.0
-3214,-21057,30663,1.0
-3190,-21441,30505,1.0
0,0,0,0.0
-3134,-22175,30133,1.0
-3091,-22449,29820,1.0
-3039,-22645,29407,1.0
-2997,-22920,29105,1.0
-1871,-14682,18233,0.0
-1811,-14592,17723,0.0
-1749,-14459,17177,0.0
-1691,-14359,16686,0.0
-1640,-14301,16258,0.0
-1601,-14339,15949,0.0
-1557,-14317,15580,0.0
-1508,-14254,15176,0.0
-7,-68,72,0.0
-6,-62,64,0.0
-7,-67,67,0.0
-4,-49,47,0.0
-5,-58,54,0.0
-7,-80,75,0.0
-6,-70,64,0.0
-7,-85,76,0.0
-6,-84,74,0.0
-7,-86,75,0.0
-7,-84,71,0.0
-7,-98,80,0.0
-7,-98,78,0.0
-7,-94,74,0.0
-7,-101,77,0.0
-8,-126,94,0.0
-6,-106,77,0.0
-8,-123,88,0.0
-7,-116,81,0.0
-1122,-20134,13773,0.0
-1096,-20472,13683,0.0
-1070,-20824,13595,0.0
-7,-131,83,0.0
-6,-129,80,0.0
-7,-145,88,0.0
-6,-141,83,0.0
-6,-151,87,0.0
-6,-154,86,0.0
-7,-174,95,0.0
-6,-186,99,0.0
-6,-185,97,0.0
-6,-172,87,0.0
-5,-197,97,0.0
-6,-209,101,0.0
-6,-227,106,0.0
-5,-217,98,0.0
-5,-230,101,0.0
-5,-233,100,0.0
-4,-249,103,0.0
-4,-256,104,0.0
-4,-261,102,0.0
-3,-299,113,0.0
-2,-324,119,0.0
-2,-330,117,0.0
-2,-341,117,0.0
-1,-335,111,0.0
0,-330,105,0.0
0,-342,105,0.0
95,17080,16642,0.0
55,16940,16860,0.0
16,16812,17092,0.0
-18,14118,14663,0.0
-60,16436,17438,0.0
-97,16036,17383,0.0
-133,15675,17359,0.0
-192,17522,19827,0.0
-233,17212,19902,0.0
-273,16978,20062,0.0
-484,25889,31264,0.0
-540,25272,31194,0.0
-609,25234,31838,0.0
-424,15761,20331,0.0
-456,15282,20156,0.0
-498,15216,20524,0.0
-551,15429,21285,0.0
-584,15050,21239,0.0
-618,14768,21323,0.0
-922,20436,30197,0.0
-977,20183,30526,0.0
-1029,19862,30756,0.0
-1079,19521,30955,0.0
-1122,19052,30945,0.0
-1270,20304,33789,0.0
-1307,19687,33579,0.0
-1075,15293,26742,0.0
-1129,15190,27239,0.0
-1184,15077,27736,0.0
-1219,14700,27756,0.0
-1249,14289,27698,0.0
-1276,13867,27610,0.0
-1315,13572,27769,0.0
-1360,13343,28064,0.0
-1357,12656,27382,0.0
-1375,12206,27176,0.0
-1402,11850,27170,0.0
-1612,12964,30622,0.0
-1105,8457,20597,0.0
-1118,8154,20489,0.0
-1134,7875,20429,0.0
-1150,7605,20385,0.0
-1165,7325,20305,0.0
-1181,7068,20279,0.0
-1192,6788,20181,0.0
-1205,6525,20117,0.0
-1219,6266,20060,0.0
-1232,6012,20008,0.0
-1243,5755,19936,0.0
-1255,5509,19892,0.0
-1266,5257,19816,0.0
-1276,5011,19754,0.0
-1290,4779,19734,0.0
-1297,4529,19633,0.0
-1305,4288,19558,0.0
-1315,4058,19522,0.0
-1324,3823,19449,0.0
-1333,3594,19402,0.0
-1342,3369,19357,0.0
-1349,3144,19303,0.0
-1357,2918,19236,0.0
-1365,2699,19199,0.0
-1370,2476,19114,0.0
-1375,2256,19049,0.0
-1381,2041,18992,0.0
-1389,1830,18969,0.0
-1312,1521,17792,0.0
-1398,1403,18836,0.0
-1406,1197,18822,0.0
-1428,1000,18995,0.0
-1488,821,19676,0.0
-1503,610,19767,0.0
-1555,406,20325,0.0
-1631,193,21213,0.0
-1695,-39,21937,0.0
-2931,-477,37742,1.0
0,0,0,0.0
0,0,0,0.0
0,0,0,0.0
-2988,-2126,37784,1.0
0,0,0,0.0
-3011,-2954,37780,1.0
-2991,-3333,37386,1.0
0,0,0,0.0
0,0,0,0.0
-3014,-4558,37305,1.0
-3021,-4967,37274,1.0
0,0,0,0.0
0,0,0,0.0
-3012,-6145,36865,1.0
0,0,0,0.0
-3009,-6935,36656,1.0
-3015,-7347,36648,1.0
0,0,0,0.0
-3025,-8179,36634,1.0
-3024,-8583,36564,1.0
-3007,-8943,36315,1.0
-3012,-9365,36325,1.0
-2996,-9724,36085,1.0
0,0,0,0.0
-2986,-10519,35902,1.0
0,0,0,0.0
-2980,-11336,35784,1.0
0,0,0,0.0
0,0,0,0.0
-2984,-12648,35816,1.0
0,0,0,0.0
0,0,0,0.0
0,0,0,0.0
0,0,0,0.0
0,0,0,0.0
0,0,0,0.0
0,0,0,0.0
-2823,-15486,34075,1.0
0,0,0,0.0
-2780,-16196,33672,1.0
-2754,-16522,33415,1.0
0,0,0,0.0
0,0,0,0.0
0,0,0,0.0
-2678,-18042,32815,1.0
-2642,-18312,32465,1.0
-2620,-18690,32308,1.0
-2589,-18995,32027,1.0
-2571,-19411,31933,1.0
-2554,-19827,31833,1.0
0,0,0,0.0
-2494,-20490,31356,1.0
-2466,-20848,31160,1.0
0,0,0,0.0
0,0,0,0.0
-2373,-21857,30471,1.0
0,0,0,0.0
-2301,-22460,29918,1.0
-2261,-22726,29599,1.0
-2219,-22970,29253,1.0
-1378,-14688,18293,0.0
-1329,-14606,17792,0.0
-1281,-14514,17293,0.0
-1232,-14391,16774,0.0
-1185,-14282,16287,0.0
-1158,-14403,16069,0.0
-1116,-14332,15645,0.0
-1074,-14250,15221,0.0
-1055,-14485,15139,0.0
-1038,-14726,15061,0.0
-4,-60,61,0.0
-4,-57,55,0.0
-3,-61,58,0.0
-4,-67,62,0.0
-5,-85,78,0.0
-5,-88,79,0.0
-4,-88,78,0.0
-4,-86,74,0.0
-4,-83,70,0.0
-5,-98,81,0.0
-5,-111,89,0.0
-5,-106,84,0.0
-5,-117,90,0.0
-4,-117,88,0.0
-5,-130,96,0.0
-4,-125,90,0.0
-4,-117,81,0.0
-636,-20066,13783,0.0
-606,-20399,13691,0.0
-577,-20764,13613,0.0
-4,-142,91,0.0
-3,-139,87,0.0
-3,-155,94,0.0
-2,-146,87,0.0
-3,-170,99,0.0
-2,-157,89,0.0
-3,-168,93,0.0
-2,-179,96,0.0
-2,-195,102,0.0
-1,-205,104,0.0
-1,-207,103,0.0
-1,-218,105,0.0
0,-224,105,0.0
0,-239,109,0.0
0,-234,104,0.0
0,-258,112,0.0
0,-248,104,0.0
1,-246,100,0.0
1,-250,98,0.0
2,-277,105,0.0
2,-327,121,0.0
3,-342,122,0.0
4,-336,116,0.0
4,-340,113,0.0
6,-345,111,0.0
6,-347,108,0.0
1498,14055,13831,0.0
1479,13975,14046,0.0
1455,13844,14215,0.0
1438,13779,14452,0.0
1416,13666,14643,0.0
1396,13564,14848,0.0
1386,13570,15178,0.0
1369,13500,15428,0.0
1351,13414,15665,0.0
1340,13403,15994,0.0
1322,13314,16239,0.0
1311,13299,16580,0.0
1294,13223,16852,0.0
1638,16848,21952,0.0
1446,14978,19955,0.0
1433,14944,20360,0.0
1411,14814,20644,0.0
1395,14748,21025,0.0
1381,14694,21435,0.0
1539,16487,24612,0.0
1681,18126,27699,0.0
1631,17704,27698,0.0
0,0,0,0.0
1479,16249,26668,0.0
1562,17267,29038,0.0
1530,17008,29316,0.0
1521,17009,30057,0.0
1296,14571,26408,0.0
1253,14179,26365,0.0
1206,13713,26170,0.0
1168,13346,26150,0.0
1203,13816,27806,0.0
1173,13534,27992,0.0
1164,13492,28692,0.0
1155,13438,29397,0.0
1204,14057,31649,0.0
1157,13555,31429,0.0
1117,13129,31365,0.0
705,8319,20492,0.0
680,8034,20420,0.0
656,7766,20384,0.0
630,7475,20274,0.0
609,7212,20229,0.0
586,6946,20170,0.0
565,6683,20111,0.0
544,6425,20054,0.0
523,6162,19973,0.0
501,5899,19883,0.0
483,5662,19866,0.0
465,5413,19801,0.0
447,5168,19741,0.0
430,4924,19671,0.0
413,4689,19629,0.0
397,4451,19569,0.0
382,4227,19559,0.0
365,3974,19401,0.0
352,3759,19416,0.0
337,3522,19307,0.0
322,3292,19218,0.0
310,3074,19189,0.0
298,2862,19189,0.0
286,2641,19123,0.0
275,2427,19091,0.0
264,2211,19032,0.0
253,1995,18951,0.0
242,1781,18872,0.0
221,1494,17906,0.0
224,1364,18797,0.0
215,1156,18715,0.0
211,972,19080,0.0
209,787,19638,0.0
202,577,19683,0.0
202,377,20381,0.0
203,163,21210,0.0
345,-114,37232,1.0
0,0,0,0.0
327,-927,37589,1.0
0,0,0,0.0
308,-1741,37614,1.0
0,0,0,0.0
0,0,0,0.0
0,0,0,0.0
283,-3409,38015,1.0
275,-3801,37799,1.0
272,-4238,38021,1.0
270,-4685,38265,1.0
268,-5127,38432,1.0
0,0,0,0.0
0,0,0,0.0
0,0,0,0.0
256,-6666,37527,1.0
0,0,0,0.0
260,-7565,37824,1.0
262,-8007,37902,1.0
0,0,0,0.0
268,-8835,37771,1.0
0,0,0,0.0
0,0,0,0.0
280,-9997,37257,1.0
284,-10368,37039,1.0
0,0,0,0.0
0,0,0,0.0
302,-11381,36107,1.0
312,-11863,36268,1.0
0,0,0,0.0
0,0,0,0.0
0,0,0,0.0
359,-13597,36200,1.0
0,0,0,0.0
0,0,0,0.0
0,0,0,0.0
413,-15170,35635,1.0
0,0,0,0.0
0,0,0,0.0
448,-15842,34104,1.0
0,0,0,0.0
489,-16823,34263,1.0
507,-17161,34018,1.0
0,0,0,0.0
547,-17927,33708,1.0
569,-18356,33635,1.0
590,-18699,33400,1.0
0,0,0,0.0
634,-19408,32976,1.0
660,-19814,32851,1.0
679,-20028,32409,1.0
0,0,0,0.0
723,-20561,31721,1.0
747,-20862,31437,1.0
771,-21107,31073,1.0
0,0,0,0.0
822,-21698,30506,1.0
850,-22043,30294,1.0
880,-22386,30078,1.0
904,-22588,29675,1.0
0,0,0,0.0
955,-23002,28904,1.0
620,-14651,18008,0.0
627,-14559,17506,0.0
635,-14469,17021,0.0
641,-14340,16505,0.0
653,-14370,16183,0.0
659,-14251,15705,0.0
673,-14296,15417,0.0
687,-14328,15121,0.0
710,-14562,15039,0.0
736,-14824,14983,0.0
762,-15088,14923,0.0
789,-15370,14879,0.0
816,-15627,14805,0.0
845,-15909,14750,0.0
873,-16164,14665,0.0
904,-16447,14602,0.0
934,-16736,14539,0.0
5,-102,87,0.0
998,-17319,14401,0.0
5,-103,83,0.0
6,-105,83,0.0
1102,-18234,14191,0.0
7,-121,92,0.0
1175,-18840,14023,0.0
7,-120,87,0.0
1255,-19511,13878,0.0
1296,-19851,13801,0.0
1338,-20177,13709,0.0
1381,-20534,13630,0.0
1426,-20890,13545,0.0
1471,-21230,13444,0.0
1518,-21599,13354,0.0
10,-152,92,0.0
11,-151,88,0.0
11,-162,92,0.0
12,-173,97,0.0
13,-175,96,0.0
14,-194,103,0.0
14,-189,98,0.0
16,-218,110,0.0
17,-215,105,0.0
17,-226,108,0.0
18,-228,106,0.0
21,-254,115,0.0
21,-263,116,0.0
22,-265,112,0.0
23,-269,111,0.0
23,-273,109,0.0
24,-284,110,0.0
27,-314,117,0.0
29,-334,121,0.0
31,-339,119,0.0
31,-344,117,0.0
31,-343,112,0.0
32,-337,106,0.0
2218,14058,13859,0.0
2193,13896,13994,0.0
2695,17078,17568,0.0
2185,13842,14545,0.0
2182,13819,14835,0.0
2494,15778,17305,0.0
2441,15436,17298,0.0
2017,12739,14587,0.0
2009,12674,14829,0.0
2241,14119,16881,0.0
2049,12886,15747,0.0
2268,14237,17783,0.0
2029,12708,16227,0.0
2280,14245,18599,0.0
2292,14279,19063,0.0
2291,14228,19426,0.0
2290,14178,19800,0.0
2286,14100,20145,0.0
2289,14062,20555,0.0
2317,14179,21213,0.0
2282,13898,21284,0.0
2234,13539,21228,0.0
2147,12943,20784,0.0
2098,12571,20677,0.0
2087,12423,20940,0.0
2082,12309,21265,0.0
2079,12209,21624,0.0
2493,14531,26397,0.0
2435,14073,26229,0.0
2371,13586,25989,0.0
2113,12003,23574,0.0
2278,12803,25831,0.0
2132,11866,24602,0.0
2455,13509,28799,0.0
2151,11702,25662,0.0
2137,11479,25908,0.0
2117,11228,26098,0.0
1636,8558,20497,0.0
1608,8286,20462,0.0
1575,7989,20357,0.0
1546,7710,20288,0.0
1519,7444,20242,0.0
1496,7197,20243,0.0
1469,6930,20179,0.0
1438,6643,20042,0.0
1411,6373,19945,0.0
1391,6142,19963,0.0
1366,5883,19882,0.0
1344,5632,19817,0.0
1324,5398,19800,0.0
1300,5143,19701,0.0
1282,4910,19674,0.0
1259,4663,19580,0.0
1241,4432,19542,0.0
1224,4204,19512,0.0
1203,3965,19416,0.0
1187,3737,19365,0.0
1167,3506,19277,0.0
1153,3288,19257,0.0
1137,3064,19184,0.0
1122,2843,19130,0.0
1104,2619,19024,0.0
1093,2409,19020,0.0
1079,2193,18949,0.0
1067,1983,18922,0.0
1056,1774,18885,0.0
982,1471,17701,0.0
1031,1355,18750,0.0
1022,1149,18721,0.0
1037,969,19145,0.0
1061,786,19729,0.0
1054,573,19720,0.0
1084,373,20402,0.0
1121,159,21220,0.0
0,0,0,0.0
1925,-516,36810,1.0
1915,-912,36787,1.0
1913,-1312,36899,1.0
0,0,0,0.0
1921,-2133,37312,1.0
1924,-2547,37477,1.0
0,0,0,0.0
1907,-3344,37305,1.0
1896,-3733,37143,1.0
1907,-4167,37410,1.0
1917,-4601,37615,1.0
0,0,0,0.0
0,0,0,0.0
1926,-5861,37754,1.0
0,0,0,0.0
1935,-6706,37812,1.0
1920,-7061,37463,1.0
0,0,0,0.0
1932,-7905,37481,1.0
0,0,0,0.0
1939,-8713,37316,1.0
0,0,0,0.0
1949,-9522,37153,1.0
0,0,0,0.0
0,0,0,0.0
0,0,0,0.0
1943,-10942,36147,1.0
0,0,0,0.0
1952,-11686,35802,1.0
1962,-12073,35682,1.0
1972,-12459,35557,1.0
1994,-12926,35657,1.0
0,0,0,0.0
2032,-13791,35629,1.0
2040,-14148,35412,1.0
0,0,0,0.0
2058,-14846,34958,1.0
0,0,0,0.0
0,0,0,0.0
2083,-15828,34158,1.0
0,0,0,0.0
2091,-16367,33417,1.0
2120,-16821,33428,1.0
2132,-17138,33163,1.0
2148,-17479,32947,1.0
0,0,0,0.0
2177,-18111,32435,1.0
2193,-18425,32178,1.0
0,0,0,0.0
2255,-19287,32062,1.0
2276,-19623,31839,1.0
2300,-19984,31656,1.0
2319,-20292,31390,1.0
2340,-20599,31124,1.0
2365,-20936,30905,1.0
2383,-21213,30599,1.0
2405,-21513,30330,1.0
2425,-21789,30027,1.0
2441,-22016,29663,1.0
0,0,0,0.0
2460,-22334,28774,1.0
2478,-22554,28420,1.0
1605,-14642,18049,0.0
1589,-14526,17517,0.0
1579,-14452,17049,0.0
1562,-14320,16529,0.0
1563,-14334,16191,0.0
1559,-14308,15813,0.0
1555,-14268,15432,0.0
1556,-14279,15114,0.0
1584,-14527,15048,0.0
1612,-14772,14975,0.0
1635,-14977,14860,0.0
1672,-15294,14851,0.0
1705,-15567,14793,0.0
1737,-15835,14726,0.0
1770,-16109,14661,0.0
1806,-16390,14597,0.0
1840,-16667,14525,0.0
1879,-16967,14467,0.0
1915,-17248,14389,0.0
1956,-17557,14329,0.0
1995,-17854,14254,0.0
2036,-18157,14177,0.0
2079,-18471,14105,0.0
2121,-18781,14024,0.0
2166,-19109,13952,0.0
2212,-19425,13864,0.0
2259,-19755,13781,0.0
2308,-20098,13701,0.0
2358,-20443,13616,0.0
2412,-20815,13543,0.0
2461,-21135,13430,0.0
2518,-21519,13351,0.0
14,-133,80,0.0
17,-148,88,0.0
18,-153,88,0.0
19,-168,95,0.0
20,-171,93,0.0
22,-186,98,0.0
23,-189,99,0.0
23,-201,101,0.0
25,-204,100,0.0
26,-217,103,0.0
28,-229,107,0.0
30,-241,109,0.0
32,-254,112,0.0
30,-245,104,0.0
32,-258,106,0.0
34,-269,108,0.0
36,-287,112,0.0
39,-303,114,0.0
42,-328,120,0.0
42,-327,116,0.0
42,-327,112,0.0
44,-336,111,0.0
43,-324,103,0.0
-3955,16657,15262,0.0
-4034,16584,15524,0.0
-4119,16533,15811,0.0
-4201,16460,16083,0.0
-4287,16403,16376,0.0
-4351,16254,16580,0.0
-4420,16121,16803,0.0
-4453,15857,16889,0.0
-4437,15425,16789,0.0
-4714,15997,17793,0.0
-4833,16009,18200,0.0
-4929,15938,18521,0.0
-5028,15871,18852,0.0
-5126,15789,19174,0.0
-5212,15667,19454,0.0
-5258,15422,19584,0.0
-5268,15076,19579,0.0
-5284,14752,19598,0.0
-5654,15398,20928,0.0
-5772,15327,21315,0.0
-5883,15234,21684,0.0
-5997,15139,22058,0.0
-6718,16527,24657,0.0
-6707,16079,24568,0.0
-6682,15605,24427,0.0
-6441,14650,23498,0.0
-6680,14793,24321,0.0
-6428,13855,23355,0.0
-6651,13951,24121,0.0
-6675,13620,24161,0.0
-9268,18387,33479,0.0
-9278,17891,33448,0.0
-9247,17324,33272,0.0
-9239,16809,33177,0.0
-9242,16321,33123,0.0
-9216,15792,32968,0.0
-8482,14095,30286,0.0
-8550,13769,30469,0.0
-8436,13157,30003,0.0
-8655,13067,30725,0.0
-8946,13064,31697,0.0
-9117,12869,32241,0.0
-6427,8761,22686,0.0
-6546,8612,23063,0.0
-6744,8554,23716,0.0
-6715,8204,23568,0.0
-6719,7896,23535,0.0
-6702,7571,23434,0.0
-6705,7270,23398,0.0
-6680,6943,23266,0.0
-6674,6641,23203,0.0
-6662,6335,23114,0.0
-6646,6031,23015,0.0
-6640,5738,22952,0.0
-6637,5451,22899,0.0
-6625,5160,22813,0.0
-6620,4876,22751,0.0
-6606,4589,22659,0.0
-6590,4305,22562,0.0
-6584,4030,22497,0.0
-6569,3752,22401,0.0
-6259,3321,21306,0.0
-6493,3182,22057,0.0
-6318,2844,21418,0.0
-6259,2568,21179,0.0
-6344,2351,21422,0.0
-6430,2130,21668,0.0
-6462,1888,21734,0.0
-6420,1626,21549,0.0
-6459,1385,21634,0.0
-6452,1136,21569,0.0
-6440,886,21485,0.0
-6434,640,21420,0.0
-6382,392,21201,0.0
-6353,149,21065,0.0
-6404,-89,21188,0.0
-6220,-320,20536,0.0
-6230,-553,20525,0.0
-6010,-758,19760,0.0
-6287,-1027,20623,0.0
-6372,-1276,20858,0.0
-6371,-1512,20812,0.0
-6363,-1744,20738,0.0
-6362,-1978,20690,0.0
-6347,-2206,20595,0.0
-6346,-2438,20547,0.0
-6346,-2670,20499,0.0
-6339,-2898,20434,0.0
-6335,-3128,20374,0.0
-6322,-3352,20284,0.0
-6326,-3584,20251,0.0
-6300,-3798,20121,0.0
-6302,-4028,20078,0.0
-6303,-4257,20033,0.0
-6300,-4484,19976,0.0
-6286,-4702,19886,0.0
-6265,-4913,19769,0.0
-6243,-5122,19652,0.0
-6246,-5351,19614,0.0
-6125,-5470,19182,0.0
-5931,-5512,18525,0.0
-5913,-5711,18425,0.0
-5899,-5913,18332,0.0
-5919,-6148,18346,0.0
-6234,-6703,19271,0.0
-6247,-6947,19261,0.0
-6256,-7188,19237,0.0
-6269,-7432,19221,0.0
-6240,-7629,19080,0.0
-6268,-7895,19113,0.0
-6280,-8144,19097,0.0
-6275,-8370,19024,0.0
-6283,-8615,18992,0.0
-6278,-8844,18923,0.0
-6232,-9013,18726,0.0
-6278,-9317,18809,0.0
-6284,-9564,18768,0.0
-6286,-9807,18717,0.0
-6293,-10058,18677,0.0
-6276,-10272,18567,0.0
-6288,-10536,18545,0.0
-6304,-10807,18529,0.0
-6302,-11052,18466,0.0
-6311,-11314,18427,0.0
-6322,-11583,18395,0.0
-6282,-11759,18214,0.0
-6320,-12084,18262,0.0
-6324,-12346,18208,0.0
-6282,-12518,18019,0.0
-6323,-12861,18073,0.0
-6310,-13091,17965,0.0
-6218,-13159,17636,0.0
-6160,-13294,17404,0.0
-6195,-13629,17433,0.0
-6182,-13862,17325,0.0
-6326,-14457,17659,0.0
-6388,-14872,17754,0.0
-6404,-15191,17727,0.0
-6415,-15496,17677,0.0
-6427,-15811,17633,0.0
-6441,-16133,17590,0.0
-6447,-16441,17528,0.0
-6457,-16761,17472,0.0
-6466,-17084,17414,0.0
-6473,-17403,17347,0.0
-6482,-17732,17284,0.0
-6487,-18054,17209,0.0
-6500,-18406,17156,0.0
-6499,-18721,17064,0.0
-6513,-19084,17009,0.0
-23,-70,61,0.0
-6533,-19799,16870,0.0
-23,-70,59,0.0
-6552,-20531,16720,0.0
-24,-80,63,0.0
-29,-95,74,0.0
-6581,-21678,16485,0.0
-6590,-22069,16399,0.0
-27,-93,68,0.0
-28,-101,72,0.0
-29,-106,73,0.0
-6403,-22899,15494,0.0
-6285,-22853,15099,0.0
-529,-1960,1264,0.0
-533,-2006,1263,0.0
-529,-2021,1242,0.0
-522,-2032,1217,0.0
-34,-134,78,0.0
-36,-148,84,0.0
-30,-123,68,0.0
-34,-145,78,0.0
-37,-160,84,0.0
-37,-160,82,0.0
-35,-157,78,0.0
-42,-189,92,0.0
-45,-208,98,0.0
-45,-209,95,0.0
-45,-217,97,0.0
-48,-232,100,0.0
-50,-246,103,0.0
-51,-256,104,0.0
-56,-284,112,0.0
-58,-299,114,0.0
-63,-332,122,0.0
-64,-343,123,0.0
-63,-340,117,0.0
-60,-334,112,0.0
-60,-339,109,0.0
-60,-344,106,0.0
-59,-345,103,0.0
-57,-341,98,0.0
-57,-346,95,0.0
0,0,0,0.0
-5822,34031,32632,0.0
-5896,33511,32829,0.0
-3220,17799,17813,0.0
-3164,17016,17398,0.0
-3121,16326,17055,0.0
-3147,16016,17095,0.0
-3256,16123,17585,0.0
-3324,16017,17851,0.0
-3342,15674,17851,0.0
-3393,15486,18025,0.0
-3405,15129,17999,0.0
-3645,15759,19166,0.0
-3731,15699,19519,0.0
-3814,15620,19857,0.0
-3882,15473,20115,0.0
-3972,15406,20483,0.0
-4067,15349,20875,0.0
-4044,14853,20667,0.0
-4059,14504,20652,0.0
-4339,15082,21979,0.0
-4439,15009,22393,0.0
-4542,14935,22816,0.0
-4647,14859,23249,0.0
-4750,14764,23666,0.0
-4853,14665,24089,0.0
-4962,14572,24537,0.0
-5055,14422,24900,0.0
-5172,14331,25381,0.0
-5215,14030,25496,0.0
-5250,13709,25572,0.0
-5551,14067,26948,0.0
-5671,13937,27430,0.0
-5797,13812,27940,0.0
-5914,13660,28415,0.0
-6054,13545,28990,0.0
-6120,13256,29206,0.0
-6258,13117,29768,0.0
-6363,12898,30169,0.0
-4369,8560,20650,0.0
-4382,8290,20642,0.0
-4383,8006,20588,0.0
-4381,7717,20513,0.0
-4381,7437,20453,0.0
-4382,7161,20396,0.0
-4381,6887,20331,0.0
-4375,6609,20248,0.0
-4378,6347,20200,0.0
-4375,6080,20131,0.0
-4372,5817,20060,0.0
-4373,5561,20006,0.0
-4368,5301,19928,0.0
-4367,5050,19869,0.0
-4367,4803,19817,0.0
-4365,4555,19752,0.0
-4363,4311,19689,0.0
-4360,4069,19626,0.0
-4355,3827,19554,0.0
-4356,3592,19504,0.0
-4358,3362,19467,0.0
-4353,3127,19391,0.0
-4351,2896,19331,0.0
-4341,2664,19243,0.0
-4347,2442,19215,0.0
-4349,2220,19179,0.0
-4346,1997,19117,0.0
-4348,1778,19079,0.0
-4342,1557,19006,0.0
-4310,1331,18825,0.0
-4339,1125,18906,0.0
-4461,936,19387,0.0
-4583,737,19870,0.0
-4593,515,19863,0.0
-4809,305,20748,0.0
-4868,74,20955,0.0
-4856,-158,20854,0.0
-4858,-392,20815,0.0
-4858,-623,20762,0.0
-4873,-856,20780,0.0
-4877,-1088,20751,0.0
-4864,-1315,20644,0.0
-4861,-1543,20586,0.0
-4870,-1774,20575,0.0
-4874,-2004,20545,0.0
-4868,-2228,20475,0.0
-4884,-2463,20490,0.0
-4876,-2685,20411,0.0
-4870,-2908,20342,0.0
-4880,-3141,20335,0.0
-4868,-3358,20235,0.0
-4872,-3587,20211,0.0
-4876,-3816,20178,0.0
-4875,-4040,20127,0.0
-4888,-4277,20134,0.0
-4872,-4489,20024,0.0
-4875,-4717,19991,0.0
-4879,-4946,19957,0.0
-4888,-5182,19953,0.0
-4885,-5405,19892,0.0
-4888,-5636,19857,0.0
-4886,-5861,19803,0.0
-4903,-6110,19827,0.0
-4896,-6331,19753,0.0
-4904,-6570,19737,0.0
-4898,-6793,19666,0.0
-4897,-7021,19613,0.0
-4892,-7246,19549,0.0
-4895,-7483,19516,0.0
-4909,-7738,19523,0.0
-4901,-7960,19444,0.0
-4913,-8217,19448,0.0
-4915,-8456,19405,0.0
-4907,-8679,19326,0.0
-4907,-8917,19275,0.0
-4899,-9144,19199,0.0
-4913,-9410,19204,0.0
-4901,-9631,19109,0.0
-4915,-9904,19118,0.0
-4906,-10133,19035,0.0
-4905,-10377,18982,0.0
-4919,-10657,18986,0.0
-4912,-10895,18912,0.0
-4910,-11142,18853,0.0
-4910,-11398,18804,0.0
-4909,-11650,18746,0.0
-4906,-11904,18687,0.0
-4927,-12216,18714,0.0
-4923,-12474,18650,0.0
-4918,-12725,18576,0.0
-4920,-12999,18531,0.0
-4914,-13256,18458,0.0
-4919,-13546,18424,0.0
-4923,-13834,18384,0.0
-4922,-14111,18326,0.0
-4905,-14346,18209,0.0
-4819,-14375,17835,0.0
-4767,-14501,17588,0.0
-4660,-14453,17139,0.0
-4527,-14314,16599,0.0
-4460,-14375,16301,0.0
-4347,-14279,15834,0.0
-4273,-14307,15517,0.0
-4204,-14342,15212,0.0
-4202,-14605,15154,0.0
-4194,-14855,15075,0.0
-4191,-15122,15011,0.0
-18,-62,61,0.0
-25,-93,89,0.0
-26,-98,91,0.0
-25,-97,89,0.0
-27,-105,94,0.0
-27,-108,94,0.0
-24,-99,85,0.0
-26,-107,89,0.0
-21,-91,74,0.0
-22,-96,77,0.0
-23,-104,81,0.0
-23,-106,80,0.0
-25,-114,85,0.0
-23,-108,79,0.0
-26,-123,87,0.0
-26,-126,87,0.0
-25,-123,83,0.0
-4129,-20727,13696,0.0
-24,-123,79,0.0
-23,-120,76,0.0
-28,-150,91,0.0
-26,-140,84,0.0
-26,-141,82,0.0
-28,-155,88,0.0
-29,-165,91,0.0
-27,-159,86,0.0
-28,-167,88,0.0
-29,-176,91,0.0
-31,-188,94,0.0
-33,-209,102,0.0
-33,-215,102,0.0
-34,-227,104,0.0
-33,-225,101,0.0
-35,-239,103,0.0
-36,-253,107,0.0
-37,-263,107,0.0
-36,-261,103,0.0
-39,-290,111,0.0
-44,-336,125,0.0
-43,-340,122,0.0
-42,-339,118,0.0
-42,-340,113,0.0
-41,-344,111,0.0
-40,-347,109,0.0
-39,-341,102,0.0
-39,-346,100,0.0
-1916,33816,32610,0.0
-894,14966,14743,0.0
-930,14752,14844,0.0
-2139,32267,33169,0.0
-2106,30236,31753,0.0
-2178,29803,31975,0.0
-2233,29165,31969,0.0
-2258,28189,31573,0.0
-2341,27947,31986,0.0
-2326,26588,31096,0.0
-2382,26093,31188,0.0
-1530,16076,19640,0.0
-2456,24761,30923,0.0
-1604,15526,19822,0.0
-1697,15789,20611,0.0
-1715,15346,20486,0.0
-1763,15169,20711,0.0
-1845,15280,21341,0.0
-1878,14973,21394,0.0
-2740,21037,30762,0.0
-2730,20197,30230,0.0
-2803,19980,30616,0.0
-2836,19490,30582,0.0
-2912,19284,30994,0.0
-2941,18786,30933,0.0
-3245,19981,33721,0.0
-2731,16221,28063,0.0
-2791,15989,28368,0.0
-2826,15608,28408,0.0
-2797,14898,27826,0.0
-2820,14482,27771,0.0
-2834,14032,27635,0.0
-2872,13707,27738,0.0
-2880,13248,27558,0.0
-2883,12782,27348,0.0
-2782,11876,26147,0.0
-2884,11857,26880,0.0
-2939,11633,27170,0.0
-2245,8552,20591,0.0
-2262,8285,20580,0.0
-2269,7990,20487,0.0
-2284,7724,20464,0.0
-2291,7440,20381,0.0
-2298,7161,20301,0.0
-2304,6881,20209,0.0
-2314,6620,20163,0.0
-2325,6367,20128,0.0
-2333,6107,20067,0.0
-2338,5846,19993,0.0
-2349,5600,19961,0.0
-2353,5343,19878,0.0
-2360,5096,19817,0.0
-2367,4852,19768,0.0
-2370,4602,19675,0.0
-2376,4365,19626,0.0
-2385,4131,19587,0.0
-2383,3887,19480,0.0
-2396,3665,19477,0.0
-2400,3434,19419,0.0
-2398,3199,19314,0.0
-2405,2976,19280,0.0
-2411,2754,19238,0.0
-2419,2535,19212,0.0
-2418,2311,19127,0.0
-2425,2096,19101,0.0
-2424,1876,19014,0.0
-2427,1661,18962,0.0
-2431,1448,18914,0.0
-2438,1239,18893,0.0
-2448,1030,18897,0.0
-2540,851,19534,0.0
-2585,645,19811,0.0
-2647,436,20208,0.0
-2775,223,21111,0.0
-2886,-7,21886,0.0
-4823,-412,36454,1.0
0,0,0,0.0
-4825,-1205,36230,1.0
-4826,-1599,36126,1.0
0,0,0,0.0
0,0,0,0.0
-4809,-2760,35687,1.0
-4764,-3116,35249,1.0
-4764,-3496,35150,1.0
-4795,-3901,35281,1.0
-4850,-4333,35598,1.0
-4849,-4717,35497,1.0
-4846,-5098,35387,1.0
0,0,0,0.0
-4865,-5891,35363,1.0
-4884,-6299,35410,1.0
-4859,-6653,35150,1.0
-4872,-7056,35165,1.0
0,0,0,0.0
-4835,-7772,34757,1.0
0,0,0,0.0
-4817,-8513,34493,1.0
-4806,-8877,34344,1.0
-4805,-9262,34275,1.0
-4813,-9667,34273,1.0
-4834,-10101,34359,1.0
-4854,-10536,34438,1.0
-4853,-10931,34379,1.0
0,0,0,0.0
-4888,-11818,34522,1.0
0,0,0,0.0
-4858,-12559,34213,1.0
-4819,-12865,33892,1.0
-4810,-13251,33789,1.0
0,0,0,0.0
0,0,0,0.0
-4778,-14404,33446,1.0
-4734,-14689,33101,1.0
-4715,-15050,32936,1.0
-4718,-15484,32927,1.0
0,0,0,0.0
-4632,-16049,32271,1.0
-4616,-16424,32135,1.0
-4569,-16687,31787,1.0
-4555,-17067,31660,1.0
-4523,-17386,31424,1.0
0,0,0,0.0
0,0,0,0.0
0,0,0,0.0
-4464,-18947,30964,1.0
-4431,-19268,30726,1.0
-4412,-19652,30589,1.0
-4400,-20070,30503,1.0
-4389,-20502,30427,1.0
-4375,-20925,30334,1.0
-4362,-21350,30237,1.0
-4329,-21692,30022,1.0
-4261,-21853,29558,1.0
-4205,-22072,29181,1.0
-4156,-22318,28846,1.0
-4111,-22595,28554,1.0
-2602,-14631,18080,0.0
-2529,-14549,17583,0.0
-2453,-14441,17069,0.0
-2378,-14329,16566,0.0
-2328,-14349,16228,0.0
-2262,-14270,15789,0.0
-2215,-14300,15479,0.0
-2170,-14335,15183,0.0
-2156,-14578,15105,0.0
-10,-65,66,0.0
-2131,-15099,14978,0.0
-9,-70,68,0.0
-11,-84,80,0.0
-11,-88,81,0.0
-11,-85,77,0.0
-10,-87,78,0.0
-11,-93,80,0.0
-12,-104,89,0.0
-11,-99,82,0.0
-12,-106,86,0.0
-13,-117,94,0.0
-13,-115,89,0.0
-12,-119,91,0.0
-13,-126,94,0.0
-13,-126,91,0.0
-12,-126,90,0.0
-12,-129,90,0.0
-1859,-20259,13762,0.0
-1836,-20585,13660,0.0
-1816,-20956,13582,0.0
-13,-144,91,0.0
-12,-144,89,0.0
-11,-149,89,0.0
-12,-160,94,0.0
-13,-171,98,0.0
-12,-171,95,0.0
-13,-188,102,0.0
-13,-190,100,0.0
-13,-202,104,0.0
-13,-218,110,0.0
-14,-225,110,0.0
-13,-229,109,0.0
-14,-249,115,0.0
-12,-242,109,0.0
-13,-253,110,0.0
-13,-269,114,0.0
-12,-259,107,0.0
-12,-271,108,0.0
-12,-294,114,0.0
-13,-320,120,0.0
-13,-331,121,0.0
-12,-335,118,0.0
-12,-341,115,0.0
-11,-345,113,0.0
-10,-340,107,0.0
-9,-342,104,0.0
843,15088,14789,0.0
775,14253,14271,0.0
754,14280,14605,0.0
712,13888,14510,0.0
689,13848,14781,0.0
660,13706,14945,0.0
640,13737,15304,0.0
611,13589,15469,0.0
580,13397,15583,0.0
1090,26158,31093,0.0
1028,25683,31201,0.0
722,18845,23400,0.0
687,18776,23833,0.0
557,15974,20729,0.0
529,15998,21227,0.0
495,15855,21515,0.0
460,15630,21693,0.0
406,14740,20927,0.0
378,14730,21398,0.0
401,16871,25082,0.0
363,16614,25281,0.0
324,16374,25510,0.0
286,16112,25708,0.0
247,15801,25823,0.0
211,15528,26002,0.0
173,15241,26158,0.0
134,14627,25738,0.0
100,14629,26400,0.0
63,14199,26289,0.0
28,13390,25444,0.0
-4,13705,26738,0.0
-39,13389,26831,0.0
-72,12942,26650,0.0
-105,12787,27071,0.0
-139,12543,27317,0.0
-165,11777,26395,0.0
-199,11719,27047,0.0
-263,13078,31100,0.0
-195,8361,20502,0.0
-217,8081,20442,0.0
-235,7773,20304,0.0
-255,7517,20290,0.0
-274,7249,20234,0.0
-293,6985,20183,0.0
-311,6729,20147,0.0
-329,6472,20098,0.0
-346,6214,20039,0.0
-361,5948,19944,0.0
-377,5700,19894,0.0
-392,5442,19805,0.0
-407,5211,19798,0.0
-420,4964,19723,0.0
-434,4722,19661,0.0
-447,4480,19586,0.0
-460,4248,19539,0.0
-471,4010,19459,0.0
-483,3779,19396,0.0
-496,3560,19395,0.0
-505,3325,19289,0.0
-517,3110,19284,0.0
-526,2886,19214,0.0
-536,2667,19170,0.0
-544,2443,19073,0.0
-553,2228,19024,0.0
-563,2017,19013,0.0
-570,1802,18933,0.0
-543,1497,17762,0.0
-584,1378,18790,0.0
-593,1174,18792,0.0
-610,985,19086,0.0
-637,801,19658,0.0
-646,588,19669,0.0
-674,387,20313,0.0
-711,174,21183,0.0
0,0,0,0.0
-1299,-508,37885,1.0
-1314,-921,37980,1.0
0,0,0,0.0
0,0,0,0.0
-1362,-2182,38409,1.0
-1374,-2604,38464,1.0
-1393,-3042,38712,1.0
0,0,0,0.0
-1394,-3843,38260,1.0
-1407,-4282,38432,1.0
-1421,-4725,38607,1.0
-1417,-5114,38335,1.0
-1418,-5525,38241,1.0
-1418,-5921,38068,1.0
0,0,0,0.0
0,0,0,0.0
0,0,0,0.0
0,0,0,0.0
-1422,-7991,37768,1.0
0,0,0,0.0
0,0,0,0.0
0,0,0,0.0
-1403,-9578,37224,1.0
-1393,-9945,36984,1.0
-1387,-10346,36879,1.0
-1372,-10675,36525,1.0
0,0,0,0.0
0,0,0,0.0
0,0,0,0.0
-1353,-12400,36474,1.0
0,0,0,0.0
-1348,-13358,36665,1.0
0,0,0,0.0
0,0,0,0.0
-1302,-14468,36029,1.0
0,0,0,0.0
0,0,0,0.0
0,0,0,0.0
0,0,0,0.0
0,0,0,0.0
-1175,-16395,34215,1.0
0,0,0,0.0
-1141,-17201,33988,1.0
0,0,0,0.0
-1095,-17859,33470,1.0
-1075,-18262,33351,1.0
-1055,-18675,33245,1.0
-1031,-19025,33026,1.0
-1008,-19408,32863,1.0
0,0,0,0.0
0,0,0,0.0
-927,-20366,32062,1.0
-897,-20683,31795,1.0
-866,-20924,31416,1.0
-837,-21258,31181,1.0
-806,-21537,30868,1.0
-775,-21840,30591,1.0
-743,-22092,30247,1.0
-711,-22412,29999,1.0
-681,-22794,29831,1.0
-645,-22992,29426,1.0
-384,-14645,18331,0.0
-358,-14615,17892,0.0
-330,-14518,17387,0.0
-303,-14417,16892,0.0
-275,-14286,16376,0.0
-254,-14442,16198,0.0
-227,-14250,15639,0.0
-204,-14264,15317,0.0
-181,-14397,15130,0.0
-161,-14636,15053,0.0
-139,-14888,14983,0.0
-117,-15156,14927,0.0
-95,-15417,14860,0.0
0,-60,57,0.0
0,-72,67,0.0
-24,-16254,14681,0.0
0,-79,69,0.0
0,-73,63,0.0
0,-87,73,0.0
0,-84,70,0.0
0,-89,71,0.0
0,-105,82,0.0
0,-105,81,0.0
1,-118,89,0.0
0,-114,85,0.0
1,-109,78,0.0
1,-107,75,0.0
1,-129,89,0.0
2,-138,94,0.0
2,-123,80,0.0
2,-135,87,0.0
3,-146,92,0.0
3,-143,87,0.0
3,-156,93,0.0
3,-153,89,0.0
4,-169,96,0.0
4,-159,88,0.0
4,-168,91,0.0
4,-174,92,0.0
6,-195,100,0.0
6,-205,103,0.0
7,-213,104,0.0
7,-209,98,0.0
8,-230,106,0.0
8,-234,105,0.0
10,-240,104,0.0
10,-243,102,0.0
10,-244,100,0.0
12,-254,101,0.0
12,-268,103,0.0
15,-310,115,0.0
16,-329,119,0.0
17,-334,116,0.0
18,-337,113,0.0
18,-330,108,0.0
18,-334,105,0.0
1859,14070,13862,0.0
1845,14000,14089,0.0
1810,13774,14160,0.0
1818,13877,14573,0.0
1807,13828,14834,0.0
1776,13620,14927,0.0
1711,13152,14728,0.0
1667,12840,14691,0.0
1648,12723,14876,0.0
1765,13653,16312,0.0
1711,13253,16185,0.0
1706,13239,16524,0.0
1694,13162,16795,0.0
1683,13084,17070,0.0
1673,13018,17365,0.0
1663,12953,17672,0.0
1652,12879,17971,0.0
1643,12811,18288,0.0
1635,12744,18615,0.0
1624,12656,18918,0.0
1616,12578,19246,0.0
1607,12503,19588,0.0
1599,12421,19927,0.0
1589,12330,20264,0.0
1583,12258,20643,0.0
1573,12155,20979,0.0
1567,12077,21371,0.0
1561,11992,21765,0.0
1555,11903,22163,0.0
1550,11813,22577,0.0
1542,11709,22977,0.0
1538,11621,23424,0.0
1533,11513,23850,0.0
1529,11419,24320,0.0
1526,11316,24789,0.0
1520,11196,25245,0.0
1517,11083,25733,0.0
1513,10954,26210,0.0
1159,8320,20528,0.0
1127,7997,20359,0.0
1104,7758,20392,0.0
1077,7478,20314,0.0
1047,7173,20154,0.0
1028,6945,20200,0.0
1005,6686,20151,0.0
980,6414,20053,0.0
960,6173,20044,0.0
936,5907,19940,0.0
916,5659,19889,0.0
894,5404,19802,0.0
875,5160,19746,0.0
856,4925,19710,0.0
837,4680,19629,0.0
818,4437,19540,0.0
801,4203,19485,0.0
783,3969,19414,0.0
770,3753,19419,0.0
752,3515,19304,0.0
740,3304,19328,0.0
724,3072,19216,0.0
710,2849,19139,0.0
697,2632,19104,0.0
685,2418,19064,0.0
673,2208,19046,0.0
661,1991,18967,0.0
648,1775,18859,0.0
600,1473,17699,0.0
627,1357,18759,0.0
619,1154,18744,0.0
621,967,19066,0.0
635,787,19734,0.0
628,574,19721,0.0
640,373,20340,0.0
659,160,21156,0.0
0,0,0,0.0
1135,-518,37080,1.0
1127,-920,37136,1.0
0,0,0,0.0
1114,-1727,37250,1.0
1114,-2143,37498,1.0
1119,-2575,37873,1.0
1111,-2981,37818,1.0
1103,-3382,37706,1.0
0,0,0,0.0
0,0,0,0.0
0,0,0,0.0
0,0,0,0.0
0,0,0,0.0
0,0,0,0.0
0,0,0,0.0
0,0,0,0.0
1099,-7140,37845,1.0
0,0,0,0.0
1100,-7939,37610,1.0
1106,-8381,37688,1.0
0,0,0,0.0
1112,-9185,37476,1.0
1117,-9591,37389,1.0
1120,-9970,37194,1.0
1125,-10366,37070,1.0
0,0,0,0.0
1123,-11009,36331,1.0
1124,-11336,36004,1.0
1137,-11771,36026,1.0
1146,-12157,35892,1.0
1163,-12614,35960,1.0
0,0,0,0.0
0,0,0,0.0
0,0,0,0.0
1222,-14315,35791,1.0
1231,-14655,35528,1.0
1246,-15051,35398,1.0
1257,-15371,35098,1.0
0,0,0,0.0
1262,-15803,34065,1.0
1271,-16078,33703,1.0
1303,-16629,33911,1.0
0,0,0,0.0
1339,-17361,33556,1.0
1351,-17631,33198,1.0
0,0,0,0.0
1396,-18418,32943,1.0
0,0,0,0.0
0,0,0,0.0
1466,-19536,32436,1.0
1489,-19891,32234,1.0
1506,-20152,31883,1.0
0,0,0,0.0
1548,-20743,31302,1.0
1571,-21038,31018,1.0
1595,-21359,30772,1.0
1614,-21586,30395,1.0
1641,-21922,30173,1.0
1666,-22205,29879,1.0
0,0,0,0.0
0,0,0,0.0
1722,-22769,28655,1.0
1113,-14660,18048,0.0
1111,-14596,17578,0.0
1108,-14492,17074,0.0
1105,-14377,16573,0.0
1108,-14352,16189,0.0
1111,-14325,15811,0.0
1117,-14317,15465,0.0
1121,-14309,15125,0.0
1146,-14544,15046,0.0
1174,-14798,14982,0.0
1198,-15015,14877,0.0
1231,-15330,14865,0.0
1261,-15609,14812,0.0
1291,-15869,14737,0.0
1321,-16134,14664,0.0
1354,-16422,14605,0.0
1386,-16689,14523,0.0
1421,-16980,14458,0.0
1456,-17279,14394,0.0
1493,-17575,14323,0.0
1529,-17871,14247,0.0
1568,-18184,14178,0.0
1609,-18509,14113,0.0
11,-132,99,0.0
1690,-19137,13951,0.0
1732,-19453,13864,0.0
1777,-19799,13791,0.0
1821,-20126,13700,0.0
1869,-20480,13620,0.0
1917,-20819,13525,0.0
1967,-21187,13442,0.0
2018,-21553,13352,0.0
13,-140,85,0.0
14,-155,91,0.0
15,-158,91,0.0
17,-179,100,0.0
18,-193,105,0.0
18,-194,104,0.0
19,-204,106,0.0
20,-204,103,0.0
21,-219,107,0.0
22,-229,109,0.0
23,-234,108,0.0
25,-242,109,0.0
26,-254,111,0.0
27,-257,109,0.0
28,-269,111,0.0
30,-278,111,0.0
30,-285,111,0.0
34,-312,117,0.0
36,-333,121,0.0
38,-341,121,0.0
37,-333,113,0.0
37,-335,110,0.0
38,-338,107,0.0
-4152,16663,15198,0.0
-4236,16603,15471,0.0
-4326,16563,15768,0.0
-4406,16476,16026,0.0
-4463,16302,16203,0.0
-4411,15739,15983,0.0
-4472,15585,16172,0.0
-4635,15774,16726,0.0
-4647,15446,16737,0.0
-4943,16047,17771,0.0
-5053,16017,18128,0.0
-5157,15963,18468,0.0
-5247,15857,18753,0.0
-5350,15785,19085,0.0
-5257,15143,18721,0.0
-5455,15335,19387,0.0
-5429,14896,19260,0.0
-5487,14691,19431,0.0
-5868,15328,20741,0.0
-6705,17086,23657,0.0
-6871,17077,24200,0.0
-6968,16886,24497,0.0
-7036,16621,24689,0.0
-7029,16187,24624,0.0
-7023,15757,24555,0.0
-7005,15310,24449,0.0
-6986,14870,24339,0.0
-6980,14467,24278,0.0
-6965,14048,24180,0.0
-6964,13670,24140,0.0
-9669,18456,33452,0.0
-9675,17954,33415,0.0
-9666,17430,33324,0.0
-9648,16900,33203,0.0
-9635,16387,33103,0.0
-9633,15899,33037,0.0
-8848,14162,30290,0.0
-8916,13835,30472,0.0
-8844,13295,30173,0.0
-8965,13046,30530,0.0
-9394,13227,31938,0.0
-9458,12874,32097,0.0
-6703,8813,22707,0.0
-6828,8664,23089,0.0
-7002,8569,23638,0.0
-7024,8279,23668,0.0
-7001,7942,23550,0.0
-6984,7616,23453,0.0
-6990,7318,23428,0.0
-6971,6997,23322,0.0
-6958,6687,23238,0.0
-6934,6371,23119,0.0
-6926,6074,23051,0.0
-6930,5788,23020,0.0
-6913,5489,22922,0.0
-6909,5203,22869,0.0
-6882,4903,22736,0.0
-6875,4621,22669,0.0
-6869,4343,22611,0.0
-6853,4060,22517,0.0
-6849,3788,22461,0.0
-6519,3350,21335,0.0
-6577,3125,21487,0.0
-6573,2867,21432,0.0
-6532,2600,21259,0.0
-6669,2399,21660,0.0
-6781,2182,21984,0.0
-6771,1923,21908,0.0
-6766,1667,21850,0.0
-6755,1412,21770,0.0
-6746,1160,21696,0.0
-6742,910,21644,0.0
-6732,660,21568,0.0
-6727,413,21507,0.0
-6707,167,21400,0.0
-6190,-70,19710,0.0
-6499,-310,20652,0.0
-6483,-543,20557,0.0
-6293,-753,19911,0.0
-6583,-1025,20787,0.0
-6673,-1277,21028,0.0
