//X,Y,Z,Classification
-21,-150,84,0.0
-25,-175,96,0.0
-24,-176,93,0.0
-24,-181,94,0.0
-24,-185,93,0.0
-24,-186,92,0.0
-26,-216,104,0.0
-26,-217,101,0.0
-26,-225,101,0.0
-27,-235,104,0.0
-28,-250,106,0.0
-30,-270,111,0.0
-30,-273,110,0.0
-30,-291,113,0.0
-33,-324,121,0.0
-33,-337,123,0.0
-33,-335,118,0.0
-32,-340,115,0.0
-32,-341,112,0.0
-30,-335,106,0.0
-28,-329,100,0.0
-28,-335,98,0.0
0,0,0,0.0
0,0,0,0.0
-3270,36998,37043,0.0
-2926,31785,32512,0.0
-2937,30655,32032,0.0
-3002,30137,32172,0.0
-3026,29229,31881,0.0
-3078,28632,31909,0.0
-3152,28249,32169,0.0
-1413,12206,14203,0.0
-1438,11987,14256,0.0
-1824,14657,17817,0.0
-1871,14517,18038,0.0
-1851,13868,17618,0.0
-1859,13445,17464,0.0
-1865,13036,17316,0.0
-1871,12640,17171,0.0
-1876,12245,17017,0.0
-1902,12003,17067,0.0
-2023,12346,17962,0.0
-2031,11979,17840,0.0
-2050,11695,17832,0.0
-2085,11505,17961,0.0
-3491,18629,29790,0.0
-2311,11924,19534,0.0
-2469,12327,20696,0.0
-2497,12053,20746,0.0
-2509,11710,20668,0.0
-2524,11388,20620,0.0
-2540,11078,20584,0.0
-3776,15919,30366,0.0
-3810,15525,30417,0.0
-3907,15379,30957,0.0
-3393,12898,26689,0.0
-4084,14993,31908,0.0
-3545,12561,27507,0.0
-3541,12106,27295,0.0
-3547,11694,27161,0.0
-3557,11301,27061,0.0
-3503,10726,26494,0.0
-3549,10461,26674,0.0
-3520,9985,26304,0.0
-3578,9757,26576,0.0
-3616,9477,26711,0.0
-3635,9143,26696,0.0
-3620,8737,26450,0.0
-3641,8420,26462,0.0
-4310,9540,31160,0.0
-4392,9294,31591,0.0
0,0,0,0.0
-2699,5200,19223,0.0
-2708,4968,19199,0.0
-2754,4802,19433,0.0
-2993,4952,21026,0.0
-3103,4859,21695,0.0
-3128,4627,21777,0.0
-3142,4378,21784,0.0
-3134,4102,21634,0.0
-3125,3829,21484,0.0
-3147,3598,21551,0.0
-3151,3345,21487,0.0
-3154,3093,21424,0.0
-3150,2839,21318,0.0
-3154,2595,21266,0.0
-3164,2356,21252,0.0
-3160,2109,21149,0.0
-3161,1870,21082,0.0
-3163,1631,21022,0.0
-3167,1395,20973,0.0
-3158,1156,20844,0.0
-3119,911,20525,0.0
-3145,689,20628,0.0
-3167,463,20700,0.0
-3093,229,20157,0.0
-3095,7,20107,0.0
-3024,-208,19593,0.0
-3160,-442,20415,0.0
-3057,-644,19688,0.0
-3080,-865,19780,0.0
-3073,-1077,19678,0.0
-3097,-1302,19779,0.0
-3170,-1553,20186,0.0
-3115,-1741,19787,0.0
-3116,-1958,19747,0.0
-3170,-2209,20031,0.0
-3165,-2424,19955,0.0
-3168,-2643,19919,0.0
-3163,-2854,19839,0.0
-3162,-3070,19786,0.0
-3160,-3284,19728,0.0
-3160,-3502,19687,0.0
-3155,-3711,19609,0.0
-3154,-3926,19560,0.0
-3151,-4137,19495,0.0
-3150,-4353,19452,0.0
-3146,-4563,19383,0.0
-3143,-4773,19323,0.0
-3138,-4983,19257,0.0
-3138,-5199,19215,0.0
-3132,-5407,19144,0.0
-3130,-5619,19091,0.0
-3125,-5830,19027,0.0
-3122,-6042,18971,0.0
-3119,-6258,18923,0.0
-3114,-6467,18860,0.0
-3108,-6675,18786,0.0
-3104,-6891,18737,0.0
-3101,-7107,18684,0.0
-3093,-7312,18605,0.0
-3089,-7528,18550,0.0
-3083,-7739,18486,0.0
-3081,-7960,18440,0.0
-3073,-8169,18365,0.0
-3068,-8387,18308,0.0
-3065,-8612,18268,0.0
-3058,-8825,18197,0.0
-3054,-9050,18152,0.0
-3051,-9280,18109,0.0
-3044,-9498,18042,0.0
-3040,-9726,17992,0.0
-3036,-9958,17948,0.0
-3031,-10190,17899,0.0
-3023,-10414,17834,0.0
-3021,-10654,17794,0.0
-3010,-10873,17715,0.0
-3005,-11111,17665,0.0
-3001,-11358,17625,0.0
-2991,-11584,17550,0.0
-2988,-11839,17515,0.0
-2979,-12074,17445,0.0
-2973,-12323,17395,0.0
-2965,-12567,17334,0.0
-2956,-12810,17266,0.0
-2953,-13085,17240,0.0
-2915,-13198,16999,0.0
-2863,-13255,16690,0.0
-2922,-13823,17020,0.0
-2853,-13795,16610,0.0
-2878,-14221,16747,0.0
-2879,-14534,16741,0.0
-2877,-14843,16723,0.0
-2873,-15142,16689,0.0
-2814,-15161,16346,0.0
-2864,-15766,16631,0.0
-2860,-16087,16602,0.0
-2861,-16441,16601,0.0
-2855,-16767,16564,0.0
-12,-71,69,0.0
-11,-70,67,0.0
-12,-71,65,0.0
-12,-81,73,0.0
-14,-91,81,0.0
-14,-90,78,0.0
-14,-91,78,0.0
-15,-101,84,0.0
-15,-108,88,0.0
-14,-106,85,0.0
-17,-124,96,0.0
-17,-127,96,0.0
-17,-128,95,0.0
-15,-118,86,0.0
-15,-124,88,0.0
-17,-142,97,0.0
-2636,-22778,15391,0.0
-2619,-23202,15314,0.0
-2595,-23568,15192,0.0
-2582,-24048,15135,0.0
-14,-136,82,0.0
-16,-156,93,0.0
-16,-158,92,0.0
-17,-174,99,0.0
-17,-181,100,0.0
-17,-189,102,0.0
-17,-193,101,0.0
-17,-197,101,0.0
-18,-218,109,0.0
-18,-218,106,0.0
-18,-229,108,0.0
-18,-236,108,0.0
-18,-238,106,0.0
-18,-254,110,0.0
-18,-257,107,0.0
-19,-279,114,0.0
-18,-281,112,0.0
-19,-301,115,0.0
-19,-332,123,0.0
-20,-333,120,0.0
-18,-338,117,0.0
-18,-343,115,0.0
-17,-346,112,0.0
-17,-349,109,0.0
-16,-346,104,0.0
-608,13720,13261,0.0
-636,13474,13305,0.0
-666,13260,13374,0.0
-1655,31022,31964,0.0
-1718,30391,31991,0.0
-1782,29824,32072,0.0
-1809,28697,31530,0.0
-1909,28766,32294,0.0
-1961,28090,32223,0.0
-1960,26748,31355,0.0
-904,11758,14086,0.0
-931,11562,14157,0.0
-2147,25474,31887,0.0
-2138,24265,31051,0.0
-2166,23534,30791,0.0
-2191,22809,30519,0.0
-2243,22391,30642,0.0
-2277,21806,30526,0.0
-2368,21755,31160,0.0
-2352,20755,30420,0.0
-1494,12660,18994,0.0
-2497,20353,31259,0.0
-1533,12017,18901,0.0
-1645,12399,19975,0.0
-1641,11901,19644,0.0
-1697,11838,20027,0.0
-1774,11917,20667,0.0
-1802,11651,20719,0.0
-2597,16157,29476,0.0
-2684,16080,30107,0.0
-2734,15768,30310,0.0
-2914,16177,31938,0.0
-2981,15930,32316,0.0
-3044,15652,32641,0.0
-2583,12781,27413,0.0
-2649,12611,27836,0.0
-2663,12192,27711,0.0
-2634,11591,27138,0.0
-2651,11216,27075,0.0
-2666,10835,26984,0.0
-2691,10499,26991,0.0
-2719,10184,27052,0.0
-2759,9912,27223,0.0
-2729,9398,26714,0.0
-2759,9098,26793,0.0
-2716,8570,26170,0.0
-2768,8352,26480,0.0
-3003,8657,28526,0.0
-3345,9200,31554,0.0
-3362,8810,31493,0.0
-2074,5172,19297,0.0
-2093,4964,19362,0.0
-2233,5020,20513,0.0
-2117,4509,19335,0.0
-1917,3856,17395,0.0
-1849,3509,16689,0.0
-1861,3320,16693,0.0
-1799,3009,16050,0.0
-1778,2781,15780,0.0
-2435,3547,21502,0.0
-2442,3298,21449,0.0
-2446,3048,21373,0.0
-2449,2799,21298,0.0
-2455,2557,21249,0.0
-2459,2314,21185,0.0
-2465,2075,21143,0.0
-2468,1836,21072,0.0
-2471,1599,21003,0.0
-2473,1362,20930,0.0
-2461,1123,20747,0.0
-2397,868,20123,0.0
-2355,634,19696,0.0
-2349,416,19572,0.0
-2355,200,19550,0.0
-2357,-13,19495,0.0
-2361,-226,19460,0.0
-2364,-438,19420,0.0
-2364,-649,19354,0.0
-2368,-860,19323,0.0
-2369,-1069,19266,0.0
-2375,-1280,19250,0.0
-2403,-1506,19422,0.0
-2433,-1737,19612,0.0
-2468,-1976,19830,0.0
-2491,-2212,19972,0.0
-2496,-2431,19952,0.0
-2494,-2643,19881,0.0
-2490,-2855,19806,0.0
-2490,-3070,19758,0.0
-2488,-3282,19692,0.0
-2486,-3492,19626,0.0
-2484,-3703,19567,0.0
-2486,-3920,19539,0.0
-2482,-4128,19467,0.0
-2479,-4339,19408,0.0
-2477,-4549,19351,0.0
-2474,-4760,19295,0.0
-2472,-4971,19243,0.0
-2469,-5180,19179,0.0
-2468,-5396,19145,0.0
-2460,-5596,19051,0.0
-2456,-5806,18992,0.0
-2455,-6022,18952,0.0
-2448,-6227,18879,0.0
-2449,-6449,18857,0.0
-2441,-6653,18775,0.0
-2439,-6870,18733,0.0
-2433,-7077,18665,0.0
-2427,-7286,18597,0.0
-2420,-7493,18527,0.0
-2414,-7704,18462,0.0
-2411,-7927,18426,0.0
-2403,-8134,18351,0.0
-2397,-8349,18293,0.0
-2390,-8562,18230,0.0
-2386,-8784,18182,0.0
-2378,-9002,18125,0.0
-2373,-9224,18073,0.0
-2369,-9455,18035,0.0
-2363,-9684,17990,0.0
-2358,-9913,17941,0.0
-2350,-10135,17879,0.0
-2341,-10357,17814,0.0
-2333,-10582,17751,0.0
-2326,-10815,17699,0.0
-2321,-11066,17673,0.0
-2310,-11288,17597,0.0
-2303,-11529,17548,0.0
-2294,-11771,17497,0.0
-2285,-12007,17434,0.0
-2278,-12261,17393,0.0
-2266,-12495,17320,0.0
-2256,-12735,17253,0.0
-2250,-13008,17227,0.0
-2242,-13272,17182,0.0
-2230,-13524,17120,0.0
-2219,-13779,17057,0.0
-2212,-14066,17029,0.0
-2201,-14335,16973,0.0
-2191,-14614,16926,0.0
-2180,-14895,16876,0.0
-2170,-15181,16828,0.0
-2155,-15451,16756,0.0
-2146,-15760,16722,0.0
-2133,-16050,16661,0.0
-2119,-16338,16596,0.0
-2106,-16646,16544,0.0
-2093,-16961,16494,0.0
-9,-69,66,0.0
-9,-78,72,0.0
-10,-83,76,0.0
-10,-87,78,0.0
-10,-85,74,0.0
-10,-95,81,0.0
-11,-101,85,0.0
-10,-102,82,0.0
-9,-99,78,0.0
-11,-111,86,0.0
-10,-114,88,0.0
-12,-123,92,0.0
-10,-114,84,0.0
-10,-109,78,0.0
-10,-122,85,0.0
-1802,-22581,15378,0.0
-1760,-22756,15139,0.0
-1743,-23277,15125,0.0
-1687,-23275,14768,0.0
-9,-135,83,0.0
-10,-145,88,0.0
-11,-166,98,0.0
-10,-158,91,0.0
-10,-160,90,0.0
-9,-167,91,0.0
-10,-177,94,0.0
-10,-188,97,0.0
-10,-192,97,0.0
-11,-212,104,0.0
-11,-221,105,0.0
-10,-231,107,0.0
-10,-231,104,0.0
-10,-237,104,0.0
-9,-252,107,0.0
-9,-262,108,0.0
-9,-273,110,0.0
-9,-282,110,0.0
-10,-310,117,0.0
-9,-336,122,0.0
-9,-342,120,0.0
-8,-346,118,0.0
-8,-348,114,0.0
-7,-343,108,0.0
-7,-347,106,0.0
-267,13762,13360,0.0
-304,13811,13694,0.0
-331,13413,13586,0.0
-419,15285,15816,0.0
-455,15079,15939,0.0
-474,14370,15519,0.0
-506,14143,15605,0.0
-542,13986,15768,0.0
-574,13763,15854,0.0
-610,13617,16029,0.0
-553,11547,13892,0.0
-583,11424,14049,0.0
-608,11207,14088,0.0
-1396,24236,31145,0.0
-1414,23182,30461,0.0
-1467,22749,30568,0.0
-1513,22244,30571,0.0
-1548,21584,30345,0.0
-1630,21608,31083,0.0
-1641,20681,30443,0.0
-1673,20095,30278,0.0
-1103,12627,19478,0.0
-1134,12388,19568,0.0
-1144,11934,19310,0.0
-1177,11731,19448,0.0
-1269,12090,20542,0.0
-1300,11844,20629,0.0
-1329,11589,20702,0.0
-1948,16273,29822,0.0
-2009,16067,30216,0.0
-2049,15703,30320,0.0
-2269,16658,33035,0.0
-2298,16161,32933,0.0
-2327,15684,32856,0.0
-1866,12056,25977,0.0
-2031,12575,27885,0.0
-1997,11845,27045,0.0
-2026,11511,27079,0.0
-2047,11145,27031,0.0
-2066,10769,26947,0.0
-2090,10431,26946,0.0
-2108,10068,26871,0.0
-2126,9712,26804,0.0
-2139,9343,26688,0.0
-2143,8942,26466,0.0
-2144,8537,26201,0.0
-2361,8967,28577,0.0
-2385,8634,28600,0.0
-2653,9143,31523,0.0
-2670,8751,31447,0.0
-1661,5169,19390,0.0
-1685,4975,19514,0.0
-1807,5054,20770,0.0
-2731,7217,31128,0.0
-1807,4505,20437,0.0
-1828,4291,20533,0.0
-1865,4109,20792,0.0
-1953,4029,21627,0.0
-1961,3774,21559,0.0
-1967,3520,21486,0.0
-1972,3268,21403,0.0
-1977,3019,21331,0.0
-1673,2340,17944,0.0
-1691,2151,18019,0.0
-1994,2289,21136,0.0
-2002,2052,21102,0.0
-2006,1814,21032,0.0
-2009,1578,20957,0.0
-2015,1344,20914,0.0
-2004,1104,20692,0.0
-1946,848,20004,0.0
-1918,617,19624,0.0
-1922,402,19575,0.0
-1936,189,19625,0.0
-1932,-25,19512,0.0
-1933,-237,19437,0.0
-1936,-447,19388,0.0
-1942,-659,19369,0.0
-1942,-869,19307,0.0
-1944,-1076,19248,0.0
-1947,-1286,19215,0.0
-1972,-1511,19403,0.0
-1998,-1741,19592,0.0
-2025,-1978,19798,0.0
-2050,-2216,19978,0.0
-2052,-2433,19938,0.0
-2047,-2642,19841,0.0
-2047,-2854,19782,0.0
-2047,-3068,19740,0.0
-2049,-3284,19703,0.0
-2047,-3493,19634,0.0
-2043,-3700,19554,0.0
-2044,-3914,19517,0.0
-2041,-4125,19459,0.0
-2037,-4330,19382,0.0
-2035,-4540,19328,0.0
-2032,-4750,19273,0.0
-2030,-4957,19212,0.0
-2026,-5164,19145,0.0
-2023,-5376,19098,0.0
-2021,-5589,19054,0.0
-2019,-5802,19009,0.0
-2015,-6010,18946,0.0
-2009,-6218,18881,0.0
-2004,-6422,18809,0.0
-2003,-6644,18786,0.0
-1993,-6838,18682,0.0
-1990,-7053,18637,0.0
-1986,-7272,18597,0.0
-1980,-7477,18523,0.0
-1973,-7690,18466,0.0
-1967,-7899,18401,0.0
-1962,-8117,18352,0.0
-1955,-8329,18288,0.0
-1948,-8543,18230,0.0
-1942,-8761,18175,0.0
-1923,-8924,18009,0.0
-1912,-9124,17919,0.0
-1899,-9312,17805,0.0
-1891,-9532,17752,0.0
-1886,-9763,17717,0.0
-1899,-10097,17858,0.0
-1892,-10333,17819,0.0
-1882,-10553,17750,0.0
-1874,-10785,17699,0.0
-1865,-11015,17639,0.0
-1856,-11248,17585,0.0
-1846,-11487,17533,0.0
-1837,-11729,17484,0.0
-1827,-11970,17431,0.0
-1817,-12212,17375,0.0
-1807,-12457,17319,0.0
-1797,-12715,17278,0.0
-1785,-12963,17219,0.0
-1775,-13231,17184,0.0
-1763,-13475,17112,0.0
-1753,-13757,17084,0.0
-1739,-14013,17019,0.0
-1727,-14280,16965,0.0
-1717,-14574,16936,0.0
-1702,-14843,16874,0.0
-1690,-15136,16835,0.0
-1675,-15407,16766,0.0
-1661,-15705,16722,0.0
-1646,-15993,16662,0.0
-1630,-16285,16602,0.0
-1614,-16575,16534,0.0
-1596,-16869,16465,0.0
-5,-55,53,0.0
-6,-63,59,0.0
-7,-85,78,0.0
-6,-78,70,0.0
-6,-84,74,0.0
-5,-69,59,0.0
-8,-98,82,0.0
-8,-105,86,0.0
-7,-103,83,0.0
-6,-92,72,0.0
-7,-99,77,0.0
-7,-112,84,0.0
-7,-119,87,0.0
-7,-116,83,0.0
-1217,-20998,14700,0.0
-1195,-21426,14657,0.0
-1168,-21815,14580,0.0
-1192,-23205,15150,0.0
-1088,-22114,14100,0.0
-1136,-24146,15031,0.0
-6,-137,82,0.0
-6,-133,79,0.0
-6,-159,92,0.0
-6,-151,84,0.0
-7,-180,99,0.0
-6,-172,92,0.0
-6,-177,92,0.0
-6,-200,101,0.0
-6,-206,102,0.0
-6,-216,104,0.0
-5,-213,99,0.0
-5,-229,104,0.0
-5,-237,105,0.0
-5,-241,103,0.0
-4,-246,102,0.0
-4,-256,104,0.0
-3,-266,104,0.0
-3,-306,116,0.0
-3,-330,121,0.0
-2,-336,119,0.0
-1,-338,115,0.0
-1,-341,113,0.0
0,-336,107,0.0
0,-339,104,0.0
84,15221,14831,0.0
49,14975,14904,0.0
13,13701,13930,0.0
-17,13365,13880,0.0
-48,13230,14038,0.0
-89,14844,16091,0.0
-124,14601,16170,0.0
-157,14402,16297,0.0
-192,14225,16449,0.0
-205,12744,15059,0.0
-237,12688,15322,0.0
-290,13575,16756,0.0
-268,11109,14017,0.0
-335,12442,16049,0.0
-372,12522,16516,0.0
-404,12351,16658,0.0
-435,12177,16798,0.0
-831,21429,30241,0.0
-903,21530,31087,0.0
-936,20742,30649,0.0
-970,20036,30305,0.0
-996,19220,29760,0.0
-1039,18800,29811,0.0
-732,12440,20205,0.0
-756,12073,20090,0.0
-781,11768,20072,0.0
-829,11793,20621,0.0
-858,11552,20717,0.0
-1269,16149,29709,0.0
-1326,15992,30194,0.0
-1364,15615,30269,0.0
-1521,16535,32922,0.0
-1558,16078,32894,0.0
-1587,15564,32737,0.0
-1288,12020,26005,0.0
-1646,14610,32527,0.0
-1394,11783,27017,0.0
-1426,11475,27106,0.0
-1449,11098,27028,0.0
-1472,10728,26958,0.0
-1498,10400,26980,0.0
-1517,10023,26867,0.0
-1536,9659,26775,0.0
-1555,9308,26706,0.0
-1513,8613,25603,0.0
-1567,8480,26146,0.0
-1856,9544,30552,0.0
-1911,9328,31042,0.0
-1960,9077,31445,0.0
-1980,8685,31359,0.0
-2001,8310,31326,0.0
-2016,7916,31203,0.0
-1359,5035,20794,0.0
-1415,4941,21422,0.0
-1450,4764,21729,0.0
-1461,4507,21684,0.0
-1474,4258,21662,0.0
-1485,4005,21619,0.0
-1494,3752,21557,0.0
-1503,3500,21491,0.0
-1508,3245,21389,0.0
-1514,2996,21306,0.0
-1524,2755,21272,0.0
-1532,2514,21224,0.0
-1506,2226,20716,0.0
-1521,2004,20771,0.0
-1467,1700,19896,0.0
-1443,1450,19453,0.0
0,0,0,0.0
-1567,1097,20840,0.0
-1571,868,20786,0.0
-1576,640,20724,0.0
-1580,413,20668,0.0
-1544,182,20083,0.0
-1514,-35,19600,0.0
-1546,-253,19916,0.0
-1540,-465,19735,0.0
-1531,-673,19524,0.0
-1582,-912,20097,0.0
-1597,-1137,20208,0.0
-1602,-1356,20180,0.0
-1600,-1569,20075,0.0
-1606,-1789,20074,0.0
-1608,-2006,20028,0.0
-1607,-2218,19958,0.0
-1608,-2431,19898,0.0
-1606,-2640,19809,0.0
-1606,-2853,19761,0.0
-1604,-3061,19686,0.0
-1604,-3273,19640,0.0
-1604,-3483,19580,0.0
-1537,-3542,18721,0.0
-1539,-3752,18717,0.0
-1538,-3954,18665,0.0
-1531,-4142,18553,0.0
-1594,-4524,19275,0.0
-1594,-4741,19249,0.0
-1588,-4937,19153,0.0
-1585,-5143,19088,0.0
-1581,-5350,19028,0.0
-1579,-5561,18983,0.0
-1561,-5716,18752,0.0
-1571,-5976,18867,0.0
-1566,-6180,18796,0.0
-1560,-6383,18725,0.0
-1558,-6601,18693,0.0
-1552,-6805,18622,0.0
-1547,-7020,18579,0.0
-1535,-7196,18437,0.0
-1534,-7426,18432,0.0
-1528,-7640,18383,0.0
-1522,-7852,18326,0.0
-1511,-8044,18223,0.0
-1505,-8255,18167,0.0
-1496,-8460,18090,0.0
-1490,-8677,18042,0.0
-1481,-8889,17979,0.0
-1473,-9099,17909,0.0
-1432,-9107,17454,0.0
-1424,-9319,17395,0.0
-1415,-9529,17330,0.0
-1429,-9905,17561,0.0
-1435,-10231,17686,0.0
-1423,-10442,17606,0.0
-1409,-10640,17504,0.0
-1391,-10801,17340,0.0
-1380,-11023,17277,0.0
-1365,-11217,17165,0.0
-1353,-11434,17090,0.0
-1326,-11537,16846,0.0
-1314,-11763,16782,0.0
-1299,-11973,16692,0.0
-1278,-12123,16519,0.0
-1259,-12293,16376,0.0
-1234,-12402,16153,0.0
-1246,-12897,16425,0.0
-1237,-13195,16434,0.0
-1225,-13458,16393,0.0
-1210,-13700,16323,0.0
-1198,-13996,16314,0.0
-1184,-14273,16276,0.0
-1169,-14542,16224,0.0
-1153,-14805,16161,0.0
-1137,-15089,16116,0.0
-1143,-15680,16388,0.0
-1140,-16184,16552,0.0
-1126,-16527,16540,0.0
-1107,-16833,16485,0.0
-1043,-16451,15766,0.0
-1015,-16596,15563,0.0
-4,-68,62,0.0
-5,-94,85,0.0
-4,-88,78,0.0
-5,-91,78,0.0
-5,-88,75,0.0
-5,-102,84,0.0
-5,-100,80,0.0
-5,-112,88,0.0
-5,-104,80,0.0
-4,-111,84,0.0
-4,-112,81,0.0
-4,-111,80,0.0
-728,-21645,15215,0.0
-693,-21883,15033,0.0
-655,-22042,14794,0.0
-640,-23046,15110,0.0
-603,-23364,14961,0.0
-573,-23951,14976,0.0
-3,-147,89,0.0
-3,-156,93,0.0
-2,-161,93,0.0
-3,-153,86,0.0
-2,-155,86,0.0
-2,-171,93,0.0
-2,-205,107,0.0
-1,-205,104,0.0
-1,-208,103,0.0
-1,-210,101,0.0
-1,-227,107,0.0
-1,-223,102,0.0
0,-234,104,0.0
0,-250,108,0.0
0,-248,104,0.0
1,-262,107,0.0
1,-274,108,0.0
1,-297,113,0.0
3,-341,126,0.0
3,-349,125,0.0
4,-350,120,0.0
5,-347,115,0.0
5,-344,111,0.0
7,-354,109,0.0
1197,11230,11050,0.0
1186,11201,11259,0.0
1173,11160,11459,0.0
1159,11111,11655,0.0
1147,11066,11858,0.0
1131,10993,12035,0.0
1314,12860,14383,0.0
1278,12601,14401,0.0
1229,12209,14257,0.0
1072,10729,12804,0.0
1060,10680,13026,0.0
0,0,0,0.0
1045,10679,13608,0.0
1037,10672,13905,0.0
1016,10532,14030,0.0
1005,10482,14282,0.0
1091,11461,15971,0.0
1075,11374,16215,0.0
969,10318,15050,0.0
949,10169,15182,0.0
934,10077,15399,0.0
1411,15308,23949,0.0
1385,15126,24235,0.0
1066,11713,19225,0.0
1279,14142,23781,0.0
1043,11603,20000,0.0
1024,11462,20255,0.0
1016,11432,20719,0.0
994,11244,20908,0.0
1200,13644,26038,0.0
1167,13337,26132,0.0
1127,12936,26037,0.0
1099,12682,26230,0.0
1001,11602,24673,0.0
989,11507,25172,0.0
975,11386,25634,0.0
947,11090,25715,0.0
912,10714,25597,0.0
848,9982,24587,0.0
837,9886,25127,0.0
883,10451,27427,0.0
861,10203,27671,0.0
854,10113,28368,0.0
825,9769,28369,0.0
888,10512,31628,0.0
824,9739,30397,0.0
809,9539,30917,0.0
797,9361,31546,0.0
766,8965,31453,0.0
739,8597,31445,0.0
709,8190,31284,0.0
416,4767,19046,0.0
400,4538,18999,0.0
385,4321,18993,0.0
423,4681,21660,0.0
407,4431,21627,0.0
391,4179,21583,0.0
376,3927,21519,0.0
324,3315,19350,0.0
313,3099,19344,0.0
300,2870,19246,0.0
284,2624,18995,0.0
275,2434,19150,0.0
266,2228,19177,0.0
255,2015,19141,0.0
245,1800,19086,0.0
235,1591,19061,0.0
226,1378,18984,0.0
217,1169,18933,0.0
209,961,18887,0.0
201,757,18872,0.0
192,551,18789,0.0
185,347,18739,0.0
181,145,18867,0.0
177,-58,19155,0.0
182,-282,20363,0.0
0,0,0,0.0
160,-675,19013,0.0
157,-890,19231,0.0
157,-1121,19645,0.0
143,-1254,18457,0.0
139,-1449,18395,0.0
135,-1645,18342,0.0
133,-1843,18328,0.0
130,-2035,18261,0.0
126,-2205,18013,0.0
123,-2365,17729,0.0
125,-2615,18109,0.0
127,-2904,18680,0.0
133,-3252,19528,0.0
133,-3476,19566,0.0
129,-3566,18886,0.0
128,-3736,18676,0.0
129,-3941,18655,0.0
131,-4169,18732,0.0
136,-4501,19238,0.0
137,-4703,19168,0.0
129,-4542,17689,0.0
132,-4739,17660,0.0
135,-4921,17584,0.0
138,-5122,17564,0.0
141,-5317,17531,0.0
155,-5873,18634,0.0
162,-6143,18783,0.0
166,-6342,18703,0.0
171,-6536,18614,0.0
177,-6729,18520,0.0
181,-6893,18353,0.0
186,-7022,18103,0.0
190,-7140,17829,0.0
0,0,0,0.0
198,-7283,17110,0.0
206,-7487,17076,0.0
213,-7659,16967,0.0
221,-7867,16939,0.0
231,-8062,16877,0.0
241,-8291,16887,0.0
250,-8458,16769,0.0
260,-8677,16749,0.0
271,-8882,16700,0.0
282,-9101,16677,0.0
293,-9304,16619,0.0
305,-9502,16552,0.0
317,-9713,16503,0.0
329,-9900,16415,0.0
342,-10122,16379,0.0
356,-10315,16297,0.0
372,-10562,16295,0.0
385,-10761,16216,0.0
401,-11024,16230,0.0
417,-11231,16157,0.0
434,-11465,16120,0.0
451,-11675,16046,0.0
468,-11911,16004,0.0
486,-12151,15964,0.0
504,-12352,15871,0.0
523,-12603,15836,0.0
543,-12843,15785,0.0
563,-13073,15718,0.0
585,-13331,15681,0.0
605,-13545,15590,0.0
628,-13799,15541,0.0
649,-14032,15463,0.0
673,-14297,15417,0.0
1214,-25325,26727,1.0
1249,-25593,26432,1.0
1286,-25908,26186,1.0
1322,-26165,25881,1.0
1360,-26468,25622,1.0
1399,-26773,25364,1.0
953,-17950,16642,0.0
961,-17793,16143,0.0
979,-17817,15818,0.0
991,-17745,15415,0.0
1001,-17640,14994,0.0
1015,-17603,14639,0.0
5,-98,80,0.0
6,-110,87,0.0
6,-112,86,0.0
1090,-17738,13501,0.0
1126,-18052,13436,0.0
1165,-18387,13379,0.0
1204,-18708,13307,0.0
1242,-19020,13224,0.0
1282,-19343,13141,0.0
1325,-19697,13075,0.0
1368,-20041,12994,0.0
1411,-20378,12904,0.0
1458,-20742,12823,0.0
1505,-21100,12734,0.0
1555,-21493,12658,0.0
11,-165,95,0.0
12,-174,98,0.0
12,-173,94,0.0
14,-185,98,0.0
14,-196,101,0.0
15,-197,99,0.0
16,-212,104,0.0
17,-217,103,0.0
17,-224,104,0.0
19,-242,109,0.0
20,-244,107,0.0
20,-245,104,0.0
21,-259,106,0.0
23,-273,110,0.0
25,-282,110,0.0
28,-318,120,0.0
30,-339,123,0.0
31,-345,121,0.0
32,-347,118,0.0
32,-338,111,0.0
33,-352,111,0.0
2298,14565,14359,0.0
1698,10767,10844,0.0
1689,10706,11014,0.0
2086,13216,13888,0.0
1747,11062,11876,0.0
1940,12281,13470,0.0
1872,11841,13269,0.0
1784,11266,12901,0.0
1708,10775,12607,0.0
1701,10718,12817,0.0
1713,10772,13164,0.0
1706,10706,13374,0.0
1683,10539,13459,0.0
1685,10531,13749,0.0
1668,10392,13872,0.0
1654,10278,14032,0.0
1651,10220,14273,0.0
1648,10166,14524,0.0
1599,9825,14363,0.0
1545,9451,14139,0.0
1642,10003,15319,0.0
1644,9963,15622,0.0
1642,9894,15887,0.0
1639,9822,16157,0.0
1639,9760,16451,0.0
1638,9688,16736,0.0
1638,9618,17035,0.0
1636,9539,17328,0.0
1638,9466,17643,0.0
1640,9398,17977,0.0
1642,9324,18314,0.0
1644,9246,18655,0.0
1645,9154,18980,0.0
1648,9072,19341,0.0
1652,8986,19704,0.0
1653,8882,20048,0.0
1660,8805,20466,0.0
1667,8712,20866,0.0
1672,8619,21285,0.0
1681,8526,21725,0.0
1688,8421,22158,0.0
1698,8325,22638,0.0
1708,8218,23111,0.0
1719,8111,23615,0.0
1730,7991,24107,0.0
1744,7879,24659,0.0
1753,7741,25160,0.0
1771,7624,25764,0.0
2127,8918,31377,0.0
1258,5128,18811,0.0
1239,4902,18778,0.0
1218,4667,18702,0.0
1200,4443,18654,0.0
1182,4222,18615,0.0
1166,4005,18588,0.0
1147,3778,18502,0.0
1132,3568,18483,0.0
1116,3351,18429,0.0
1101,3137,18372,0.0
1085,2926,18329,0.0
1071,2715,18267,0.0
1059,2512,18250,0.0
1045,2304,18187,0.0
1033,2100,18141,0.0
1021,1898,18109,0.0
1008,1695,18044,0.0
998,1496,18007,0.0
986,1295,17923,0.0
976,1099,17887,0.0
968,904,17858,0.0
958,709,17808,0.0
950,517,17782,0.0
941,324,17724,0.0
934,132,17682,0.0
926,-57,17637,0.0
919,-246,17599,0.0
913,-435,17544,0.0
907,-622,17511,0.0
899,-807,17421,0.0
896,-995,17409,0.0
892,-1182,17385,0.0
887,-1366,17335,0.0
882,-1548,17272,0.0
880,-1733,17249,0.0
875,-1914,17182,0.0
873,-2096,17141,0.0
868,-2272,17048,0.0
892,-2528,17525,0.0
934,-2842,18305,0.0
991,-3229,19418,0.0
1740,-6032,34009,1.0
1740,-6397,33932,1.0
1741,-6763,33873,1.0
1752,-7165,33976,1.0
1748,-7503,33775,1.0
1757,-7895,33810,1.0
0,0,0,0.0
1766,-8629,33666,1.0
1771,-8995,33590,1.0
1778,-9367,33529,1.0
1791,-9764,33554,1.0
1801,-10148,33524,1.0
0,0,0,0.0
1818,-10881,33337,1.0
1829,-11255,33266,1.0
1840,-11634,33204,1.0
1858,-12041,33215,1.0
1872,-12422,33148,1.0
1880,-12762,32969,1.0
1897,-13154,32926,1.0
1906,-13492,32743,1.0
0,0,0,0.0
1957,-14377,32864,1.0
0,0,0,0.0
1987,-15092,32571,1.0
2016,-15553,32638,1.0
2032,-15909,32482,1.0
0,0,0,0.0
0,0,0,0.0
0,0,0,0.0
2116,-17412,31987,1.0
1083,-9012,16140,0.0
2169,-18226,31828,1.0
2195,-18615,31712,1.0
2236,-19123,31787,1.0
2249,-19393,31465,1.0
2270,-19720,31239,1.0
2310,-20208,31260,1.0
0,0,0,0.0
0,0,0,0.0
2390,-21278,30692,1.0
2431,-21745,30657,1.0
2461,-22114,30474,1.0
2477,-22347,30108,1.0
2499,-22617,29798,1.0
2514,-22823,29404,1.0
2535,-23076,29078,1.0
2559,-23349,28779,1.0
2589,-23665,28535,1.0
2618,-23966,28273,1.0
2649,-24277,28022,1.0
2675,-24536,27712,1.0
2705,-24815,27426,1.0
2739,-25127,27176,1.0
2770,-25412,26898,1.0
2804,-25706,26628,1.0
2838,-26006,26364,1.0
2874,-26311,26104,1.0
2908,-26586,25814,1.0
2944,-26873,25537,1.0
2979,-27151,25250,1.0
1967,-17894,16284,0.0
1963,-17815,15865,0.0
1961,-17749,15466,0.0
1958,-17678,15073,0.0
1953,-17590,14673,0.0
1962,-17616,14377,0.0
1964,-17574,14030,0.0
1969,-17562,13713,0.0
1990,-17686,13506,0.0
2029,-17956,13408,0.0
2044,-18029,13162,0.0
2117,-18593,13270,0.0
2164,-18921,13200,0.0
2212,-19266,13134,0.0
2260,-19591,13049,0.0
2309,-19928,12966,0.0
2361,-20279,12886,0.0
2415,-20641,12806,0.0
2469,-20998,12718,0.0
17,-149,87,0.0
18,-153,88,0.0
15,-137,76,0.0
20,-172,94,0.0
21,-174,93,0.0
21,-178,93,0.0
22,-190,96,0.0
21,-181,89,0.0
26,-216,104,0.0
27,-223,104,0.0
29,-237,107,0.0
29,-242,106,0.0
30,-247,105,0.0
31,-253,105,0.0
35,-272,109,0.0
35,-278,108,0.0
39,-303,114,0.0
42,-326,119,0.0
43,-331,117,0.0
43,-331,113,0.0
42,-327,107,0.0
44,-335,107,0.0
-3267,13754,12602,0.0
-3332,13699,12823,0.0
-3403,13660,13064,0.0
-3473,13610,13299,0.0
-3541,13549,13526,0.0
-3615,13501,13773,0.0
-3689,13451,14020,0.0
-3765,13407,14279,0.0
-3840,13347,14526,0.0
-3912,13278,14769,0.0
-3994,13230,15041,0.0
-4071,13167,15301,0.0
-4154,13110,15572,0.0
-4232,13037,15833,0.0
-4301,12930,16054,0.0
-4363,12798,16252,0.0
-4315,12348,16036,0.0
-4370,12200,16206,0.0
-4410,12009,16321,0.0
-4762,12649,17590,0.0
-4856,12575,17899,0.0
-4956,12511,18229,0.0
-5058,12445,18567,0.0
-5144,12331,18843,0.0
-5158,12047,18856,0.0
-5126,11660,18703,0.0
-5168,11444,18816,0.0
-5587,12044,20304,0.0
-5706,11968,20692,0.0
-5814,11863,21045,0.0
-5926,11756,21405,0.0
-6638,12800,23933,0.0
-6630,12422,23856,0.0
-6623,12049,23783,0.0
-6434,11364,23061,0.0
-6611,11328,23648,0.0
-6384,10607,22792,0.0
-6592,10616,23490,0.0
-6604,10300,23489,0.0
-9183,13864,32599,0.0
0,0,0,0.0
-4405,6217,15577,0.0
-4418,6023,15595,0.0
-4448,5852,15671,0.0
-4743,6016,16678,0.0
-4800,5865,16850,0.0
-4883,5739,17106,0.0
-8591,9704,30036,0.0
-8916,9668,31113,0.0
-5279,5487,18387,0.0
-5266,5240,18308,0.0
-5270,5013,18288,0.0
-5088,4616,17619,0.0
-5247,4535,18137,0.0
-5253,4314,18123,0.0
-5251,4089,18081,0.0
-5249,3867,18042,0.0
-5240,3641,17974,0.0
-5238,3422,17934,0.0
-4997,3059,17075,0.0
-5029,2872,17150,0.0
-5199,2758,17694,0.0
-5216,2556,17719,0.0
-5220,2349,17697,0.0
-3895,1597,13177,0.0
-3888,1440,13128,0.0
-3888,1287,13101,0.0
-3891,1136,13087,0.0
-3895,986,13074,0.0
-3900,837,13064,0.0
-3899,686,13036,0.0
-3902,537,13017,0.0
-3906,388,13003,0.0
-3902,239,12967,0.0
-3905,92,12947,0.0
-3932,-54,13010,0.0
-3934,-202,12988,0.0
-3932,-349,12953,0.0
-3912,-494,12864,0.0
-3914,-639,12843,0.0
-3911,-784,12803,0.0
-3913,-929,12785,0.0
-3910,-1072,12744,0.0
-3908,-1215,12710,0.0
-3911,-1360,12692,0.0
-3918,-1505,12687,0.0
-3917,-1649,12655,0.0
-3914,-1789,12616,0.0
-3921,-1935,12610,0.0
-3920,-2079,12581,0.0
-3920,-2220,12549,0.0
-3920,-2363,12520,0.0
-3922,-2507,12497,0.0
-3926,-2652,12483,0.0
-3933,-2799,12472,0.0
-3928,-2938,12425,0.0
-3930,-3082,12401,0.0
-3931,-3225,12373,0.0
-3927,-3364,12331,0.0
-3936,-3514,12326,0.0
-3931,-3653,12282,0.0
-3934,-3799,12259,0.0
-3935,-3943,12229,0.0
-3933,-4085,12192,0.0
-3935,-4232,12168,0.0
-3939,-4380,12145,0.0
-3942,-4529,12122,0.0
-3939,-4671,12080,0.0
-3940,-4817,12052,0.0
-3942,-4965,12020,0.0
-3941,-5111,11985,0.0
-3946,-5264,11966,0.0
-3946,-5412,11932,0.0
-3951,-5567,11911,0.0
-3948,-5711,11865,0.0
-3951,-5864,11837,0.0
-3951,-6015,11804,0.0
-3951,-6165,11767,0.0
-3952,-6316,11730,0.0
-3950,-6466,11688,0.0
-3950,-6619,11651,0.0
-3951,-6774,11615,0.0
-3952,-6930,11579,0.0
-3950,-7082,11536,0.0
-3955,-7247,11509,0.0
-3957,-7409,11477,0.0
-3956,-7563,11431,0.0
-3953,-7719,11384,0.0
-3948,-7867,11325,0.0
-3953,-8041,11301,0.0
-3952,-8201,11254,0.0
-3954,-8367,11214,0.0
-3955,-8536,11176,0.0
-3958,-8707,11138,0.0
-3960,-8880,11099,0.0
-3953,-9034,11034,0.0
-3959,-9218,11004,0.0
-3961,-9396,10964,0.0
-3974,-9601,10953,0.0
-3969,-9764,10890,0.0
-3962,-9924,10821,0.0
-3962,-10103,10771,0.0
-3967,-10298,10735,0.0
-3966,-10479,10682,0.0
-3971,-10677,10642,0.0
-3972,-10866,10591,0.0
-3970,-11049,10532,0.0
-3977,-11260,10496,0.0
-3976,-11455,10441,0.0
-3977,-11653,10387,0.0
-3980,-11862,10337,0.0
-3976,-12048,10266,0.0
-3981,-12271,10222,0.0
-3983,-12483,10165,0.0
-3992,-12723,10128,0.0
-3986,-12916,10050,0.0
-3987,-13131,9986,0.0
-3986,-13350,9921,0.0
-3987,-13573,9856,0.0
-3987,-13801,9789,0.0
-3985,-14021,9715,0.0
-3986,-14258,9648,0.0
-3983,-14483,9569,0.0
-3985,-14732,9502,0.0
-4000,-15031,9462,0.0
-4008,-15309,9404,0.0
-3984,-15471,9271,0.0
-3985,-15730,9193,0.0
-3988,-16002,9118,0.0
-3989,-16275,9039,0.0
-3987,-16536,8949,0.0
-3984,-16804,8859,0.0
-39,-173,88,0.0
-41,-181,91,0.0
-42,-193,94,0.0
-40,-182,86,0.0
-43,-199,91,0.0
-47,-219,98,0.0
-48,-234,101,0.0
-48,-238,100,0.0
-52,-261,106,0.0
-57,-287,114,0.0
-58,-302,115,0.0
-63,-330,122,0.0
-64,-341,122,0.0
-64,-346,120,0.0
-62,-340,113,0.0
-60,-339,109,0.0
-60,-342,106,0.0
-58,-343,102,0.0
-59,-347,100,0.0
-58,-350,96,0.0
-2168,13038,12238,0.0
-2110,12335,11828,0.0
-2145,12190,11941,0.0
-2446,13521,13531,0.0
-2599,13976,14289,0.0
-2634,13780,14395,0.0
-2644,13457,14364,0.0
-2691,13329,14537,0.0
-4119,19849,22121,0.0
-2921,13699,15601,0.0
-2896,13221,15389,0.0
-2952,13112,15599,0.0
-3019,13053,15874,0.0
-3086,12983,16142,0.0
-3154,12913,16416,0.0
-3222,12844,16698,0.0
-3291,12766,16974,0.0
-3345,12625,17170,0.0
-3372,12382,17230,0.0
-3378,12070,17187,0.0
-3403,11828,17238,0.0
-3676,12431,18547,0.0
-3763,12377,18907,0.0
-3844,12290,19229,0.0
-3919,12185,19532,0.0
-3989,12054,19801,0.0
-4022,11810,19885,0.0
-4022,11474,19811,0.0
-4057,11239,19906,0.0
-4383,11790,21426,0.0
-4483,11707,21840,0.0
-4585,11620,22261,0.0
-4690,11527,22687,0.0
-4792,11420,23100,0.0
-4905,11327,23562,0.0
-5018,11225,24026,0.0
-5130,11112,24481,0.0
-5244,10991,24943,0.0
-5244,10630,24865,0.0
-5244,10275,24785,0.0
-3295,6235,15526,0.0
-3316,6057,15576,0.0
-3338,5880,15630,0.0
-3419,5804,15963,0.0
-6116,9994,28464,0.0
-6246,9818,28986,0.0
-3747,5659,17339,0.0
-3762,5455,17360,0.0
-3778,5251,17383,0.0
-3753,4994,17221,0.0
-3773,4798,17263,0.0
-3809,4623,17380,0.0
-3729,4313,16967,0.0
-3795,4174,17221,0.0
-3812,3979,17250,0.0
-3932,3885,17744,0.0
-3926,3663,17670,0.0
-3930,3454,17646,0.0
-3854,3178,17256,0.0
-3947,3044,17630,0.0
-3937,2829,17541,0.0
-3886,2587,17266,0.0
-3850,2362,17062,0.0
-3858,2168,17058,0.0
-3821,1951,16851,0.0
-3868,1778,17018,0.0
-3874,1584,16999,0.0
-3861,1385,16905,0.0
-3861,1192,16861,0.0
-3848,998,16762,0.0
-3748,786,16288,0.0
-3746,602,16240,0.0
-3757,421,16249,0.0
-3759,239,16218,0.0
-3756,57,16167,0.0
-3760,-123,16147,0.0
-3758,-302,16102,0.0
-3760,-482,16071,0.0
-3767,-662,16065,0.0
-3771,-841,16043,0.0
-3771,-1019,16007,0.0
-3776,-1198,15990,0.0
-3768,-1372,15920,0.0
-3776,-1552,15915,0.0
-3776,-1728,15878,0.0
-3774,-1903,15833,0.0
-3778,-2081,15813,0.0
-3778,-2256,15778,0.0
-3776,-2430,15735,0.0
-3778,-2606,15703,0.0
-3775,-2779,15658,0.0
-3777,-2955,15630,0.0
-3782,-3134,15613,0.0
-3777,-3305,15556,0.0
-3781,-3483,15537,0.0
-3786,-3664,15526,0.0
-3786,-3839,15490,0.0
-3778,-4006,15423,0.0
-3782,-4185,15401,0.0
-3789,-4368,15391,0.0
-3782,-4537,15329,0.0
-3780,-4710,15286,0.0
-3792,-4904,15299,0.0
-3792,-5081,15262,0.0
-3791,-5257,15220,0.0
-3791,-5436,15184,0.0
-3793,-5617,15157,0.0
-3793,-5798,15121,0.0
-3794,-5979,15087,0.0
-3794,-6162,15053,0.0
-3798,-6351,15033,0.0
-3792,-6524,14973,0.0
-3797,-6715,14952,0.0
-3807,-6919,14957,0.0
-3806,-7103,14915,0.0
-3802,-7282,14860,0.0
-3803,-7473,14829,0.0
-3798,-7653,14772,0.0
-3797,-7842,14732,0.0
-3802,-8043,14712,0.0
-3802,-8237,14673,0.0
-3804,-8436,14645,0.0
-3807,-8638,14616,0.0
-3809,-8840,14585,0.0
-3811,-9047,14558,0.0
-3816,-9257,14532,0.0
-3812,-9452,14481,0.0
-3810,-9651,14432,0.0
-3814,-9870,14409,0.0
-3814,-10077,14365,0.0
-3816,-10293,14332,0.0
-3815,-10505,14288,0.0
-3814,-10716,14242,0.0
-3818,-10944,14214,0.0
-3818,-11166,14174,0.0
-3816,-11381,14121,0.0
-3819,-11615,14088,0.0
-3820,-11849,14051,0.0
-3821,-12083,14011,0.0
-3814,-12292,13938,0.0
-3818,-12542,13908,0.0
-3822,-12794,13875,0.0
-3818,-13025,13816,0.0
-3825,-13296,13794,0.0
-3820,-13530,13730,0.0
-22,-82,81,0.0
-22,-83,80,0.0
-25,-92,88,0.0
-28,-106,98,0.0
-28,-107,97,0.0
-27,-107,95,0.0
-24,-96,84,0.0
-24,-98,83,0.0
-24,-100,83,0.0
-24,-105,85,0.0
-22,-96,77,0.0
-23,-102,79,0.0
-25,-112,85,0.0
-25,-116,86,0.0
-24,-111,80,0.0
-21,-103,73,0.0
-24,-114,79,0.0
-3821,-18830,12740,0.0
-3822,-19184,12677,0.0
-3822,-19546,12611,0.0
-26,-138,86,0.0
-28,-146,89,0.0
-25,-137,82,0.0
-28,-156,91,0.0
-28,-155,88,0.0
-28,-160,89,0.0
-27,-159,86,0.0
-28,-167,88,0.0
-29,-175,89,0.0
-31,-187,93,0.0
-33,-204,99,0.0
-33,-207,97,0.0
-33,-218,100,0.0
-33,-223,99,0.0
-35,-240,104,0.0
-36,-253,107,0.0
-37,-267,109,0.0
-38,-279,110,0.0
-40,-301,115,0.0
-44,-334,125,0.0
-43,-337,121,0.0
-43,-344,119,0.0
-42,-339,113,0.0
-41,-341,110,0.0
-41,-345,107,0.0
-40,-348,104,0.0
-39,-352,101,0.0
-765,13514,13033,0.0
-802,13416,13216,0.0
-840,13341,13425,0.0
0,0,0,0.0
-2122,30461,31990,0.0
-2188,29940,32122,0.0
-2271,29671,32525,0.0
-2301,28725,32173,0.0
-2364,28221,32299,0.0
-1051,12012,14048,0.0
-1082,11856,14171,0.0
-1111,11662,14247,0.0
-2463,24827,31005,0.0
-2540,24592,31397,0.0
-2517,23419,30572,0.0
-2560,22906,30578,0.0
-2606,22427,30619,0.0
-2640,21870,30545,0.0
-2636,21017,30032,0.0
-1662,12757,18654,0.0
-2778,20546,30753,0.0
-1692,12063,18484,0.0
-1824,12530,19661,0.0
-2796,18523,29771,0.0
-1862,11894,19586,0.0
-1997,12296,20750,0.0
-2017,11980,20726,0.0
-2038,11671,20707,0.0
-2937,16222,29525,0.0
-3017,16066,30009,0.0
-3087,15851,30397,0.0
-3241,16043,31597,0.0
-3410,16276,32937,0.0
-3408,15675,32609,0.0
-3412,15125,32361,0.0
-2865,12231,26928,0.0
-2990,12294,27870,0.0
-2943,11644,27196,0.0
-2955,11253,27094,0.0
-2967,10864,26985,0.0
-2990,10528,26994,0.0
-3032,10255,27166,0.0
-3066,9954,27269,0.0
-3027,9432,26741,0.0
-3042,9086,26683,0.0
-3003,8593,26172,0.0
-3060,8379,26493,0.0
-3318,8685,28542,0.0
-3695,9237,31587,0.0
-3710,8845,31522,0.0
-2283,5184,19283,0.0
-2295,4955,19271,0.0
-2317,4749,19345,0.0
-2230,4332,18523,0.0
-2134,3920,17626,0.0
-2088,3618,17152,0.0
-1998,3257,16328,0.0
-2634,4032,21424,0.0
-2648,3791,21432,0.0
-2677,3569,21553,0.0
-2679,3315,21474,0.0
-2685,3067,21425,0.0
-2686,2817,21342,0.0
-2684,2565,21230,0.0
-2692,2327,21199,0.0
-2693,2084,21122,0.0
-2697,1846,21065,0.0
-2700,1608,21005,0.0
-2674,1358,20720,0.0
-2693,1134,20794,0.0
-2689,900,20683,0.0
-2604,650,19953,0.0
-2685,442,20502,0.0
-2627,212,19991,0.0
-2590,-7,19635,0.0
-2588,-221,19557,0.0
-2668,-447,20096,0.0
-2638,-659,19804,0.0
-2680,-888,20062,0.0
-2626,-1083,19595,0.0
-2702,-1332,20105,0.0
-2595,-1489,19259,0.0
-2663,-1742,19707,0.0
-2704,-1984,19947,0.0
-2722,-2215,20024,0.0
-2719,-2429,19953,0.0
-2720,-2646,19912,0.0
-2718,-2858,19842,0.0
-2715,-3071,19777,0.0
-2715,-3287,19730,0.0
-2711,-3496,19651,0.0
-2711,-3712,19614,0.0
-2709,-3924,19554,0.0
-2703,-4130,19468,0.0
-2701,-4342,19416,0.0
-2700,-4555,19368,0.0
-2699,-4770,19323,0.0
-2694,-4976,19252,0.0
-2693,-5190,19208,0.0
-2686,-5393,19119,0.0
-2685,-5610,19085,0.0
-2683,-5825,19042,0.0
-2678,-6034,18975,0.0
-2674,-6243,18912,0.0
-2667,-6449,18836,0.0
-2664,-6663,18787,0.0
-2657,-6870,18716,0.0
-2654,-7085,18665,0.0
-2649,-7297,18605,0.0
-2642,-7505,18536,0.0
-2639,-7725,18492,0.0
-2633,-7937,18428,0.0
-2625,-8146,18360,0.0
-2622,-8369,18316,0.0
-2614,-8578,18242,0.0
-2609,-8800,18191,0.0
-2604,-9021,18140,0.0
-2598,-9244,18088,0.0
-2592,-9466,18033,0.0
-2586,-9689,17976,0.0
-2583,-9930,17949,0.0
-2573,-10143,17869,0.0
-2569,-10383,17833,0.0
-2564,-10619,17790,0.0
-2556,-10848,17729,0.0
-2546,-11073,17659,0.0
-2539,-11310,17607,0.0
-2531,-11548,17551,0.0
-2523,-11784,17489,0.0
-2516,-12034,17445,0.0
-2506,-12268,17376,0.0
-2497,-12512,17316,0.0
-2489,-12761,17261,0.0
-2484,-13041,17241,0.0
-2475,-13296,17184,0.0
-2468,-13566,17143,0.0
-2457,-13817,17074,0.0
-2450,-14099,17038,0.0
-2442,-14379,16996,0.0
-2434,-14664,16954,0.0
-2422,-14930,16886,0.0
-2413,-15217,16836,0.0
-2402,-15505,16783,0.0
-2392,-15803,16736,0.0
-2378,-16081,16663,0.0
-2366,-16375,16601,0.0
-2355,-16687,16553,0.0
-2341,-16983,16484,0.0
-2327,-17284,16414,0.0
-11,-87,81,0.0
-8,-62,57,0.0
-12,-94,83,0.0
-12,-97,84,0.0
-12,-96,81,0.0
-12,-102,85,0.0
-11,-102,82,0.0
-11,-100,78,0.0
-11,-106,82,0.0
-12,-119,91,0.0
-12,-120,89,0.0
-11,-107,78,0.0
-12,-124,87,0.0
-11,-117,81,0.0
-2079,-22666,15397,0.0
-2057,-23062,15304,0.0
-2036,-23498,15230,0.0
-2010,-23886,15117,0.0
-1988,-24354,15047,0.0
-12,-146,88,0.0
-13,-163,96,0.0
-12,-166,95,0.0
-12,-173,97,0.0
-13,-186,101,0.0
-12,-184,97,0.0
-13,-193,99,0.0
-13,-210,106,0.0
-13,-222,108,0.0
-13,-224,106,0.0
-14,-249,115,0.0
-13,-246,110,0.0
-13,-254,111,0.0
-13,-278,118,0.0
-12,-270,111,0.0
-13,-285,114,0.0
-13,-307,119,0.0
-13,-318,120,0.0
-13,-336,121,0.0
-12,-341,119,0.0
-12,-347,118,0.0
-11,-351,115,0.0
-10,-346,109,0.0
-9,-341,103,0.0
850,15204,14903,0.0
802,14758,14776,0.0
759,14361,14688,0.0
718,14011,14638,0.0
676,13608,14524,0.0
639,13275,14476,0.0
602,12937,14413,0.0
570,12689,14444,0.0
532,12283,14287,0.0
447,10725,12749,0.0
465,11620,14116,0.0
433,11303,14034,0.0
396,10839,13759,0.0
369,10604,13760,0.0
347,10513,13949,0.0
327,10485,14228,0.0
303,10323,14328,0.0
387,14047,19944,0.0
354,13794,20038,0.0
323,13617,20243,0.0
292,13402,20394,0.0
261,13195,20557,0.0
230,12990,20726,0.0
185,11750,19202,0.0
170,12531,20982,0.0
131,11543,19812,0.0
106,11506,20246,0.0
78,11461,20683,0.0
51,11291,20903,0.0
26,12713,24157,0.0
-5,12472,24332,0.0
-35,12216,24481,0.0
-66,11983,24675,0.0
-97,11752,24880,0.0
-128,11638,25346,0.0
-160,11459,25685,0.0
-189,11133,25694,0.0
-217,10785,25649,0.0
-251,10718,26280,0.0
-267,9979,25244,0.0
-300,9893,25840,0.0
-328,9634,26005,0.0
-359,9469,26434,0.0
-414,9864,28506,0.0
-394,8498,25443,0.0
-433,8517,26450,0.0
-533,9586,30911,0.0
-571,9399,31512,0.0
-596,9017,31471,0.0
-621,8643,31449,0.0
-641,8206,31176,0.0
-442,5216,20723,0.0
-463,5029,20938,0.0
-496,4972,21732,0.0
-511,4727,21747,0.0
-525,4472,21696,0.0
-537,4205,21583,0.0
-550,3956,21545,0.0
-561,3697,21438,0.0
-574,3452,21406,0.0
-584,3202,21324,0.0
-594,2956,21243,0.0
-606,2719,21221,0.0
-615,2476,21137,0.0
-615,2205,20775,0.0
-632,1996,20971,0.0
-609,1676,19891,0.0
-647,1527,20823,0.0
-648,1283,20530,0.0
-632,1020,19760,0.0
-651,818,20094,0.0
-664,606,20244,0.0
-681,392,20535,0.0
-660,161,19639,0.0
-663,-51,19554,0.0
-690,-269,20131,0.0
-677,-475,19572,0.0
-674,-678,19326,0.0
-689,-899,19566,0.0
-697,-1116,19642,0.0
-704,-1335,19718,0.0
-700,-1528,19438,0.0
-702,-1734,19380,0.0
-702,-1934,19256,0.0
-707,-2150,19297,0.0
-706,-2350,19195,0.0
-710,-2564,19220,0.0
-711,-2770,19171,0.0
-714,-2983,19180,0.0
-713,-3183,19098,0.0
-717,-3403,19135,0.0
-701,-3532,18683,0.0
-702,-3741,18678,0.0
-702,-3941,18630,0.0
-698,-4132,18534,0.0
-715,-4440,18946,0.0
-715,-4659,18955,0.0
-716,-4886,18988,0.0
-713,-5088,18925,0.0
-711,-5300,18895,0.0
-700,-5451,18652,0.0
-705,-5724,18826,0.0
-696,-5885,18629,0.0
-697,-6136,18712,0.0
-692,-6335,18636,0.0
-688,-6553,18612,0.0
-682,-6759,18555,0.0
-675,-6947,18445,0.0
-668,-7145,18367,0.0
-658,-7308,18199,0.0
-652,-7525,18169,0.0
-647,-7747,18146,0.0
-636,-7914,17994,0.0
-629,-8142,17981,0.0
-622,-8362,17948,0.0
-612,-8538,17818,0.0
-606,-8789,17844,0.0
-585,-8828,17445,0.0
-569,-8924,17170,0.0
-538,-8778,16451,0.0
-529,-8983,16404,0.0
-519,-9188,16357,0.0
-509,-9398,16315,0.0
-537,-10342,17512,0.0
-527,-10584,17487,0.0
-516,-10842,17484,0.0
-502,-11039,17378,0.0
-489,-11260,17310,0.0
-475,-11486,17247,0.0
-465,-11787,17289,0.0
-450,-12031,17243,0.0
-436,-12292,17217,0.0
-422,-12563,17201,0.0
-408,-12836,17182,0.0
-391,-13095,17138,0.0
-375,-13357,17095,0.0
-357,-13604,17028,0.0
-340,-13880,16994,0.0
-322,-14142,16936,0.0
-303,-14415,16889,0.0
-284,-14687,16837,0.0
-264,-14981,16802,0.0
-243,-15255,16742,0.0
-221,-15528,16676,0.0
-199,-15806,16611,0.0
-177,-16094,16552,0.0
-154,-16411,16516,0.0
-129,-16615,16364,0.0
-102,-16525,15926,0.0
-77,-16737,15787,0.0
0,-77,71,0.0
-24,-16535,14933,0.0
1,-17163,15169,0.0
0,-86,75,0.0
60,-18932,16017,0.0
0,-98,81,0.0
0,-93,75,0.0
0,-111,88,0.0
0,-95,74,0.0
0,-104,78,0.0
0,-109,80,0.0
1,-113,81,0.0
297,-19572,13852,0.0
319,-19171,13261,0.0
364,-20082,13572,0.0
392,-20004,13209,0.0
425,-20162,13004,0.0
462,-20491,12906,0.0
500,-20866,12831,0.0
2,-143,85,0.0
3,-149,87,0.0
3,-144,82,0.0
4,-156,86,0.0
4,-158,85,0.0
4,-174,92,0.0
5,-178,92,0.0
6,-195,97,0.0
7,-209,101,0.0
8,-224,106,0.0
8,-225,104,0.0
10,-241,108,0.0
9,-236,103,0.0
10,-240,102,0.0
11,-253,104,0.0
11,-263,104,0.0
13,-280,108,0.0
15,-316,118,0.0
17,-336,121,0.0
17,-338,118,0.0
17,-335,113,0.0
18,-338,110,0.0
18,-331,103,0.0
1458,11025,10862,0.0
1580,11987,12063,0.0
0,0,0,0.0
1540,11752,12342,0.0
1479,11312,12135,0.0
1436,11015,12073,0.0
1459,11212,12555,0.0
1453,11193,12808,0.0
1420,10963,12817,0.0
1387,10727,12818,0.0
1391,10783,13168,0.0
1385,10743,13408,0.0
1394,10835,13826,0.0
1374,10681,13934,0.0
1352,10523,14037,0.0
1340,10438,14239,0.0
1594,12427,17340,0.0
1578,12305,17565,0.0
1522,11863,17328,0.0
1438,11208,16754,0.0
1582,12322,18854,0.0
1292,10048,15741,0.0
1283,9971,15997,0.0
1509,11709,19243,0.0
1818,14083,23716,0.0
1496,11555,19944,0.0
1488,11463,20285,0.0
1483,11395,20681,0.0
1677,12837,23902,0.0
1750,13341,25497,0.0
1751,13295,26088,0.0
1707,12892,25986,0.0
1713,12870,26659,0.0
1791,13373,28480,0.0
1629,12089,26486,0.0
1543,11364,25623,0.0
1519,11096,25766,0.0
1475,10688,25572,0.0
1440,10330,25486,0.0
1404,9967,25374,0.0
1483,10418,27385,0.0
1473,10218,27757,0.0
1484,10168,28565,0.0
1525,10297,29947,0.0
1457,9690,29202,0.0
1499,9805,30655,0.0
1487,9558,31030,0.0
1479,9328,31485,0.0
1447,8939,31414,0.0
849,5133,18809,0.0
833,4916,18812,0.0
814,4682,18737,0.0
798,4460,18708,0.0
780,4229,18626,0.0
763,4009,18584,0.0
748,3789,18532,0.0
734,3576,18504,0.0
719,3360,18454,0.0
705,3145,18398,0.0
692,2934,18352,0.0
677,2720,18278,0.0
666,2515,18252,0.0
653,2308,18199,0.0
641,2103,18146,0.0
632,1903,18128,0.0
621,1700,18068,0.0
610,1499,18018,0.0
600,1300,17960,0.0
592,1103,17928,0.0
583,906,17870,0.0
574,711,17811,0.0
566,518,17773,0.0
559,326,17753,0.0
552,134,17704,0.0
545,-57,17649,0.0
539,-247,17625,0.0
533,-435,17578,0.0
529,-624,17556,0.0
521,-808,17442,0.0
517,-997,17429,0.0
513,-1183,17398,0.0
509,-1366,17330,0.0
505,-1551,17291,0.0
502,-1734,17249,0.0
500,-1919,17222,0.0
498,-2105,17203,0.0
496,-2286,17144,0.0
502,-2511,17394,0.0
523,-2807,18069,0.0
521,-3002,18043,0.0
520,-3193,17986,0.0
521,-3388,17956,0.0
521,-3579,17907,0.0
521,-3772,17867,0.0
522,-3962,17816,0.0
524,-4154,17776,0.0
528,-4358,17779,0.0
529,-4540,17699,0.0
531,-4732,17654,0.0
534,-4927,17619,0.0
537,-5109,17540,0.0
541,-5307,17513,0.0
545,-5505,17488,0.0
549,-5693,17428,0.0
555,-5895,17404,0.0
560,-6081,17339,0.0
565,-6267,17268,0.0
572,-6466,17236,0.0
579,-6668,17207,0.0
586,-6863,17160,0.0
593,-7062,17120,0.0
601,-7264,17086,0.0
608,-7451,17015,0.0
619,-7663,16996,0.0
627,-7860,16945,0.0
635,-8047,16868,0.0
646,-8249,16822,0.0
657,-8465,16803,0.0
667,-8649,16717,0.0
678,-8844,16653,0.0
686,-9014,16540,0.0
703,-9266,16574,0.0
714,-9467,16515,0.0
729,-9701,16507,0.0
743,-9914,16460,0.0
1461,-19518,31630,1.0
1486,-19878,31450,1.0
1521,-20371,31473,1.0
1546,-20717,31264,1.0
0,0,0,0.0
1597,-21391,30819,1.0
1627,-21756,30634,1.0
1648,-22013,30298,1.0
1670,-22260,29953,1.0
1692,-22496,29600,1.0
1715,-22738,29259,1.0
1742,-23018,28968,1.0
1773,-23355,28749,1.0
1798,-23589,28407,1.0
1829,-23912,28173,1.0
1859,-24188,27883,1.0
1889,-24472,27603,1.0
1923,-24773,27343,1.0
1955,-25073,27083,1.0
1989,-25361,26808,1.0
2022,-25647,26531,1.0
2057,-25929,26250,1.0
2093,-26226,25985,1.0
2131,-26529,25725,1.0
2168,-26817,25449,1.0
1464,-17995,16711,0.0
1465,-17881,16251,0.0
1470,-17823,15850,0.0
1473,-17735,15432,0.0
1476,-17637,15018,0.0
1482,-17578,14643,0.0
1493,-17585,14331,0.0
1506,-17603,14033,0.0
1512,-17540,13677,0.0
1539,-17714,13508,0.0
1566,-17873,13327,0.0
1618,-18320,13356,0.0
1660,-18648,13290,0.0
1704,-18975,13217,0.0
1748,-19305,13141,0.0
1792,-19640,13063,0.0
1838,-19980,12980,0.0
1886,-20324,12895,0.0
1937,-20687,12815,0.0
1989,-21062,12737,0.0
2043,-21446,12657,0.0
15,-162,93,0.0
16,-167,93,0.0
16,-170,92,0.0
17,-179,96,0.0
19,-201,103,0.0
20,-204,103,0.0
19,-197,96,0.0
22,-226,108,0.0
24,-231,108,0.0
25,-243,109,0.0
25,-245,108,0.0
25,-242,103,0.0
27,-261,107,0.0
29,-277,111,0.0
31,-288,112,0.0
34,-317,119,0.0
37,-338,123,0.0
38,-347,122,0.0
36,-334,114,0.0
38,-337,111,0.0
39,-339,107,0.0
-3428,13757,12547,0.0
-3501,13722,12787,0.0
-3571,13673,13018,0.0
-3642,13619,13248,0.0
-3716,13574,13491,0.0
-3789,13518,13727,0.0
-3863,13462,13969,0.0
-3941,13413,14223,0.0
-4020,13363,14479,0.0
-4096,13297,14725,0.0
-4177,13243,14989,0.0
-4259,13185,15254,0.0
-4322,13062,15448,0.0
-4387,12946,15653,0.0
-4495,12947,16006,0.0
-4547,12785,16164,0.0
-4450,12212,15790,0.0
-4544,12167,16092,0.0
-4695,12266,16598,0.0
-4971,12668,17541,0.0
-5068,12595,17849,0.0
-5167,12524,18168,0.0
-5273,12457,18504,0.0
-5333,12279,18679,0.0
-5380,12072,18814,0.0
-5337,11668,18632,0.0
-5373,11439,18724,0.0
-6617,13713,23015,0.0
-6773,13662,23515,0.0
-6896,13533,23900,0.0
-6923,13216,23954,0.0
-6945,12888,23988,0.0
-6938,12510,23918,0.0
-6924,12128,23828,0.0
-6917,11764,23763,0.0
-6907,11399,23689,0.0
-6892,11031,23593,0.0
-6841,10616,23381,0.0
-6873,10331,23449,0.0
0,0,0,0.0
-9576,13482,32555,0.0
-4884,6648,16577,0.0
-4903,6447,16611,0.0
-4957,6291,16763,0.0
-8794,10761,29684,0.0
-8894,10484,29970,0.0
-8692,9860,29237,0.0
-8933,9740,29993,0.0
-9225,9660,30923,0.0
-5502,5523,18410,0.0
-5499,5285,18365,0.0
-5493,5047,18313,0.0
-5214,4572,17353,0.0
-5426,4532,18024,0.0
-5484,4354,18182,0.0
-5470,4119,18104,0.0
-5466,3894,18055,0.0
-5458,3669,17998,0.0
-5017,3172,16514,0.0
-5056,2996,16613,0.0
-5204,2878,17066,0.0
-5407,2779,17698,0.0
-5431,2579,17745,0.0
-3946,1721,12867,0.0
-3921,1560,12761,0.0
-3922,1410,12742,0.0
-3928,1263,12737,0.0
-3924,1114,12698,0.0
-3930,968,12693,0.0
-3933,822,12678,0.0
-3932,676,12650,0.0
-3932,531,12625,0.0
-3940,387,12623,0.0
-3938,241,12591,0.0
-3947,97,12596,0.0
-4083,-46,13003,0.0
-4128,-197,13118,0.0
-3956,-331,12543,0.0
-3944,-472,12483,0.0
-3945,-614,12456,0.0
-3940,-754,12418,0.0
-3941,-895,12393,0.0
-3944,-1036,12374,0.0
-3942,-1175,12343,0.0
-3948,-1317,12332,0.0
-3949,-1457,12306,0.0
-3944,-1595,12264,0.0
-3951,-1736,12258,0.0
-3951,-1876,12229,0.0
-3953,-2015,12208,0.0
-3956,-2155,12188,0.0
-3956,-2294,12159,0.0
-3958,-2435,12141,0.0
-4031,-2621,12334,0.0
-4098,-2807,12507,0.0
-4098,-2951,12477,0.0
-3955,-2988,12015,0.0
-3956,-3125,11985,0.0
-3958,-3265,11962,0.0
-3956,-3402,11923,0.0
-3958,-3544,11900,0.0
-3962,-3687,11881,0.0
-3956,-3821,11835,0.0
-3958,-3962,11808,0.0
-3961,-4104,11781,0.0
-3965,-4249,11765,0.0
-3965,-4390,11733,0.0
-3964,-4529,11696,0.0
-3964,-4668,11660,0.0
-3968,-4816,11641,0.0
-3968,-4958,11607,0.0
-3977,-5112,11598,0.0
-3977,-5255,11565,0.0
-3979,-5401,11533,0.0
-3976,-5542,11491,0.0
-3979,-5690,11465,0.0
-3984,-5843,11443,0.0
-3983,-5988,11406,0.0
-3985,-6137,11373,0.0
-3981,-6278,11322,0.0
-3979,-6423,11281,0.0
-3983,-6578,11252,0.0
-3984,-6730,11219,0.0
-3984,-6878,11177,0.0
-3986,-7034,11145,0.0
-3985,-7184,11102,0.0
-3981,-7332,11053,0.0
-4012,-7543,11095,0.0
-4110,-7886,11324,0.0
-4039,-7909,11085,0.0
-3985,-7962,10897,0.0
-3985,-8119,10851,0.0
-3980,-8267,10793,0.0
-3983,-8436,10760,0.0
-3984,-8601,10718,0.0
-3984,-8764,10673,0.0
-3988,-8936,10637,0.0
-3992,-9111,10600,0.0
-3990,-9276,10548,0.0
-3997,-9460,10518,0.0
-3992,-9620,10456,0.0
-3995,-9797,10412,0.0
-3979,-9932,10320,0.0
-4070,-10340,10506,0.0
-3998,-10334,10266,0.0
-3999,-10516,10216,0.0
-4004,-10711,10176,0.0
-3997,-10875,10102,0.0
-3998,-11066,10051,0.0
-4004,-11271,10009,0.0
-4008,-11471,9960,0.0
-4005,-11657,9895,0.0
-4005,-11852,9836,0.0
-4009,-12062,9786,0.0
-4015,-12280,9738,0.0
-4057,-12614,9776,0.0
-4033,-12744,9652,0.0
-4018,-12907,9552,0.0
-4016,-13113,9482,0.0
-4014,-13321,9409,0.0
-4018,-13551,9349,0.0
-4015,-13765,9273,0.0
-4015,-13988,9201,0.0
-4015,-14216,9128,0.0
-4014,-14443,9050,0.0
-4017,-14695,8984,0.0
-4018,-14933,8905,0.0
-4023,-15199,8839,0.0
-4015,-15414,8740,0.0
-4019,-15682,8666,0.0
-4021,-15947,8586,0.0
-4020,-16204,8497,0.0
-4020,-16469,8408,0.0
-4017,-16730,8312,0.0
-43,-184,88,0.0
-44,-195,92,0.0
-48,-213,97,0.0
-51,-230,101,0.0
-52,-238,102,0.0
-54,-250,104,0.0
-57,-272,109,0.0
-60,-292,114,0.0
-66,-324,123,0.0
-67,-335,123,0.0
-68,-344,122,0.0
-66,-340,117,0.0
-65,-343,114,0.0
-61,-330,105,0.0
-63,-342,105,0.0
-62,-345,102,0.0
-62,-349,99,0.0
-60,-344,94,0.0
125,-329,66,0.0
121,-313,66,0.0
117,-301,67,0.0
119,-301,70,0.0
116,-291,71,0.0
117,-290,74,0.0
112,-272,73,0.0
114,-275,77,0.0
113,-269,78,0.0
113,-266,81,0.0
114,-264,83,0.0
113,-259,85,0.0
112,-251,86,0.0
115,-256,91,0.0
116,-255,92,0.0
115,-250,95,0.0
117,-252,98,0.0
117,-247,100,0.0
120,-249,104,0.0
123,-253,110,0.0
122,-246,110,0.0
119,-240,109,0.0
129,-253,120,0.0
127,-246,120,0.0
125,-240,120,0.0
129,-243,125,0.0
130,-242,128,0.0
145,-266,144,0.0
149,-270,151,0.0
152,-273,157,0.0
149,-262,155,0.0
148,-258,157,0.0
130,-223,138,0.0
132,-222,142,0.0
126,-210,137,0.0
123,-201,135,0.0
11681,-18835,12963,0.0
11624,-18469,13034,0.0
