//X,Y,Z,Classification
51,50,106,0.0
53,54,110,0.0
48,50,100,0.0
55,58,112,0.0
45,49,93,0.0
51,56,104,0.0
50,58,103,0.0
55,65,113,0.0
47,57,97,0.0
43,54,90,0.0
48,63,101,0.0
50,65,102,0.0
51,69,106,0.0
48,67,100,0.0
49,69,100,0.0
47,68,97,0.0
51,77,106,0.0
51,78,105,0.0
51,80,106,0.0
50,80,103,0.0
50,81,102,0.0
52,87,107,0.0
53,90,109,0.0
53,93,109,0.0
52,93,107,0.0
54,99,110,0.0
52,99,109,0.0
54,102,110,0.0
55,108,113,0.0
55,111,115,0.0
56,115,115,0.0
56,116,114,0.0
58,123,119,0.0
59,127,119,0.0
55,123,113,0.0
58,131,117,0.0
60,138,122,0.0
61,144,124,0.0
61,147,123,0.0
59,145,120,0.0
84,-274,64,0.0
84,-268,65,0.0
81,-258,66,0.0
82,-257,68,0.0
83,-257,71,0.0
82,-250,73,0.0
83,-247,74,0.0
83,-247,77,0.0
84,-247,81,0.0
88,-252,85,0.0
86,-245,86,0.0
90,-252,91,0.0
87,-242,90,0.0
90,-245,94,0.0
92,-246,99,0.0
96,-253,104,0.0
95,-248,106,0.0
95,-245,108,0.0
96,-242,109,0.0
98,-244,113,0.0
99,-245,117,0.0
101,-244,120,0.0
103,-249,126,0.0
100,-238,124,0.0
106,-248,132,0.0
111,-254,140,0.0
115,-258,146,0.0
118,-263,153,0.0
112,-245,146,0.0
110,-238,145,0.0
113,-241,150,0.0
105,-220,142,0.0
104,-215,142,0.0
98,-198,134,0.0
96,-193,134,0.0
83,-166,118,0.0
84,-164,119,0.0
11389,-21789,16224,0.0
11355,-21397,16318,0.0
11320,-21004,16405,0.0
11277,-20606,16481,0.0
11252,-20243,16579,0.0
11198,-19835,16631,0.0
11176,-19484,16726,0.0
11143,-19121,16804,0.0
11099,-18742,16862,0.0
11065,-18385,16932,0.0
11021,-18014,16984,0.0
10992,-17674,17057,0.0
10972,-17349,17141,0.0
10945,-17018,17213,0.0
10914,-16683,17275,0.0
10895,-16369,17354,0.0
10849,-16019,17389,0.0
10957,-15896,17668,0.0
11168,-15916,18116,0.0
11351,-15887,18519,0.0
11644,-16003,19107,0.0
11957,-16130,19730,0.0
12272,-16247,20360,0.0
0,0,0,0.0
20161,-25684,33803,0.0
995,-1243,1677,0.0
0,0,0,0.0
19465,-23357,33135,0.0
19868,-23354,33986,0.0
20117,-23156,34575,0.0
20088,-22635,34688,0.0
0,0,0,0.0
0,0,0,0.0
0,0,0,0.0
0,0,0,0.0
1454,-1464,2568,0.0
0,0,0,0.0
0,0,0,0.0
0,0,0,0.0
937,-854,1683,0.0
1065,-946,1920,0.0
121,-105,222,0.0
1144,-962,2078,0.0
0,0,0,0.0
0,0,0,0.0
0,0,0,0.0
20033,-14962,36878,0.0
1073,-776,1983,0.0
1091,-763,2023,0.0
20017,-13548,37221,0.0
20033,-13091,37372,0.0
905,-569,1694,0.0
0,0,0,0.0
20014,-11681,37689,0.0
20022,-11220,37818,0.0
19998,-10741,37886,0.0
0,0,0,0.0
1019,-500,1943,0.0
0,0,0,0.0
1001,-444,1919,0.0
1010,-426,1942,0.0
961,-382,1852,0.0
871,-326,1684,0.0
0,0,0,0.0
0,0,0,0.0
1037,-315,2020,0.0
0,0,0,0.0
1088,-279,2128,0.0
869,-203,1704,0.0
0,0,0,0.0
0,0,0,0.0
0,0,0,0.0
1075,-149,2127,0.0
1099,-126,2180,0.0
10929,-991,21714,0.0
10402,-695,20708,0.0
10359,-443,20665,0.0
10373,-194,20734,0.0
10376,56,20782,0.0
10388,308,20846,0.0
10404,562,20917,0.0
10423,817,20994,0.0
10419,1072,21024,0.0
10425,1329,21075,0.0
10431,1587,21123,0.0
10426,1845,21148,0.0
10461,2111,21255,0.0
10449,2371,21267,0.0
10494,2645,21389,0.0
10492,2909,21419,0.0
10518,3183,21504,0.0
10516,3451,21533,0.0
13,4,27,0.0
9,3,20,0.0
6,2,12,0.0
8,3,18,0.0
13,6,28,0.0
21,10,45,0.0
19,10,41,0.0
23,12,48,0.0
25,14,53,0.0
19,10,39,0.0
34,21,72,0.0
26,17,55,0.0
32,21,68,0.0
36,25,77,0.0
38,28,81,0.0
37,28,79,0.0
38,31,82,0.0
46,37,97,0.0
38,32,81,0.0
41,36,87,0.0
45,41,96,0.0
43,40,93,0.0
43,42,91,0.0
41,41,88,0.0
45,47,97,0.0
46,49,98,0.0
47,51,100,0.0
42,47,90,0.0
42,48,90,0.0
46,54,96,0.0
48,60,103,0.0
41,52,88,0.0
42,55,91,0.0
42,56,90,0.0
45,61,96,0.0
43,60,92,0.0
43,62,92,0.0
45,65,96,0.0
45,66,95,0.0
43,66,92,0.0
45,70,96,0.0
46,75,99,0.0
47,78,100,0.0
48,81,103,0.0
48,82,102,0.0
47,82,99,0.0
49,87,103,0.0
52,95,110,0.0
50,95,107,0.0
51,99,109,0.0
49,96,105,0.0
51,103,109,0.0
53,108,112,0.0
50,106,107,0.0
54,116,115,0.0
53,116,112,0.0
52,116,111,0.0
55,124,115,0.0
55,128,117,0.0
55,130,116,0.0
56,134,117,0.0
57,139,118,0.0
55,138,115,0.0
83,-281,66,0.0
84,-279,69,0.0
83,-270,69,0.0
83,-267,72,0.0
82,-264,74,0.0
84,-265,78,0.0
84,-260,80,0.0
84,-258,82,0.0
88,-263,86,0.0
87,-256,87,0.0
89,-260,92,0.0
91,-262,95,0.0
90,-258,98,0.0
92,-256,101,0.0
93,-257,103,0.0
95,-258,108,0.0
97,-260,111,0.0
98,-258,114,0.0
97,-252,115,0.0
99,-253,119,0.0
100,-253,123,0.0
100,-250,124,0.0
103,-253,129,0.0
105,-253,133,0.0
104,-248,134,0.0
110,-260,144,0.0
120,-277,157,0.0
121,-277,162,0.0
119,-268,161,0.0
114,-254,157,0.0
112,-246,156,0.0
108,-233,150,0.0
104,-223,147,0.0
99,-209,142,0.0
95,-196,137,0.0
91,-184,131,0.0
11114,-22147,16197,0.0
11067,-21721,16270,0.0
11025,-21313,16350,0.0
10993,-20927,16439,0.0
10954,-20533,16515,0.0
10913,-20140,16586,0.0
10886,-19775,16672,0.0
10851,-19402,16745,0.0
10830,-19059,16838,0.0
10800,-18702,16913,0.0
10756,-18326,16964,0.0
10726,-17978,17034,0.0
10693,-17629,17098,0.0
10664,-17292,17167,0.0
10653,-16984,17261,0.0
10596,-16608,17278,0.0
10579,-16296,17357,0.0
10549,-15970,17414,0.0
10717,-15940,17796,0.0
10924,-15961,18247,0.0
11069,-15884,18596,0.0
11401,-16061,19260,0.0
11672,-16142,19827,0.0
12015,-16307,20519,0.0
0,0,0,0.0
18474,-24128,31881,0.0
18446,-23622,31994,0.0
0,0,0,0.0
18948,-23308,33189,0.0
19389,-23364,34125,0.0
0,0,0,0.0
0,0,0,0.0
0,0,0,0.0
0,0,0,0.0
0,0,0,0.0
0,0,0,0.0
1112,-1148,2021,0.0
155,-157,284,0.0
0,0,0,0.0
989,-948,1818,0.0
0,0,0,0.0
107,-97,200,0.0
1075,-953,2000,0.0
0,0,0,0.0
0,0,0,0.0
0,0,0,0.0
0,0,0,0.0
0,0,0,0.0
0,0,0,0.0
0,0,0,0.0
0,0,0,0.0
0,0,0,0.0
1066,-688,2050,0.0
1071,-667,2069,0.0
882,-528,1708,0.0
0,0,0,0.0
0,0,0,0.0
0,0,0,0.0
0,0,0,0.0
0,0,0,0.0
0,0,0,0.0
0,0,0,0.0
0,0,0,0.0
954,-367,1895,0.0
0,0,0,0.0
0,0,0,0.0
942,-295,1884,0.0
1020,-295,2046,0.0
1006,-266,2023,0.0
1028,-247,2072,0.0
1018,-220,2055,0.0
0,0,0,0.0
1004,-168,2038,0.0
1020,-147,2075,0.0
11318,-1350,23059,0.0
10607,-1007,21654,0.0
10173,-716,20813,0.0
10096,-463,20698,0.0
10081,-214,20708,0.0
852,2,1755,0.0
10096,285,20821,0.0
10122,537,20914,0.0
10111,789,20929,0.0
10129,1045,21006,0.0
10140,1301,21066,0.0
10162,1560,21148,0.0
10167,1819,21195,0.0
10170,2078,21237,0.0
10181,2342,21295,0.0
10186,2605,21341,0.0
10211,2875,21426,0.0
10212,3141,21462,0.0
10212,3407,21495,0.0
10228,3680,21559,0.0
14,5,31,0.0
11,4,25,0.0
20,8,43,0.0
22,10,49,0.0
20,10,45,0.0
22,11,47,0.0
24,13,54,0.0
26,15,58,0.0
24,14,53,0.0
34,21,74,0.0
31,20,68,0.0
40,27,87,0.0
35,25,78,0.0
37,28,82,0.0
36,28,79,0.0
39,32,86,0.0
43,35,92,0.0
41,36,90,0.0
49,44,106,0.0
38,35,84,0.0
47,45,101,0.0
45,45,100,0.0
47,47,102,0.0
49,52,107,0.0
49,53,107,0.0
52,59,115,0.0
48,55,105,0.0
45,53,99,0.0
48,59,107,0.0
49,62,108,0.0
41,54,92,0.0
45,60,101,0.0
47,64,106,0.0
45,63,101,0.0
44,63,98,0.0
43,63,96,0.0
44,65,95,0.0
44,68,98,0.0
44,71,99,0.0
48,77,105,0.0
47,77,102,0.0
49,81,106,0.0
47,81,103,0.0
47,83,104,0.0
47,85,104,0.0
49,91,108,0.0
50,94,109,0.0
47,91,103,0.0
50,99,110,0.0
53,105,114,0.0
52,106,114,0.0
53,111,116,0.0
52,112,114,0.0
53,116,115,0.0
52,117,114,0.0
53,123,117,0.0
55,128,120,0.0
52,124,113,0.0
55,135,120,0.0
54,134,117,0.0
55,139,119,0.0
56,146,122,0.0
77,-267,63,0.0
76,-262,66,0.0
75,-254,67,0.0
77,-256,70,0.0
77,-252,72,0.0
78,-254,75,0.0
82,-261,81,0.0
81,-255,82,0.0
79,-245,81,0.0
83,-254,88,0.0
86,-257,92,0.0
86,-256,95,0.0
86,-251,96,0.0
87,-252,100,0.0
90,-255,104,0.0
88,-249,104,0.0
89,-248,108,0.0
90,-245,110,0.0
93,-250,114,0.0
94,-249,118,0.0
91,-237,115,0.0
93,-241,121,0.0
96,-242,125,0.0
96,-241,127,0.0
100,-246,133,0.0
105,-254,142,0.0
116,-278,159,0.0
112,-262,154,0.0
113,-261,158,0.0
105,-240,148,0.0
101,-227,144,0.0
99,-218,142,0.0
96,-210,141,0.0
100,-214,147,0.0
83,-174,122,0.0
75,-159,114,0.0
10761,-22019,16198,0.0
10726,-21615,16285,0.0
10693,-21222,16373,0.0
10662,-20837,16460,0.0
10620,-20435,16527,0.0
10591,-20061,16609,0.0
10566,-19701,16699,0.0
10527,-19319,16761,0.0
10509,-18979,16855,0.0
10465,-18598,16904,0.0
10434,-18243,16972,0.0
10424,-17930,17072,0.0
10386,-17570,17123,0.0
10360,-17234,17192,0.0
10327,-16893,17249,0.0
10220,-16434,17176,0.0
10259,-16213,17346,0.0
10258,-15931,17449,0.0
10432,-15917,17848,0.0
10726,-16076,18457,0.0
10822,-15929,18728,0.0
11092,-16029,19300,0.0
11408,-16182,19958,0.0
11695,-16282,20570,0.0
19145,-26148,33846,0.0
17943,-24036,31884,0.0
0,0,0,0.0
17861,-22995,32052,0.0
0,0,0,0.0
18655,-23055,33797,0.0
0,0,0,0.0
0,0,0,0.0
0,0,0,0.0
0,0,0,0.0
0,0,0,0.0
0,0,0,0.0
1051,-1112,1964,0.0
0,0,0,0.0
0,0,0,0.0
0,0,0,0.0
0,0,0,0.0
1039,-971,1981,0.0
0,0,0,0.0
0,0,0,0.0
0,0,0,0.0
0,0,0,0.0
543,-439,1054,0.0
832,-654,1620,0.0
0,0,0,0.0
0,0,0,0.0
0,0,0,0.0
0,0,0,0.0
0,0,0,0.0
1010,-646,2006,0.0
0,0,0,0.0
1029,-607,2053,0.0
968,-548,1938,0.0
954,-516,1916,0.0
0,0,0,0.0
0,0,0,0.0
0,0,0,0.0
1047,-465,2126,0.0
0,0,0,0.0
0,0,0,0.0
923,-343,1890,0.0
0,0,0,0.0
0,0,0,0.0
0,0,0,0.0
998,-272,2062,0.0
936,-233,1940,0.0
651,-146,1353,0.0
871,-173,1814,0.0
0,0,0,0.0
979,-146,2048,0.0
11103,-1379,23253,0.0
10311,-1023,21643,0.0
9937,-737,20901,0.0
9818,-481,20692,0.0
9827,-233,20754,0.0
9805,13,20749,0.0
9840,263,20865,0.0
9843,514,20909,0.0
9866,768,20998,0.0
9857,1019,21018,0.0
9875,1276,21094,0.0
9871,1531,21123,0.0
9889,1790,21201,0.0
9905,2051,21269,0.0
9895,2308,21283,0.0
9908,2573,21348,0.0
9932,2842,21432,0.0
9931,3106,21466,0.0
9971,3385,21584,0.0
10,4,23,0.0
14,6,32,0.0
14,5,33,0.0
14,6,31,0.0
14,7,32,0.0
16,8,35,0.0
21,11,49,0.0
23,13,53,0.0
28,16,63,0.0
21,12,47,0.0
27,17,63,0.0
27,18,60,0.0
30,20,67,0.0
36,26,81,0.0
34,26,75,0.0
36,28,80,0.0
43,35,96,0.0
40,34,90,0.0
40,35,92,0.0
40,36,89,0.0
42,40,94,0.0
44,42,98,0.0
40,40,90,0.0
39,41,89,0.0
39,42,88,0.0
47,52,105,0.0
46,52,103,0.0
40,47,90,0.0
41,50,95,0.0
43,54,98,0.0
38,50,88,0.0
43,57,98,0.0
38,53,88,0.0
44,60,99,0.0
40,57,91,0.0
40,58,90,0.0
41,61,93,0.0
43,65,96,0.0
41,65,95,0.0
41,67,95,0.0
43,70,97,0.0
42,71,96,0.0
42,73,95,0.0
40,72,92,0.0
44,81,102,0.0
44,82,100,0.0
46,87,105,0.0
49,95,111,0.0
47,92,105,0.0
47,96,107,0.0
47,99,109,0.0
47,100,107,0.0
46,101,106,0.0
50,109,112,0.0
50,113,113,0.0
51,118,114,0.0
51,121,116,0.0
50,121,113,0.0
50,125,115,0.0
52,132,118,0.0
51,132,115,0.0
51,136,116,0.0
50,134,113,0.0
77,-278,67,0.0
78,-273,69,0.0
75,-261,69,0.0
76,-261,72,0.0
77,-261,75,0.0
78,-261,78,0.0
80,-264,82,0.0
83,-266,86,0.0
80,-256,86,0.0
83,-262,91,0.0
83,-259,93,0.0
85,-261,97,0.0
87,-262,101,0.0
85,-253,101,0.0
89,-260,107,0.0
90,-259,110,0.0
92,-261,114,0.0
94,-261,117,0.0
94,-260,120,0.0
93,-255,122,0.0
94,-252,124,0.0
97,-256,129,0.0
97,-252,130,0.0
99,-255,136,0.0
106,-268,147,0.0
107,-267,150,0.0
111,-272,158,0.0
109,-263,156,0.0
108,-257,156,0.0
104,-244,152,0.0
100,-232,148,0.0
99,-226,148,0.0
92,-206,138,0.0
90,-200,137,0.0
83,-181,127,0.0
10469,-22346,16142,0.0
10439,-21945,16236,0.0
10410,-21554,16330,0.0
10375,-21152,16409,0.0
10350,-20776,16502,0.0
10302,-20360,16554,0.0
10275,-19990,16638,0.0
10243,-19617,16712,0.0
10210,-19243,16779,0.0
10180,-18880,16851,0.0
10149,-18523,16919,0.0
10125,-18179,16994,0.0
10109,-17854,17081,0.0
10083,-17512,17148,0.0
10056,-17175,17212,0.0
10025,-16834,17266,0.0
9999,-16507,17329,0.0
9995,-16217,17426,0.0
9955,-15871,17458,0.0
10149,-15894,17899,0.0
10449,-16076,18535,0.0
10569,-15967,18851,0.0
10828,-16061,19418,0.0
11096,-16154,20002,0.0
11395,-16280,20649,0.0
652,-913,1188,0.0
0,0,0,0.0
0,0,0,0.0
17356,-22933,32082,0.0
0,0,0,0.0
18148,-23017,33858,0.0
0,0,0,0.0
0,0,0,0.0
0,0,0,0.0
1245,-1449,2365,0.0
0,0,0,0.0
0,0,0,0.0
0,0,0,0.0
0,0,0,0.0
721,-746,1398,0.0
155,-157,304,0.0
1192,-1173,2331,0.0
0,0,0,0.0
0,0,0,0.0
0,0,0,0.0
1001,-882,1983,0.0
810,-695,1614,0.0
0,0,0,0.0
0,0,0,0.0
0,0,0,0.0
953,-721,1922,0.0
925,-676,1871,0.0
0,0,0,0.0
0,0,0,0.0
0,0,0,0.0
0,0,0,0.0
0,0,0,0.0
0,0,0,0.0
0,0,0,0.0
0,0,0,0.0
739,-374,1537,0.0
951,-458,1981,0.0
912,-417,1905,0.0
0,0,0,0.0
0,0,0,0.0
969,-370,2039,0.0
0,0,0,0.0
0,0,0,0.0
0,0,0,0.0
0,0,0,0.0
1445,-371,3079,0.0
0,0,0,0.0
912,-187,1952,0.0
909,-164,1949,0.0
955,-148,2053,0.0
10859,-1404,23390,0.0
10054,-1042,21703,0.0
9750,-761,21092,0.0
9540,-499,20681,0.0
9544,-253,20732,0.0
9544,-6,20774,0.0
9549,241,20825,0.0
9561,491,20894,0.0
9582,742,20977,0.0
9589,995,21034,0.0
9577,1247,21044,0.0
9597,1503,21129,0.0
9611,1761,21195,0.0
9621,2021,21254,0.0
9620,2279,21290,0.0
9640,2543,21370,0.0
9649,2807,21425,0.0
9652,3071,21467,0.0
5,1,14,0.0
7,2,17,0.0
22,9,51,0.0
17,7,40,0.0
20,9,47,0.0
18,9,42,0.0
17,8,39,0.0
24,13,55,0.0
29,16,67,0.0
28,16,64,0.0
33,21,77,0.0
33,21,75,0.0
31,22,71,0.0
35,24,79,0.0
33,25,78,0.0
37,29,87,0.0
39,32,91,0.0
42,35,98,0.0
37,32,85,0.0
37,34,88,0.0
47,44,109,0.0
41,40,95,0.0
41,42,96,0.0
45,47,105,0.0
43,46,101,0.0
45,48,103,0.0
43,48,99,0.0
43,51,102,0.0
46,56,107,0.0
44,55,103,0.0
42,54,99,0.0
44,58,104,0.0
42,57,99,0.0
46,63,106,0.0
41,59,97,0.0
43,62,100,0.0
43,64,101,0.0
44,68,104,0.0
45,71,105,0.0
40,65,95,0.0
42,69,98,0.0
42,72,100,0.0
42,74,100,0.0
42,74,98,0.0
42,78,100,0.0
44,82,104,0.0
43,82,101,0.0
44,86,104,0.0
45,91,107,0.0
47,96,111,0.0
47,98,111,0.0
47,100,111,0.0
46,100,107,0.0
47,105,110,0.0
46,105,109,0.0
48,112,113,0.0
49,117,116,0.0
51,124,120,0.0
49,121,115,0.0
50,128,119,0.0
51,132,119,0.0
49,131,115,0.0
51,138,120,0.0
50,138,116,0.0
71,-264,65,0.0
71,-260,66,0.0
70,-253,68,0.0
70,-251,70,0.0
73,-255,75,0.0
73,-253,77,0.0
73,-250,78,0.0
76,-254,83,0.0
77,-252,86,0.0
79,-255,90,0.0
77,-246,89,0.0
80,-250,94,0.0
82,-254,99,0.0
81,-251,100,0.0
84,-253,105,0.0
84,-252,108,0.0
86,-251,111,0.0
85,-245,111,0.0
85,-243,114,0.0
88,-248,119,0.0
89,-245,121,0.0
89,-240,122,0.0
91,-244,127,0.0
90,-239,128,0.0
99,-259,143,0.0
99,-255,145,0.0
102,-258,149,0.0
98,-245,146,0.0
94,-229,140,0.0
96,-231,145,0.0
90,-213,137,0.0
88,-208,137,0.0
85,-197,133,0.0
82,-186,128,0.0
69,-156,111,0.0
10143,-22264,16174,0.0
10117,-21868,16268,0.0
10070,-21436,16329,0.0
10050,-21065,16429,0.0
10022,-20681,16513,0.0
9984,-20282,16576,0.0
9956,-19911,16657,0.0
9925,-19535,16727,0.0
9902,-19180,16809,0.0
9872,-18815,16873,0.0
9849,-18468,16950,0.0
9830,-18134,17031,0.0
9793,-17770,17081,0.0
9784,-17459,17173,0.0
9735,-17081,17195,0.0
9719,-16767,17273,0.0
9701,-16450,17345,0.0
9683,-16138,17416,0.0
9669,-15833,17491,0.0
9854,-15854,17927,0.0
10116,-15984,18504,0.0
10303,-15986,18949,0.0
10560,-16087,19527,0.0
10842,-16211,20150,0.0
17955,-26346,33543,1.0
18085,-26033,33955,1.0
17088,-24126,32242,0.0
0,0,0,0.0
0,0,0,0.0
0,0,0,0.0
17616,-22943,33866,0.0
0,0,0,0.0
0,0,0,0.0
0,0,0,0.0
932,-1115,1825,0.0
0,0,0,0.0
1051,-1200,2074,0.0
0,0,0,0.0
0,0,0,0.0
0,0,0,0.0
0,0,0,0.0
0,0,0,0.0
0,0,0,0.0
0,0,0,0.0
0,0,0,0.0
0,0,0,0.0
0,0,0,0.0
0,0,0,0.0
0,0,0,0.0
0,0,0,0.0
0,0,0,0.0
0,0,0,0.0
128,-93,268,0.0
722,-506,1513,0.0
0,0,0,0.0
0,0,0,0.0
0,0,0,0.0
0,0,0,0.0
1003,-574,2132,0.0
863,-472,1840,0.0
0,0,0,0.0
0,0,0,0.0
0,0,0,0.0
970,-432,2091,0.0
893,-375,1930,0.0
917,-361,1989,0.0
0,0,0,0.0
0,0,0,0.0
1559,-493,3401,0.0
938,-273,2052,0.0
875,-231,1920,0.0
826,-197,1816,0.0
3508,-746,7726,0.0
888,-166,1963,0.0
0,0,0,0.0
10569,-1422,23431,0.0
9776,-1060,21720,0.0
9489,-779,21126,0.0
9224,-515,20578,0.0
9278,-272,20742,0.0
9288,-25,20807,0.0
9292,221,20857,0.0
9289,468,20890,0.0
9292,719,20939,0.0
9302,969,21000,0.0
9311,1222,21060,0.0
9333,1478,21149,0.0
9337,1733,21196,0.0
9338,1990,21236,0.0
9342,2248,21283,0.0
9364,2512,21368,0.0
9377,2776,21433,0.0
9389,3042,21498,0.0
1,0,4,0.0
23,8,53,0.0
11,4,27,0.0
11,5,27,0.0
12,5,30,0.0
10,5,25,0.0
18,9,44,0.0
15,8,35,0.0
18,10,44,0.0
25,15,59,0.0
25,15,59,0.0
24,16,57,0.0
22,16,54,0.0
25,18,59,0.0
30,22,72,0.0
29,24,71,0.0
29,25,71,0.0
36,31,88,0.0
29,26,70,0.0
36,33,87,0.0
37,35,88,0.0
38,38,92,0.0
38,40,93,0.0
38,40,90,0.0
39,43,94,0.0
37,42,90,0.0
42,49,101,0.0
44,53,106,0.0
40,49,96,0.0
40,52,97,0.0
38,50,92,0.0
37,51,92,0.0
39,53,94,0.0
37,52,90,0.0
35,51,85,0.0
38,58,93,0.0
36,55,88,0.0
38,59,91,0.0
36,59,88,0.0
36,59,87,0.0
37,63,90,0.0
42,74,104,0.0
37,66,89,0.0
37,68,91,0.0
41,77,100,0.0
38,73,93,0.0
41,81,99,0.0
42,84,102,0.0
39,81,96,0.0
40,86,100,0.0
42,90,102,0.0
42,92,103,0.0
41,92,100,0.0
43,97,104,0.0
41,98,101,0.0
44,106,107,0.0
45,110,109,0.0
45,113,111,0.0
44,110,105,0.0
46,122,113,0.0
46,124,113,0.0
47,128,113,0.0
47,132,114,0.0
47,134,115,0.0
67,-260,65,0.0
68,-259,67,0.0
68,-251,68,0.0
71,-262,74,0.0
71,-256,75,0.0
74,-265,81,0.0
74,-257,82,0.0
75,-257,85,0.0
73,-251,86,0.0
78,-262,93,0.0
78,-258,95,0.0
78,-254,96,0.0
80,-256,101,0.0
82,-257,104,0.0
83,-259,108,0.0
83,-253,109,0.0
83,-251,112,0.0
86,-255,116,0.0
87,-253,120,0.0
88,-254,124,0.0
86,-246,123,0.0
88,-244,126,0.0
89,-245,129,0.0
92,-251,136,0.0
101,-270,150,0.0
104,-275,156,0.0
99,-257,150,0.0
100,-257,154,0.0
101,-254,157,0.0
88,-220,138,0.0
84,-206,134,0.0
88,-212,140,0.0
79,-188,128,0.0
76,-177,123,0.0
9859,-22612,16129,0.0
9817,-22175,16198,0.0
9798,-21795,16303,0.0
9761,-21379,16373,0.0
9734,-20990,16456,0.0
9705,-20602,16534,0.0
9677,-20222,16611,0.0
9648,-19846,16685,0.0
9630,-19496,16774,0.0
9599,-19123,16838,0.0
9567,-18754,16899,0.0
9546,-18408,16973,0.0
9514,-18048,17030,0.0
9499,-17722,17111,0.0
9485,-17402,17193,0.0
9460,-17065,17255,0.0
9422,-16710,17288,0.0
9416,-16414,17380,0.0
9393,-16091,17438,0.0
9433,-15878,17611,0.0
9621,-15908,18062,0.0
9814,-15940,18527,0.0
10030,-15995,19033,0.0
10289,-16109,19627,0.0
10537,-16193,20205,0.0
17424,-26275,33577,1.0
17571,-25992,34025,1.0
0,0,0,0.0
16892,-24029,33026,0.0
16880,-23535,33156,0.0
16863,-23041,33276,0.0
17129,-22925,33953,0.0
0,0,0,0.0
0,0,0,0.0
0,0,0,0.0
0,0,0,0.0
0,0,0,0.0
0,0,0,0.0
0,0,0,0.0
0,0,0,0.0
0,0,0,0.0
1295,-1379,2675,0.0
0,0,0,0.0
0,0,0,0.0
112,-110,235,0.0
87,-83,183,0.0
0,0,0,0.0
108,-97,229,0.0
1033,-907,2186,0.0
949,-809,2017,0.0
0,0,0,0.0
928,-741,1984,0.0
889,-687,1907,0.0
0,0,0,0.0
839,-605,1811,0.0
819,-569,1775,0.0
0,0,0,0.0
1000,-641,2176,0.0
0,0,0,0.0
0,0,0,0.0
0,0,0,0.0
820,-440,1805,0.0
0,0,0,0.0
861,-418,1906,0.0
0,0,0,0.0
860,-371,1913,0.0
0,0,0,0.0
825,-314,1847,0.0
768,-271,1721,0.0
0,0,0,0.0
0,0,0,0.0
0,0,0,0.0
0,0,0,0.0
914,-202,2074,0.0
873,-169,1985,0.0
944,-157,2150,0.0
10339,-1449,23601,0.0
9489,-1075,21708,0.0
9222,-797,21140,0.0
8960,-531,20583,0.0
9009,-290,20738,0.0
9007,-45,20777,0.0
9024,201,20858,0.0
9018,448,20885,0.0
9027,696,20948,0.0
9045,947,21031,0.0
9049,1199,21077,0.0
9060,1452,21145,0.0
9064,1706,21192,0.0
9061,1961,21225,0.0
9077,2220,21298,0.0
9096,2483,21380,0.0
9080,2737,21379,0.0
31,10,75,0.0
21,7,50,0.0
14,5,35,0.0
11,4,28,0.0
6,3,17,0.0
8,3,19,0.0
20,10,49,0.0
18,10,45,0.0
16,9,40,0.0
17,9,42,0.0
20,12,50,0.0
26,17,64,0.0
24,16,59,0.0
24,17,59,0.0
25,18,60,0.0
31,24,78,0.0
30,24,74,0.0
27,23,66,0.0
37,33,91,0.0
39,35,96,0.0
35,33,85,0.0
33,32,82,0.0
37,37,91,0.0
41,43,101,0.0
39,42,98,0.0
42,47,104,0.0
40,47,101,0.0
39,47,98,0.0
37,45,92,0.0
39,49,96,0.0
39,51,97,0.0
34,47,87,0.0
41,57,102,0.0
36,53,92,0.0
43,62,106,0.0
39,59,98,0.0
40,63,102,0.0
40,64,101,0.0
37,61,94,0.0
33,56,85,0.0
37,63,93,0.0
42,73,105,0.0
38,68,95,0.0
36,66,90,0.0
38,72,96,0.0
38,74,95,0.0
35,70,89,0.0
38,77,96,0.0
40,82,100,0.0
38,82,98,0.0
39,86,100,0.0
40,90,102,0.0
44,100,112,0.0
43,99,108,0.0
43,101,107,0.0
41,98,103,0.0
43,106,109,0.0
42,107,107,0.0
44,115,112,0.0
44,118,113,0.0
45,123,115,0.0
47,129,118,0.0
45,129,115,0.0
46,132,117,0.0
44,128,109,0.0
66,-266,67,0.0
66,-261,69,0.0
69,-268,74,0.0
68,-259,74,0.0
70,-263,79,0.0
71,-261,81,0.0
71,-261,84,0.0
73,-262,88,0.0
74,-260,90,0.0
77,-264,95,0.0
78,-268,100,0.0
78,-265,101,0.0
80,-264,104,0.0
80,-262,107,0.0
82,-263,111,0.0
80,-254,111,0.0
80,-251,112,0.0
83,-254,117,0.0
87,-264,125,0.0
87,-260,127,0.0
85,-252,127,0.0
87,-252,130,0.0
90,-255,135,0.0
91,-255,139,0.0
98,-271,151,0.0
99,-270,155,0.0
99,-266,156,0.0
100,-264,159,0.0
92,-239,149,0.0
91,-233,148,0.0
89,-225,147,0.0
79,-196,130,0.0
78,-193,131,0.0
77,-185,129,0.0
9520,-22491,16130,0.0
9497,-22094,16226,0.0
9480,-21715,16328,0.0
9448,-21307,16403,0.0
9419,-20915,16481,0.0
9394,-20533,16561,0.0
9365,-20149,16634,0.0
9351,-19801,16729,0.0
9320,-19419,16790,0.0
9298,-19063,16865,0.0
9268,-18698,16925,0.0
9245,-18349,16995,0.0
9227,-18012,17071,0.0
9194,-17650,17116,0.0
166,-314,311,0.0
9155,-16992,17253,0.0
9148,-16692,17343,0.0
9122,-16360,17394,0.0
9108,-16050,17464,0.0
9179,-15894,17699,0.0
9369,-15935,18163,0.0
9524,-15911,18564,0.0
9746,-15986,19094,0.0
10002,-16106,19696,0.0
10253,-16204,20292,0.0
16919,-26237,33650,1.0
17074,-25974,34122,1.0
16441,-24529,33014,0.0
16534,-24186,33356,0.0
16464,-23606,33366,0.0
16502,-23183,33593,0.0
0,0,0,0.0
0,0,0,0.0
0,0,0,0.0
0,0,0,0.0
861,-1088,1793,0.0
925,-1143,1935,0.0
803,-969,1685,0.0
0,0,0,0.0
0,0,0,0.0
770,-866,1636,0.0
0,0,0,0.0
0,0,0,0.0
788,-818,1689,0.0
0,0,0,0.0
0,0,0,0.0
687,-659,1490,0.0
0,0,0,0.0
0,0,0,0.0
0,0,0,0.0
0,0,0,0.0
0,0,0,0.0
0,0,0,0.0
0,0,0,0.0
951,-705,2116,0.0
0,0,0,0.0
0,0,0,0.0
0,0,0,0.0
0,0,0,0.0
734,-444,1655,0.0
0,0,0,0.0
884,-488,2005,0.0
817,-429,1860,0.0
810,-404,1846,0.0
0,0,0,0.0
0,0,0,0.0
0,0,0,0.0
0,0,0,0.0
1317,-481,3042,0.0
0,0,0,0.0
856,-266,1988,0.0
0,0,0,0.0
800,-204,1867,0.0
0,0,0,0.0
0,0,0,0.0
0,0,0,0.0
10044,-1466,23621,0.0
9264,-1097,21834,0.0
9028,-819,21324,0.0
8330,-525,19717,0.0
8740,-307,20731,0.0
8764,-64,20829,0.0
89,1,215,0.0
51,2,125,0.0
8781,676,20998,0.0
8786,925,21050,0.0
8792,1176,21105,0.0
8795,1427,21151,0.0
8795,1680,21192,0.0
8813,1939,21275,0.0
8809,2192,21303,0.0
8814,2451,21354,0.0
8819,2710,21404,0.0
11,3,27,0.0
0,0,0,0.0
5,2,12,0.0
16,7,42,0.0
16,6,39,0.0
16,7,40,0.0
14,7,38,0.0
22,12,56,0.0
19,10,46,0.0
25,16,65,0.0
21,13,53,0.0
17,11,44,0.0
25,18,64,0.0
26,20,67,0.0
29,22,73,0.0
32,25,81,0.0
29,23,72,0.0
37,32,94,0.0
35,32,90,0.0
37,35,94,0.0
36,35,91,0.0
37,38,95,0.0
36,37,92,0.0
36,40,94,0.0
34,39,90,0.0
39,46,102,0.0
36,42,92,0.0
44,54,112,0.0
48,60,123,0.0
54,70,139,0.0
54,73,140,0.0
46,64,120,0.0
42,59,107,0.0
38,56,98,0.0
39,59,101,0.0
39,60,102,0.0
41,65,106,0.0
42,68,108,0.0
40,67,104,0.0
34,59,89,0.0
35,61,91,0.0
36,65,95,0.0
35,65,91,0.0
36,69,95,0.0
36,69,93,0.0
36,72,96,0.0
36,74,96,0.0
37,78,98,0.0
37,79,96,0.0
37,81,97,0.0
39,86,100,0.0
39,89,103,0.0
39,91,101,0.0
38,90,99,0.0
40,97,104,0.0
40,101,106,0.0
42,105,109,0.0
41,108,107,0.0
42,113,112,0.0
43,118,113,0.0
41,117,110,0.0
43,125,115,0.0
44,128,115,0.0
44,131,116,0.0
43,131,113,0.0
65,-272,70,0.0
68,-277,74,0.0
70,-280,78,0.0
70,-275,80,0.0
69,-268,81,0.0
70,-268,84,0.0
74,-277,90,0.0
71,-263,89,0.0
73,-266,93,0.0
74,-268,97,0.0
74,-264,98,0.0
77,-270,105,0.0
77,-266,106,0.0
78,-267,110,0.0
81,-268,114,0.0
84,-273,119,0.0
82,-266,120,0.0
83,-263,123,0.0
86,-269,128,0.0
89,-277,136,0.0
86,-262,133,0.0
85,-255,133,0.0
88,-259,138,0.0
87,-254,139,0.0
95,-271,153,0.0
94,-264,153,0.0
96,-266,158,0.0
97,-266,162,0.0
93,-249,155,0.0
90,-237,151,0.0
85,-221,144,0.0
86,-221,148,0.0
86,-217,149,0.0
74,-186,131,0.0
73,-179,129,0.0
9180,-22016,16252,0.0
9154,-21614,16336,0.0
9127,-21215,16413,0.0
9095,-20812,16480,0.0
9082,-20454,16578,0.0
9066,-20098,16669,0.0
9044,-19728,16746,0.0
9019,-19360,16815,0.0
8997,-19003,16887,0.0
8971,-18641,16950,0.0
8950,-18294,17020,0.0
8931,-17953,17090,0.0
8915,-17624,17165,0.0
8883,-17267,17205,0.0
8873,-16958,17290,0.0
8836,-16599,17316,0.0
8835,-16313,17413,0.0
8812,-15986,17463,0.0
8920,-15899,17774,0.0
9102,-15938,18235,0.0
9248,-15902,18624,0.0
9497,-16033,19222,0.0
9740,-16143,19814,0.0
9994,-16256,20431,0.0
803,-1282,1650,0.0
16593,-25978,34247,1.0
16053,-24649,33288,0.0
16019,-24115,33369,0.0
16050,-23681,33583,0.0
16005,-23138,33635,0.0
0,0,0,0.0
0,0,0,0.0
0,0,0,0.0
0,0,0,0.0
0,0,0,0.0
0,0,0,0.0
0,0,0,0.0
895,-1086,1946,0.0
0,0,0,0.0
0,0,0,0.0
0,0,0,0.0
0,0,0,0.0
841,-901,1862,0.0
0,0,0,0.0
0,0,0,0.0
0,0,0,0.0
875,-838,1963,0.0
0,0,0,0.0
0,0,0,0.0
0,0,0,0.0
0,0,0,0.0
0,0,0,0.0
691,-547,1582,0.0
729,-557,1672,0.0
0,0,0,0.0
0,0,0,0.0
0,0,0,0.0
0,0,0,0.0
0,0,0,0.0
819,-488,1910,0.0
0,0,0,0.0
0,0,0,0.0
0,0,0,0.0
0,0,0,0.0
0,0,0,0.0
0,0,0,0.0
0,0,0,0.0
899,-338,2139,0.0
0,0,0,0.0
858,-276,2055,0.0
898,-263,2154,0.0
865,-229,2079,0.0
845,-200,2036,0.0
0,0,0,0.0
841,-152,2036,0.0
9754,-1483,23650,0.0
8993,-1113,21852,0.0
8868,-845,21595,0.0
8222,-550,20065,0.0
8494,-325,20772,0.0
8485,-82,20792,0.0
8479,161,20819,0.0
8509,407,20938,0.0
8495,653,20946,0.0
8508,901,21019,0.0
8534,1154,21124,0.0
700,114,1738,0.0
8523,1653,21178,0.0
8523,1906,21216,0.0
8536,2163,21291,0.0
646,183,1618,0.0
8543,2678,21385,0.0
8546,2938,21433,0.0
17,5,43,0.0
17,6,44,0.0
17,6,43,0.0
15,7,40,0.0
17,7,43,0.0
18,9,48,0.0
23,13,61,0.0
23,14,60,0.0
26,15,67,0.0
28,18,72,0.0
32,22,84,0.0
34,24,88,0.0
28,22,75,0.0
25,20,67,0.0
28,23,73,0.0
31,27,84,0.0
40,35,106,0.0
38,36,100,0.0
37,36,98,0.0
42,42,113,0.0
39,41,104,0.0
41,44,106,0.0
39,43,103,0.0
41,47,108,0.0
39,46,104,0.0
43,52,113,0.0
49,62,132,0.0
48,62,125,0.0
48,64,126,0.0
42,58,112,0.0
42,60,112,0.0
39,58,105,0.0
37,55,99,0.0
39,60,104,0.0
41,64,109,0.0
42,69,113,0.0
39,66,106,0.0
41,70,109,0.0
39,68,105,0.0
40,73,108,0.0
34,64,92,0.0
36,70,99,0.0
38,74,102,0.0
37,74,101,0.0
34,69,91,0.0
35,73,94,0.0
35,75,94,0.0
37,82,101,0.0
37,84,102,0.0
37,86,102,0.0
38,90,104,0.0
38,91,103,0.0
40,98,109,0.0
38,95,102,0.0
40,105,111,0.0
40,106,110,0.0
44,117,118,0.0
41,115,113,0.0
42,117,115,0.0
41,116,111,0.0
41,120,111,0.0
43,129,117,0.0
42,129,114,0.0
44,140,121,0.0
59,-256,66,0.0
62,-261,71,0.0
64,-265,75,0.0
65,-264,78,0.0
65,-262,80,0.0
67,-267,85,0.0
66,-258,85,0.0
67,-257,87,0.0
68,-256,90,0.0
71,-264,96,0.0
71,-261,98,0.0
71,-257,101,0.0
73,-259,104,0.0
75,-260,108,0.0
75,-258,110,0.0
79,-266,118,0.0
77,-258,117,0.0
77,-253,119,0.0
81,-262,127,0.0
79,-253,125,0.0
79,-249,127,0.0
81,-251,131,0.0
82,-249,134,0.0
83,-248,137,0.0
91,-269,152,0.0
95,-277,160,0.0
89,-256,153,0.0
89,-253,154,0.0
87,-241,151,0.0
79,-218,139,0.0
80,-215,142,0.0
78,-208,140,0.0
69,-181,125,0.0
67,-172,122,0.0
8882,-22324,16178,0.0
8862,-21927,16268,0.0
8833,-21516,16342,0.0
8815,-21138,16434,0.0
8788,-20741,16504,0.0
8757,-20343,16566,0.0
8758,-20021,16685,0.0
8730,-19639,16745,0.0
8709,-19277,16818,0.0
8685,-18913,16882,0.0
8658,-18548,16939,0.0
8645,-18214,17018,0.0
8613,-17847,17060,0.0
8607,-17538,17152,0.0
8581,-17192,17201,0.0
8568,-16876,17276,0.0
8528,-16510,17292,0.0
8534,-16236,17399,0.0
8525,-15936,17475,0.0
8655,-15894,17835,0.0
8896,-16047,18429,0.0
8993,-15929,18724,0.0
9225,-16044,19305,0.0
9437,-16110,19844,0.0
9679,-16216,20452,0.0
15901,-26140,33760,1.0
16080,-25930,34298,1.0
0,0,0,0.0
15479,-23998,33315,0.0
15504,-23559,33516,0.0
15485,-23054,33619,0.0
0,0,0,0.0
791,-1129,1733,0.0
0,0,0,0.0
0,0,0,0.0
1185,-1585,2626,0.0
0,0,0,0.0
0,0,0,0.0
0,0,0,0.0
725,-884,1632,0.0
0,0,0,0.0
0,0,0,0.0
0,0,0,0.0
0,0,0,0.0
0,0,0,0.0
0,0,0,0.0
0,0,0,0.0
110,-109,257,0.0
886,-849,2057,0.0
0,0,0,0.0
0,0,0,0.0
985,-860,2311,0.0
0,0,0,0.0
0,0,0,0.0
0,0,0,0.0
0,0,0,0.0
0,0,0,0.0
0,0,0,0.0
0,0,0,0.0
0,0,0,0.0
0,0,0,0.0
0,0,0,0.0
0,0,0,0.0
0,0,0,0.0
779,-392,1894,0.0
0,0,0,0.0
834,-373,2039,0.0
0,0,0,0.0
849,-331,2088,0.0
804,-290,1980,0.0
0,0,0,0.0
0,0,0,0.0
794,-218,1970,0.0
806,-198,2005,0.0
815,-176,2031,0.0
742,-139,1854,0.0
9453,-1498,23642,0.0
8774,-1135,21995,0.0
8601,-862,21608,0.0
8188,-581,20616,0.0
8226,-342,20756,0.0
8236,-99,20823,0.0
8238,143,20873,0.0
8232,387,20901,0.0
8247,634,20982,0.0
8239,879,21002,0.0
8247,1128,21066,0.0
8250,1378,21114,0.0
8271,1632,21210,0.0
8268,1883,21243,0.0
8291,2142,21343,0.0
8286,2396,21370,0.0
8263,2645,21348,0.0
8302,2916,21491,0.0
8301,3175,21526,0.0
9,4,26,0.0
12,5,31,0.0
12,5,31,0.0
14,7,39,0.0
14,7,39,0.0
12,7,32,0.0
19,11,51,0.0
18,12,50,0.0
18,12,49,0.0
21,14,55,0.0
19,14,53,0.0
22,17,62,0.0
24,19,64,0.0
28,24,78,0.0
32,28,86,0.0
29,27,80,0.0
30,29,83,0.0
38,36,101,0.0
35,36,96,0.0
38,39,102,0.0
29,31,78,0.0
27,31,74,0.0
32,38,87,0.0
35,42,95,0.0
34,42,93,0.0
31,41,87,0.0
32,42,88,0.0
35,49,98,0.0
34,48,94,0.0
34,51,96,0.0
36,54,98,0.0
36,54,98,0.0
36,58,101,0.0
34,55,95,0.0
33,54,90,0.0
33,58,94,0.0
33,60,94,0.0
32,58,88,0.0
32,59,88,0.0
32,61,90,0.0
30,59,85,0.0
32,64,90,0.0
31,64,87,0.0
32,68,89,0.0
31,68,89,0.0
34,75,96,0.0
30,69,85,0.0
33,76,93,0.0
33,77,91,0.0
34,84,97,0.0
33,83,95,0.0
34,87,96,0.0
35,92,100,0.0
35,96,102,0.0
37,99,104,0.0
38,107,108,0.0
38,108,107,0.0
38,112,109,0.0
38,115,109,0.0
38,115,107,0.0
39,122,111,0.0
40,126,113,0.0
39,129,113,0.0
59,-265,69,0.0
60,-262,72,0.0
61,-261,74,0.0
61,-259,77,0.0
64,-270,83,0.0
65,-270,86,0.0
63,-258,86,0.0
66,-261,90,0.0
64,-253,90,0.0
67,-259,95,0.0
70,-267,102,0.0
71,-269,106,0.0
71,-259,105,0.0
74,-269,113,0.0
73,-262,113,0.0
78,-271,120,0.0
76,-263,121,0.0
76,-257,121,0.0
77,-260,125,0.0
80,-263,131,0.0
77,-250,128,0.0
78,-250,131,0.0
78,-245,132,0.0
82,-254,141,0.0
88,-269,154,0.0
87,-263,154,0.0
89,-262,157,0.0
87,-256,157,0.0
82,-238,150,0.0
77,-218,141,0.0
76,-212,140,0.0
74,-204,139,0.0
62,-169,117,0.0
8595,-22667,16122,0.0
8585,-22288,16231,0.0
8548,-21846,16288,0.0
8530,-21458,16376,0.0
8499,-21043,16438,0.0
8488,-20685,16536,0.0
8474,-20321,16624,0.0
8455,-19953,16702,0.0
8437,-19590,16778,0.0
8403,-19197,16821,0.0
8397,-18870,16916,0.0
8379,-18520,16986,0.0
8360,-18176,17052,0.0
8345,-17841,17125,0.0
8318,-17485,17169,0.0
8302,-17158,17236,0.0
8281,-16824,17289,0.0
8251,-16473,17320,0.0
8187,-16064,17280,0.0
8245,-15893,17494,0.0
8405,-15917,17928,0.0
8632,-16056,18506,0.0
8712,-15913,18772,0.0
8930,-16013,19335,0.0
9166,-16133,19940,0.0
9380,-16202,20503,0.0
0,0,0,0.0
15555,-25858,34315,1.0
15618,-25458,34606,1.0
15001,-23973,33386,0.0
14952,-23418,33419,0.0
15064,-23116,33812,0.0
0,0,0,0.0
0,0,0,0.0
0,0,0,0.0
0,0,0,0.0
728,-1003,1668,0.0
709,-957,1633,0.0
0,0,0,0.0
0,0,0,0.0
0,0,0,0.0
660,-809,1542,0.0
1150,-1375,2693,0.0
668,-779,1572,0.0
0,0,0,0.0
0,0,0,0.0
0,0,0,0.0
0,0,0,0.0
0,0,0,0.0
0,0,0,0.0
0,0,0,0.0
0,0,0,0.0
0,0,0,0.0
0,0,0,0.0
0,0,0,0.0
766,-621,1870,0.0
0,0,0,0.0
0,0,0,0.0
0,0,0,0.0
0,0,0,0.0
0,0,0,0.0
0,0,0,0.0
0,0,0,0.0
0,0,0,0.0
0,0,0,0.0
0,0,0,0.0
678,-333,1707,0.0
84,-38,213,0.0
0,0,0,0.0
807,-325,2045,0.0
784,-293,1992,0.0
0,0,0,0.0
873,-274,2230,0.0
817,-233,2092,0.0
0,0,0,0.0
866,-195,2229,0.0
815,-159,2101,0.0
9177,-1516,23699,0.0
8640,-1168,22359,0.0
8357,-879,21677,0.0
7968,-599,20711,0.0
7956,-357,20724,0.0
7978,-117,20826,0.0
7959,125,20819,0.0
7967,368,20888,0.0
7983,613,20972,0.0
7984,859,21019,0.0
7982,1106,21055,0.0
7978,1352,21085,0.0
8010,1608,21212,0.0
8023,1862,21290,0.0
7998,2108,21263,0.0
8009,2364,21334,0.0
8025,2626,21417,0.0
7,2,21,0.0
11,4,33,0.0
11,5,31,0.0
9,4,25,0.0
7,3,21,0.0
17,8,48,0.0
13,7,37,0.0
14,7,39,0.0
22,13,62,0.0
20,14,56,0.0
26,18,74,0.0
23,17,66,0.0
20,16,57,0.0
19,15,55,0.0
23,19,64,0.0
30,26,86,0.0
26,23,73,0.0
28,26,78,0.0
34,33,94,0.0
34,35,96,0.0
32,35,93,0.0
33,36,94,0.0
34,39,97,0.0
29,35,84,0.0
35,44,101,0.0
34,42,95,0.0
36,47,102,0.0
34,46,98,0.0
33,45,93,0.0
31,44,89,0.0
33,49,96,0.0
37,56,108,0.0
33,52,96,0.0
38,60,109,0.0
41,68,118,0.0
38,64,108,0.0
38,66,110,0.0
35,63,101,0.0
35,63,100,0.0
35,67,103,0.0
32,62,93,0.0
32,64,94,0.0
32,67,97,0.0
32,66,93,0.0
32,69,94,0.0
31,67,90,0.0
31,71,93,0.0
31,71,90,0.0
33,79,99,0.0
31,75,91,0.0
34,84,101,0.0
32,80,93,0.0
32,84,96,0.0
33,87,98,0.0
34,93,102,0.0
35,96,103,0.0
36,101,105,0.0
36,104,106,0.0
36,105,105,0.0
35,107,104,0.0
36,111,106,0.0
38,119,112,0.0
37,122,112,0.0
37,122,110,0.0
37,129,113,0.0
51,-273,74,0.0
51,-267,76,0.0
53,-277,82,0.0
54,-274,85,0.0
56,-276,88,0.0
57,-277,92,0.0
57,-274,95,0.0
59,-277,99,0.0
60,-282,104,0.0
60,-275,104,0.0
61,-273,108,0.0
63,-278,112,0.0
63,-273,115,0.0
66,-279,121,0.0
65,-273,121,0.0
66,-274,125,0.0
66,-269,126,0.0
68,-271,132,0.0
69,-271,135,0.0
69,-266,136,0.0
69,-261,137,0.0
69,-255,137,0.0
71,-263,146,0.0
78,-280,159,0.0
80,-283,165,0.0
80,-279,167,0.0
77,-267,164,0.0
75,-254,160,0.0
73,-243,156,0.0
72,-233,154,0.0
70,-228,154,0.0
62,-200,138,0.0
58,-182,129,0.0
57,-175,127,0.0
50,-153,113,0.0
49,-146,110,0.0
7317,-21176,16453,0.0
7305,-20796,16533,0.0
7290,-20415,16605,0.0
7280,-20053,16687,0.0
7272,-19700,16770,0.0
7258,-19338,16838,0.0
7239,-18967,16893,0.0
7235,-18637,16977,0.0
7222,-18292,17042,0.0
7204,-17937,17092,0.0
7197,-17616,17169,0.0
7201,-17324,17268,0.0
7187,-16991,17322,0.0
7172,-16662,17375,0.0
7159,-16342,17431,0.0
7155,-16042,17502,0.0
7211,-15883,17727,0.0
7350,-15898,18152,0.0
7502,-15931,18612,0.0
7647,-15943,19057,0.0
7875,-16115,19713,0.0
8077,-16219,20305,0.0
13333,-26267,33660,1.0
13451,-25994,34102,1.0
13576,-25728,34561,1.0
0,0,0,0.0
0,0,0,0.0
0,0,0,0.0
13630,-23829,35254,1.0
13669,-23403,35488,1.0
570,-956,1488,0.0
0,0,0,0.0
0,0,0,0.0
0,0,0,0.0
0,0,0,0.0
0,0,0,0.0
0,0,0,0.0
0,0,0,0.0
0,0,0,0.0
0,0,0,0.0
0,0,0,0.0
0,0,0,0.0
0,0,0,0.0
0,0,0,0.0
0,0,0,0.0
0,0,0,0.0
0,0,0,0.0
0,0,0,0.0
0,0,0,0.0
691,-707,1918,0.0
0,0,0,0.0
0,0,0,0.0
0,0,0,0.0
0,0,0,0.0
0,0,0,0.0
0,0,0,0.0
0,0,0,0.0
0,0,0,0.0
0,0,0,0.0
715,-496,2041,0.0
731,-483,2092,0.0
640,-402,1834,0.0
0,0,0,0.0
745,-419,2149,0.0
692,-367,2002,0.0
0,0,0,0.0
512,-238,1490,0.0
755,-325,2198,0.0
0,0,0,0.0
789,-287,2309,0.0
674,-223,1978,0.0
0,0,0,0.0
722,-190,2126,0.0
772,-177,2280,0.0
0,0,0,0.0
7657,-1241,22700,0.0
7337,-941,21801,0.0
6938,-654,20664,0.0
6961,-420,20780,0.0
6957,-181,20814,0.0
6971,57,20903,0.0
6963,297,20926,0.0
6968,539,20986,0.0
6980,783,21068,0.0
6958,1023,21047,0.0
6987,1273,21182,0.0
6982,1518,21215,0.0
6989,1768,21280,0.0
6993,2018,21339,0.0
6982,2266,21350,0.0
6997,2524,21441,0.0
7002,2780,21505,0.0
2,1,9,0.0
6997,3292,21578,0.0
10,5,32,0.0
11,6,37,0.0
14,8,45,0.0
12,7,42,0.0
12,8,42,0.0
14,9,43,0.0
14,10,45,0.0
21,16,68,0.0
24,19,77,0.0
24,20,76,0.0
25,22,80,0.0
24,23,79,0.0
25,25,83,0.0
28,29,92,0.0
28,30,91,0.0
26,29,87,0.0
28,32,90,0.0
29,35,96,0.0
28,36,94,0.0
30,39,100,0.0
32,42,104,0.0
30,41,99,0.0
29,42,96,0.0
28,43,95,0.0
37,56,123,0.0
35,55,115,0.0
36,58,119,0.0
41,69,138,0.0
39,66,129,0.0
35,61,116,0.0
30,54,100,0.0
30,56,101,0.0
34,65,114,0.0
32,65,111,0.0
32,66,110,0.0
34,70,113,0.0
32,69,110,0.0
30,68,104,0.0
31,71,106,0.0
30,70,102,0.0
29,70,101,0.0
28,69,95,0.0
30,78,107,0.0
28,72,96,0.0
26,70,92,0.0
25,69,88,0.0
28,77,96,0.0
28,81,99,0.0
27,81,96,0.0
28,83,97,0.0
28,88,100,0.0
28,88,98,0.0
27,89,96,0.0
30,100,107,0.0
30,103,108,0.0
30,105,107,0.0
30,108,108,0.0
30,111,109,0.0
29,111,106,0.0
32,122,114,0.0
31,121,111,0.0
31,125,112,0.0
40,-271,77,0.0
40,-266,79,0.0
43,-270,83,0.0
43,-269,86,0.0
45,-275,91,0.0
45,-270,93,0.0
47,-273,97,0.0
47,-268,98,0.0
48,-270,102,0.0
49,-275,107,0.0
50,-272,110,0.0
50,-270,112,0.0
52,-273,117,0.0
52,-269,119,0.0
53,-266,121,0.0
53,-266,124,0.0
54,-263,127,0.0
54,-261,129,0.0
56,-264,133,0.0
56,-259,136,0.0
54,-246,132,0.0
57,-256,141,0.0
62,-272,153,0.0
61,-267,154,0.0
61,-259,154,0.0
62,-261,160,0.0
59,-243,152,0.0
59,-236,151,0.0
53,-211,139,0.0
52,-204,136,0.0
50,-193,133,0.0
49,-186,131,0.0
47,-173,124,0.0
43,-161,118,0.0
39,-140,106,0.0
37,-129,100,0.0
6144,-20923,16517,0.0
6139,-20548,16593,0.0
6128,-20163,16653,0.0
6131,-19828,16750,0.0
6125,-19469,16821,0.0
6118,-19111,16886,0.0
6111,-18759,16950,0.0
6101,-18405,17005,0.0
6110,-18110,17110,0.0
6100,-17767,17164,0.0
6101,-17457,17245,0.0
6091,-17119,17292,0.0
6090,-16812,17367,0.0
6068,-16452,17378,0.0
6077,-16179,17478,0.0
6076,-15884,17547,0.0
6191,-15892,17956,0.0
6363,-16031,18528,0.0
6448,-15945,18850,0.0
6613,-16045,19406,0.0
6774,-16127,19958,0.0
6954,-16242,20567,0.0
11458,-26244,34011,1.0
11506,-25841,34278,1.0
0,0,0,0.0
0,0,0,0.0
603,-1276,1818,0.0
0,0,0,0.0
0,0,0,0.0
0,0,0,0.0
0,0,0,0.0
656,-1249,2011,0.0
0,0,0,0.0
0,0,0,0.0
0,0,0,0.0
0,0,0,0.0
0,0,0,0.0
0,0,0,0.0
0,0,0,0.0
0,0,0,0.0
0,0,0,0.0
0,0,0,0.0
575,-839,1823,0.0
0,0,0,0.0
0,0,0,0.0
0,0,0,0.0
0,0,0,0.0
0,0,0,0.0
0,0,0,0.0
0,0,0,0.0
0,0,0,0.0
0,0,0,0.0
0,0,0,0.0
0,0,0,0.0
0,0,0,0.0
0,0,0,0.0
605,-556,1995,0.0
589,-519,1946,0.0
0,0,0,0.0
670,-540,2226,0.0
662,-509,2207,0.0
549,-402,1833,0.0
733,-509,2455,0.0
445,-292,1494,0.0
0,0,0,0.0
611,-355,2063,0.0
606,-329,2050,0.0
0,0,0,0.0
0,0,0,0.0
12060,-5152,41037,1.0
0,0,0,0.0
0,0,0,0.0
610,-191,2097,0.0
0,0,0,0.0
0,0,0,0.0
6721,-1319,23208,0.0
6272,-987,21713,0.0
6071,-719,21065,0.0
5953,-471,20710,0.0
5971,-238,20820,0.0
5971,-2,20871,0.0
5983,234,20962,0.0
5975,472,20984,0.0
5965,711,21001,0.0
5979,952,21098,0.0
5979,1195,21154,0.0
5979,1439,21206,0.0
5977,1683,21248,0.0
5973,1928,21282,0.0
5976,2177,21346,0.0
1,0,6,0.0
5981,2681,21471,0.0
5988,2937,21548,0.0
3,1,15,0.0
6,3,25,0.0
4,2,16,0.0
7,5,27,0.0
9,7,37,0.0
11,8,44,0.0
13,11,51,0.0
11,9,44,0.0
12,10,47,0.0
16,15,62,0.0
17,17,64,0.0
15,16,59,0.0
17,19,68,0.0
19,22,74,0.0
19,24,76,0.0
22,28,86,0.0
25,31,94,0.0
20,28,81,0.0
22,32,89,0.0
21,30,82,0.0
26,39,102,0.0
24,37,93,0.0
22,36,88,0.0
21,36,85,0.0
23,39,90,0.0
24,43,96,0.0
24,44,94,0.0
26,49,103,0.0
26,51,102,0.0
23,46,91,0.0
24,50,96,0.0
24,51,95,0.0
24,53,97,0.0
26,61,107,0.0
24,57,99,0.0
24,58,99,0.0
25,63,104,0.0
21,53,86,0.0
23,61,96,0.0
24,65,98,0.0
22,60,89,0.0
22,61,90,0.0
21,63,89,0.0
20,61,84,0.0
21,64,87,0.0
22,71,94,0.0
20,65,85,0.0
21,70,89,0.0
19,66,82,0.0
20,72,86,0.0
21,74,89,0.0
22,81,94,0.0
21,81,93,0.0
21,82,91,0.0
21,86,93,0.0
22,90,96,0.0
22,94,97,0.0
22,96,99,0.0
23,103,104,0.0
22,103,101,0.0
23,112,107,0.0
22,110,102,0.0
23,118,108,0.0
23,-264,78,0.0
24,-262,81,0.0
25,-270,87,0.0
25,-260,86,0.0
26,-264,91,0.0
27,-266,95,0.0
27,-258,95,0.0
29,-271,103,0.0
29,-261,102,0.0
31,-271,110,0.0
31,-267,112,0.0
31,-262,113,0.0
32,-262,116,0.0
32,-263,120,0.0
33,-261,123,0.0
34,-263,128,0.0
34,-260,129,0.0
35,-255,131,0.0
35,-248,130,0.0
36,-252,136,0.0
36,-249,138,0.0
39,-264,150,0.0
42,-273,158,0.0
39,-250,149,0.0
40,-247,151,0.0
38,-232,145,0.0
37,-221,142,0.0
37,-218,143,0.0
34,-198,133,0.0
34,-189,130,0.0
32,-173,122,0.0
31,-170,122,0.0
30,-162,119,0.0
28,-147,111,0.0
26,-132,102,0.0
21,-103,81,0.0
24,-118,95,0.0
22,-102,84,0.0
20,-93,78,0.0
4189,-19477,16821,0.0
4198,-19146,16904,0.0
4210,-18831,16997,0.0
4206,-18450,17025,0.0
4220,-18158,17128,0.0
4227,-17835,17198,0.0
4227,-17492,17242,0.0
4234,-17184,17315,0.0
4237,-16864,17371,0.0
4225,-16490,17364,0.0
4232,-16200,17439,0.0
4235,-15897,17496,0.0
4324,-15911,17904,0.0
4411,-15911,18307,0.0
4491,-15885,18689,0.0
4611,-15983,19230,0.0
4735,-16091,19800,0.0
4871,-16216,20411,0.0
8039,-26228,33772,1.0
8131,-25988,34237,1.0
0,0,0,0.0
0,0,0,0.0
0,0,0,0.0
462,-1357,1963,0.0
0,0,0,0.0
0,0,0,0.0
0,0,0,0.0
0,0,0,0.0
979,-2577,4207,0.0
0,0,0,0.0
8668,-21809,37440,1.0
8672,-21313,37540,1.0
0,0,0,0.0
0,0,0,0.0
0,0,0,0.0
0,0,0,0.0
0,0,0,0.0
489,-1035,2145,0.0
8710,-17975,38320,1.0
0,0,0,0.0
0,0,0,0.0
0,0,0,0.0
0,0,0,0.0
0,0,0,0.0
500,-871,2234,0.0
56,-94,251,0.0
0,0,0,0.0
286,-453,1288,0.0
0,0,0,0.0
0,0,0,0.0
0,0,0,0.0
0,0,0,0.0
0,0,0,0.0
0,0,0,0.0
0,0,0,0.0
0,0,0,0.0
453,-504,2082,0.0
0,0,0,0.0
0,0,0,0.0
8767,-8424,40564,1.0
364,-331,1687,0.0
0,0,0,0.0
0,0,0,0.0
432,-326,2017,0.0
0,0,0,0.0
0,0,0,0.0
8733,-5244,41145,1.0
0,0,0,0.0
472,-234,2238,0.0
484,-215,2299,0.0
0,0,0,0.0
0,0,0,0.0
4918,-1414,23552,0.0
4544,-1066,21824,0.0
4445,-808,21409,0.0
4303,-552,20786,0.0
4307,-323,20865,0.0
4305,-90,20916,0.0
4307,141,20985,0.0
4299,375,21009,0.0
4296,610,21057,0.0
4300,847,21141,0.0
4296,1086,21189,0.0
4279,1320,21168,0.0
4288,1565,21283,0.0
4284,1806,21328,0.0
4282,2050,21389,0.0
4279,2296,21442,0.0
4272,2541,21481,0.0
4269,2789,21534,0.0
3,2,19,0.0
1,0,7,0.0
3,2,15,0.0
3,1,14,0.0
7,6,35,0.0
7,7,37,0.0
7,6,34,0.0
9,10,47,0.0
9,11,47,0.0
7,8,38,0.0
13,17,65,0.0
10,14,52,0.0
14,19,70,0.0
13,20,70,0.0
13,21,73,0.0
13,22,73,0.0
15,25,78,0.0
18,32,95,0.0
14,26,75,0.0
16,30,83,0.0
15,30,79,0.0
15,31,80,0.0
15,32,82,0.0
15,35,87,0.0
15,36,84,0.0
16,40,92,0.0
17,42,94,0.0
15,41,88,0.0
16,44,92,0.0
16,45,93,0.0
17,49,98,0.0
21,63,121,0.0
20,65,121,0.0
15,50,91,0.0
17,57,102,0.0
16,54,94,0.0
16,56,93,0.0
15,54,90,0.0
14,54,86,0.0
16,60,94,0.0
14,59,89,0.0
13,56,83,0.0
14,61,89,0.0
17,74,105,0.0
15,66,92,0.0
14,67,90,0.0
13,63,84,0.0
13,67,87,0.0
13,68,87,0.0
14,73,90,0.0
12,66,80,0.0
13,73,87,0.0
13,77,89,0.0
12,75,85,0.0
13,82,90,0.0
13,85,93,0.0
13,89,95,0.0
16,111,116,0.0
17,117,119,0.0
13,99,98,0.0
13,98,96,0.0
12,98,93,0.0
12,100,95,0.0
11,-267,82,0.0
12,-267,85,0.0
13,-269,89,0.0
14,-268,91,0.0
14,-263,93,0.0
14,-261,96,0.0
15,-272,103,0.0
16,-266,104,0.0
16,-265,106,0.0
17,-264,109,0.0
17,-266,114,0.0
18,-259,114,0.0
18,-259,117,0.0
19,-266,124,0.0
19,-256,123,0.0
20,-261,129,0.0
21,-257,130,0.0
21,-250,130,0.0
23,-267,143,0.0
26,-292,160,0.0
27,-291,163,0.0
26,-272,157,0.0
26,-267,157,0.0
26,-257,156,0.0
25,-242,150,0.0
24,-226,143,0.0
23,-209,136,0.0
22,-201,134,0.0
20,-175,120,0.0
19,-167,116,0.0
21,-173,124,0.0
18,-151,110,0.0
18,-145,108,0.0
17,-130,100,0.0
14,-110,87,0.0
15,-110,88,0.0
12,-91,74,0.0
2824,-20028,16760,0.0
12,-88,75,0.0
2855,-19331,16906,0.0
2869,-18991,16977,0.0
2884,-18671,17059,0.0
2896,-18331,17118,0.0
2905,-17984,17166,0.0
2917,-17661,17230,0.0
2929,-17344,17294,0.0
2941,-17034,17359,0.0
2956,-16748,17444,0.0
2966,-16442,17505,0.0
2973,-16128,17552,0.0
2989,-15865,17648,0.0
3063,-15903,18084,0.0
3156,-16034,18640,0.0
3201,-15908,18909,0.0
3295,-16023,19473,0.0
3396,-16151,20074,0.0
3495,-16256,20663,0.0
5739,-26115,33952,1.0
5810,-25861,34395,1.0
5876,-25577,34804,1.0
0,0,0,0.0
0,0,0,0.0
0,0,0,0.0
0,0,0,0.0
0,0,0,0.0
186,-707,1108,0.0
0,0,0,0.0
6244,-22633,37246,1.0
0,0,0,0.0
365,-1261,2183,0.0
6285,-21194,37616,1.0
6287,-20686,37677,1.0
0,0,0,0.0
6314,-19759,37941,1.0
6328,-19301,38078,1.0
6318,-18773,38068,1.0
6316,-18276,38111,1.0
6349,-17884,38369,1.0
6355,-17416,38465,1.0
300,-799,1819,0.0
294,-762,1787,0.0
275,-691,1670,0.0
350,-853,2131,0.0
6389,-15136,39007,1.0
6383,-14656,39041,1.0
6401,-14234,39222,1.0
309,-664,1897,0.0
327,-679,2011,0.0
6388,-12835,39379,1.0
0,0,0,0.0
337,-629,2085,0.0
0,0,0,0.0
0,0,0,0.0
0,0,0,0.0
0,0,0,0.0
0,0,0,0.0
0,0,0,0.0
345,-478,2174,0.0
6409,-8404,40425,1.0
299,-372,1889,0.0
0,0,0,0.0
235,-259,1490,0.0
333,-344,2122,0.0
326,-315,2083,0.0
0,0,0,0.0
0,0,0,0.0
6392,-4838,41222,1.0
0,0,0,0.0
342,-210,2217,0.0
0,0,0,0.0
334,-159,2184,0.0
3626,-1469,23750,0.0
3390,-1132,22283,0.0
3298,-866,21750,0.0
3145,-599,20814,0.0
3118,-368,20710,0.0
3139,-141,20921,0.0
3138,88,20996,0.0
3133,319,21037,0.0
3124,551,21054,0.0
3119,785,21110,0.0
3116,1020,21168,0.0
3113,1258,21241,0.0
3107,1495,21285,0.0
3101,1734,21333,0.0
3096,1976,21396,0.0
3092,2219,21458,0.0
3081,2460,21478,0.0
2,2,17,0.0
2,1,18,0.0
3,4,27,0.0
5,5,37,0.0
5,6,37,0.0
6,7,41,0.0
7,9,48,0.0
7,9,49,0.0
8,11,57,0.0
8,13,59,0.0
10,17,70,0.0
11,19,78,0.0
11,21,80,0.0
10,21,76,0.0
14,29,104,0.0
22,49,168,0.0
12,29,94,0.0
11,29,90,0.0
13,32,95,0.0
13,34,101,0.0
13,38,107,0.0
13,37,101,0.0
13,40,104,0.0
18,58,147,0.0
17,56,139,0.0
13,44,107,0.0
13,48,110,0.0
16,58,130,0.0
15,56,121,0.0
14,56,118,0.0
13,53,109,0.0
13,56,113,0.0
14,62,121,0.0
12,56,108,0.0
12,61,112,0.0
12,63,113,0.0
11,59,104,0.0
12,62,106,0.0
12,69,115,0.0
10,59,97,0.0
12,68,109,0.0
11,71,111,0.0
10,66,101,0.0
10,70,103,0.0
11,74,107,0.0
10,71,102,0.0
10,76,105,0.0
9,71,96,0.0
10,79,104,0.0
9,77,99,0.0
9,81,102,0.0
9,85,105,0.0
8,80,96,0.0
9,86,102,0.0
8,83,97,0.0
8,81,93,0.0
7,92,101,0.0
9,99,108,0.0
7,92,97,0.0
8,102,106,0.0
7,102,104,0.0
7,105,105,0.0
7,109,107,0.0
7,108,103,0.0
0,-285,89,0.0
0,-278,90,0.0
0,-274,92,0.0
1,-266,93,0.0
1,-269,97,0.0
1,-269,100,0.0
2,-262,101,0.0
3,-260,103,0.0
3,-262,107,0.0
3,-265,112,0.0
4,-251,109,0.0
4,-252,113,0.0
5,-257,118,0.0
6,-259,123,0.0
6,-250,122,0.0
6,-257,128,0.0
7,-255,131,0.0
7,-257,136,0.0
8,-264,142,0.0
9,-266,147,0.0
10,-283,161,0.0
10,-278,163,0.0
11,-271,162,0.0
11,-252,154,0.0
11,-249,156,0.0
11,-234,150,0.0
12,-234,154,0.0
11,-210,142,0.0
11,-197,136,0.0
11,-195,138,0.0
11,-180,130,0.0
10,-171,127,0.0
10,-156,118,0.0
10,-144,111,0.0
8,-121,95,0.0
8,-114,92,0.0
7,-96,79,0.0
8,-103,88,0.0
6,-88,77,0.0
1534,-19170,16934,0.0
1555,-18840,17010,0.0
1577,-18530,17098,0.0
1596,-18181,17144,0.0
1614,-17841,17193,0.0
1634,-17546,17279,0.0
1652,-17231,17341,0.0
1670,-16926,17408,0.0
1687,-16617,17466,0.0
1703,-16316,17525,0.0
1720,-16031,17599,0.0
1758,-15929,17873,0.0
1810,-15972,18318,0.0
1855,-15936,18682,0.0
1907,-15944,19108,0.0
1970,-16047,19663,0.0
2039,-16171,20259,0.0
2103,-16249,20817,0.0
3457,-26024,34097,1.0
0,0,0,0.0
283,-2024,2775,0.0
0,0,0,0.0
0,0,0,0.0
0,0,0,0.0
0,0,0,0.0
0,0,0,0.0
154,-939,1482,0.0
0,0,0,0.0
0,0,0,0.0
0,0,0,0.0
0,0,0,0.0
230,-1233,2204,0.0
0,0,0,0.0
0,0,0,0.0
0,0,0,0.0
0,0,0,0.0
0,0,0,0.0
0,0,0,0.0
188,-835,1802,0.0
4034,-17342,38492,1.0
170,-711,1627,0.0
4051,-16422,38679,1.0
0,0,0,0.0
0,0,0,0.0
0,0,0,0.0
0,0,0,0.0
4081,-14139,39104,1.0
4093,-13713,39261,1.0
4096,-13259,39334,1.0
4104,-12828,39470,1.0
4107,-12379,39555,1.0
4108,-11928,39624,1.0
4120,-11510,39806,1.0
0,0,0,0.0
0,0,0,0.0
4122,-10177,40065,1.0
4129,-9751,40223,1.0
4126,-9302,40288,1.0
4116,-8842,40291,1.0
0,0,0,0.0
208,-401,2039,0.0
0,0,0,0.0
0,0,0,0.0
0,0,0,0.0
0,0,0,0.0
0,0,0,0.0
0,0,0,0.0
0,0,0,0.0
0,0,0,0.0
0,0,0,0.0
224,-195,2285,0.0
3928,-2984,40156,1.0
2329,-1515,23918,0.0
2182,-1179,22511,0.0
2103,-904,21796,0.0
2002,-637,20842,0.0
14,-3,149,0.0
1992,-184,20946,0.0
1987,44,21011,0.0
1979,273,21043,0.0
1972,504,21075,0.0
12,3,125,0.0
10,4,116,0.0
7,4,77,0.0
1947,1441,21326,0.0
1938,1678,21366,0.0
1927,1914,21390,0.0
1918,2154,21439,0.0
1912,2398,21512,0.0
1901,2640,21555,0.0
1894,2890,21638,0.0
2,3,25,0.0
1,1,11,0.0
5,8,53,0.0
3,7,43,0.0
3,6,38,0.0
3,6,33,0.0
4,10,50,0.0
4,12,55,0.0
4,13,56,0.0
6,18,76,0.0
6,17,70,0.0
6,20,77,0.0
7,26,93,0.0
6,23,79,0.0
7,26,87,0.0
7,29,93,0.0
7,31,97,0.0
7,34,99,0.0
7,33,95,0.0
7,35,95,0.0
7,38,100,0.0
7,41,107,0.0
7,42,107,0.0
7,45,108,0.0
7,47,111,0.0
7,49,113,0.0
7,51,112,0.0
7,54,117,0.0
7,54,114,0.0
6,57,118,0.0
7,59,117,0.0
6,58,111,0.0
6,63,117,0.0
6,62,114,0.0
7,70,125,0.0
6,66,114,0.0
5,65,111,0.0
5,66,109,0.0
5,73,117,0.0
4,66,103,0.0
4,71,108,0.0
4,73,109,0.0
4,80,118,0.0
4,73,106,0.0
3,75,105,0.0
4,80,109,0.0
4,81,109,0.0
3,81,106,0.0
3,82,106,0.0
2,83,104,0.0
3,87,106,0.0
3,85,101,0.0
2,86,101,0.0
2,83,95,0.0
2,94,105,0.0
1,98,107,0.0
1,91,98,0.0
1,102,107,0.0
0,96,99,0.0
1,101,102,0.0
0,109,107,0.0
0,111,107,0.0
-14,-288,91,0.0
-12,-278,92,0.0
-13,-278,94,0.0
-12,-271,96,0.0
-12,-279,102,0.0
-11,-278,106,0.0
-10,-262,102,0.0
-9,-259,104,0.0
-9,-260,108,0.0
-8,-256,110,0.0
-9,-259,114,0.0
-8,-263,119,0.0
-7,-247,115,0.0
-7,-250,120,0.0
-7,-256,126,0.0
-6,-260,131,0.0
-6,-253,131,0.0
-6,-269,143,0.0
-6,-280,153,0.0
-6,-285,160,0.0
-5,-279,160,0.0
-4,-262,155,0.0
-4,-266,160,0.0
-3,-236,147,0.0
-2,-225,142,0.0
-2,-223,145,0.0
-1,-214,142,0.0
-1,-193,131,0.0
0,-190,132,0.0
0,-164,116,0.0
0,-158,116,0.0
0,-138,103,0.0
0,-141,108,0.0
0,-123,96,0.0
0,-121,96,0.0
1,-115,94,0.0
138,-20102,16762,0.0
170,-19791,16867,0.0
199,-19402,16900,0.0
229,-19088,16993,0.0
258,-18753,17060,0.0
285,-18388,17094,0.0
312,-18080,17175,0.0
338,-17792,17271,0.0
362,-17430,17289,0.0
388,-17153,17384,0.0
411,-16841,17442,0.0
430,-16392,17347,0.0
455,-16220,17540,0.0
477,-15928,17603,0.0
508,-15950,18016,0.0
536,-15891,18344,0.0
568,-15895,18754,0.0
600,-15935,19218,0.0
637,-16079,19824,0.0
673,-16164,20375,0.0
1144,-26202,33773,1.0
1186,-25940,34192,1.0
1232,-25753,34718,1.0
1269,-25416,35049,1.0
0,0,0,0.0
103,-1902,2747,0.0
0,0,0,0.0
0,0,0,0.0
77,-1264,1959,0.0
0,0,0,0.0
0,0,0,0.0
81,-1190,1983,0.0
79,-1114,1902,0.0
68,-921,1611,0.0
0,0,0,0.0
0,0,0,0.0
0,0,0,0.0
0,0,0,0.0
0,0,0,0.0
0,0,0,0.0
0,0,0,0.0
82,-855,1851,0.0
0,0,0,0.0
0,0,0,0.0
0,0,0,0.0
0,0,0,0.0
0,0,0,0.0
0,0,0,0.0
0,0,0,0.0
0,0,0,0.0
0,0,0,0.0
0,0,0,0.0
0,0,0,0.0
108,-728,2334,0.0
0,0,0,0.0
107,-661,2293,0.0
0,0,0,0.0
0,0,0,0.0
1857,-10178,40102,1.0
1855,-9721,40119,1.0
1858,-9299,40280,1.0
1856,-8852,40325,1.0
1857,-8425,40468,1.0
102,-438,2225,0.0
78,-317,1709,0.0
1825,-7013,40190,1.0
0,0,0,0.0
0,0,0,0.0
0,0,0,0.0
0,0,0,0.0
109,-295,2474,0.0
95,-234,2161,0.0
0,0,0,0.0
0,0,0,0.0
1706,-2990,39650,1.0
0,0,0,0.0
960,-1218,22694,0.0
917,-936,21862,0.0
874,-672,21030,0.0
860,-441,20908,0.0
851,-216,20925,0.0
844,10,20984,0.0
837,237,21044,0.0
828,466,21087,0.0
819,696,21127,0.0
812,929,21218,0.0
801,1161,21245,0.0
791,1394,21291,0.0
781,1630,21337,0.0
769,1865,21374,0.0
758,2105,21440,0.0
748,2347,21513,0.0
735,2586,21546,0.0
723,2833,21617,0.0
709,3078,21665,0.0
1,3,25,0.0
1,2,17,0.0
1,4,29,0.0
1,8,46,0.0
1,6,31,0.0
1,10,52,0.0
1,9,42,0.0
1,12,55,0.0
1,17,70,0.0
2,19,79,0.0
1,18,70,0.0
2,22,80,0.0
1,21,74,0.0
1,24,82,0.0
2,27,89,0.0
2,34,104,0.0
2,33,99,0.0
2,34,98,0.0
2,35,98,0.0
2,40,108,0.0
2,38,99,0.0
2,42,107,0.0
1,45,110,0.0
1,47,110,0.0
1,52,120,0.0
1,54,120,0.0
0,56,121,0.0
0,64,135,0.0
1,64,132,0.0
