//X,Y,Z,Classification
-43.0,-283.0,86.0,0.0
-42.0,-285.0,83.0,0.0
-42.0,-290.0,81.0,0.0
-3346.0,16560.0,15367.0,0.0
-3420.0,16491.0,15634.0,0.0
-3497.0,16441.0,15923.0,0.0
-3574.0,16378.0,16206.0,0.0
-3651.0,16305.0,16484.0,0.0
-3722.0,16207.0,16741.0,0.0
-3808.0,16166.0,17061.0,0.0
-3885.0,16077.0,17338.0,0.0
-3886.0,15684.0,17285.0,0.0
-3939.0,15499.0,17455.0,0.0
-3995.0,15324.0,17638.0,0.0
-4232.0,15827.0,18621.0,0.0
-4323.0,15761.0,18955.0,0.0
-4415.0,15690.0,19290.0,0.0
-4472.0,15491.0,19474.0,0.0
-4577.0,15453.0,19865.0,0.0
-4512.0,14847.0,19520.0,0.0
-4664.0,14955.0,20113.0,0.0
-4669.0,14592.0,20078.0,0.0
-4993.0,15198.0,21399.0,0.0
-5103.0,15133.0,21808.0,0.0
-5206.0,15035.0,22182.0,0.0
-5321.0,14963.0,22603.0,0.0
-5438.0,14887.0,23032.0,0.0
-5547.0,14782.0,23428.0,0.0
-5666.0,14690.0,23859.0,0.0
-5766.0,14544.0,24213.0,0.0
-5895.0,14464.0,24691.0,0.0
-5942.0,14173.0,24816.0,0.0
-5932.0,13754.0,24710.0,0.0
-6294.0,14178.0,26146.0,0.0
-6428.0,14064.0,26632.0,0.0
-6568.0,13950.0,27139.0,0.0
-6710.0,13831.0,27653.0,0.0
-8020.0,16035.0,32966.0,0.0
-6960.0,13492.0,28537.0,0.0
-7420.0,13938.0,30345.0,0.0
-7466.0,13584.0,30460.0,0.0
-7625.0,13429.0,31033.0,0.0
-7792.0,13275.0,31634.0,0.0
-7877.0,12970.0,31900.0,0.0
-7987.0,12704.0,32267.0,0.0
-8014.0,12305.0,32302.0,0.0
-5771.0,8545.0,23204.0,0.0
-5909.0,8429.0,23701.0,0.0
-5953.0,8175.0,23825.0,0.0
-5943.0,7848.0,23728.0,0.0
-5935.0,7527.0,23641.0,0.0
-5933.0,7219.0,23578.0,0.0
-5919.0,6899.0,23468.0,0.0
-5913.0,6593.0,23387.0,0.0
-5901.0,6285.0,23288.0,0.0
-5896.0,5987.0,23216.0,0.0
-5885.0,5687.0,23122.0,0.0
-5878.0,5395.0,23040.0,0.0
-5866.0,5101.0,22941.0,0.0
-5863.0,4820.0,22882.0,0.0
-5854.0,4534.0,22794.0,0.0
-5849.0,4257.0,22722.0,0.0
-5845.0,3982.0,22659.0,0.0
-5834.0,3704.0,22565.0,0.0
-5826.0,3433.0,22484.0,0.0
-5819.0,3164.0,22409.0,0.0
-5805.0,2894.0,22302.0,0.0
-5786.0,2625.0,22183.0,0.0
-5786.0,2368.0,22133.0,0.0
-5791.0,2113.0,22103.0,0.0
-5787.0,1858.0,22041.0,0.0
-5774.0,1601.0,21943.0,0.0
-5757.0,1345.0,21830.0,0.0
-5630.0,1072.0,21302.0,0.0
-5739.0,846.0,21666.0,0.0
-5517.0,577.0,20783.0,0.0
-5523.0,343.0,20761.0,0.0
-5518.0,108.0,20697.0,0.0
-5521.0,-125.0,20662.0,0.0
-5520.0,-357.0,20614.0,0.0
-5709.0,-608.0,21272.0,0.0
-5716.0,-848.0,21246.0,0.0
-5698.0,-1082.0,21135.0,0.0
-5696.0,-1318.0,21082.0,0.0
-5622.0,-1533.0,20759.0,0.0
-5674.0,-1782.0,20906.0,0.0
-5664.0,-2012.0,20822.0,0.0
-5662.0,-2243.0,20765.0,0.0
-5630.0,-2461.0,20604.0,0.0
-5651.0,-2702.0,20634.0,0.0
-9.0,-5.0,39.0,0.0
-9.0,-6.0,36.0,0.0
-5641.0,-3388.0,20457.0,0.0
-8.0,-6.0,34.0,0.0
0.0,0.0,1.0,0.0
-5.0,-4.0,22.0,0.0
-5.0,-4.0,19.0,0.0
-5.0,-5.0,20.0,0.0
-6.0,-5.0,23.0,0.0
-6.0,-6.0,26.0,0.0
-9.0,-9.0,36.0,0.0
-13.0,-12.0,48.0,0.0
-8.0,-9.0,33.0,0.0
-6.0,-7.0,24.0,0.0
-6.0,-7.0,26.0,0.0
-12.0,-13.0,44.0,0.0
-5.0,-6.0,22.0,0.0
-8.0,-11.0,33.0,0.0
-12.0,-15.0,45.0,0.0
-13.0,-16.0,46.0,0.0
-6.0,-9.0,26.0,0.0
-11.0,-15.0,40.0,0.0
-11.0,-16.0,39.0,0.0
-12.0,-18.0,44.0,0.0
-11.0,-17.0,39.0,0.0
-12.0,-19.0,43.0,0.0
-13.0,-20.0,45.0,0.0
-15.0,-26.0,56.0,0.0
-17.0,-29.0,60.0,0.0
-20.0,-35.0,70.0,0.0
-16.0,-30.0,58.0,0.0
-18.0,-34.0,65.0,0.0
-17.0,-32.0,60.0,0.0
-20.0,-40.0,72.0,0.0
-17.0,-34.0,60.0,0.0
-22.0,-44.0,75.0,0.0
-23.0,-46.0,76.0,0.0
-19.0,-42.0,69.0,0.0
-20.0,-44.0,69.0,0.0
-18.0,-40.0,62.0,0.0
-20.0,-46.0,70.0,0.0
-22.0,-52.0,75.0,0.0
-23.0,-54.0,77.0,0.0
-26.0,-63.0,88.0,0.0
-25.0,-61.0,82.0,0.0
-26.0,-64.0,85.0,0.0
-25.0,-64.0,83.0,0.0
-25.0,-65.0,83.0,0.0
-27.0,-71.0,88.0,0.0
-29.0,-80.0,96.0,0.0
-28.0,-77.0,91.0,0.0
-24.0,-67.0,78.0,0.0
-28.0,-80.0,91.0,0.0
-32.0,-92.0,102.0,0.0
-26.0,-78.0,85.0,0.0
-33.0,-101.0,106.0,0.0
-33.0,-100.0,103.0,0.0
-31.0,-98.0,98.0,0.0
-34.0,-107.0,105.0,0.0
-33.0,-106.0,102.0,0.0
-34.0,-111.0,105.0,0.0
-33.0,-111.0,102.0,0.0
-32.0,-110.0,99.0,0.0
-35.0,-122.0,107.0,0.0
-34.0,-119.0,103.0,0.0
-32.0,-115.0,98.0,0.0
-35.0,-128.0,106.0,0.0
-33.0,-125.0,100.0,0.0
-33.0,-127.0,100.0,0.0
-34.0,-133.0,103.0,0.0
-33.0,-129.0,96.0,0.0
-33.0,-133.0,98.0,0.0
-35.0,-146.0,104.0,0.0
-34.0,-141.0,98.0,0.0
-33.0,-142.0,96.0,0.0
-33.0,-144.0,96.0,0.0
-37.0,-158.0,103.0,0.0
-33.0,-148.0,95.0,0.0
-34.0,-156.0,97.0,0.0
-34.0,-159.0,97.0,0.0
-36.0,-166.0,98.0,0.0
-36.0,-170.0,98.0,0.0
-33.0,-161.0,91.0,0.0
-36.0,-173.0,95.0,0.0
-34.0,-170.0,91.0,0.0
-35.0,-174.0,91.0,0.0
-34.0,-174.0,88.0,0.0
-34.0,-179.0,88.0,0.0
-32.0,-174.0,83.0,0.0
-31.0,-173.0,81.0,0.0
-30.0,-167.0,76.0,0.0
-30.0,-176.0,78.0,0.0
-29.0,-170.0,72.0,0.0
-29.0,-174.0,72.0,0.0
-29.0,-181.0,72.0,0.0
-28.0,-178.0,69.0,0.0
-35.0,-222.0,84.0,0.0
-42.0,-269.0,98.0,0.0
-42.0,-275.0,97.0,0.0
-42.0,-278.0,95.0,0.0
-41.0,-280.0,92.0,0.0
-41.0,-284.0,90.0,0.0
-40.0,-287.0,88.0,0.0
-39.0,-283.0,83.0,0.0
-38.0,-285.0,80.0,0.0
-3145.0,16537.0,15406.0,0.0
-3214.0,16460.0,15666.0,0.0
-3283.0,16376.0,15923.0,0.0
-3359.0,16320.0,16212.0,0.0
-3438.0,16274.0,16518.0,0.0
-3509.0,16183.0,16781.0,0.0
-3569.0,16040.0,16995.0,0.0
-3573.0,15644.0,16937.0,0.0
-3604.0,15375.0,17010.0,0.0
-3722.0,15473.0,17494.0,0.0
-3748.0,15180.0,17540.0,0.0
-3992.0,15756.0,18608.0,0.0
-4092.0,15739.0,19003.0,0.0
-4180.0,15664.0,19333.0,0.0
-4251.0,15518.0,19584.0,0.0
-4358.0,15503.0,20008.0,0.0
-4399.0,15245.0,20120.0,0.0
-4410.0,14886.0,20098.0,0.0
-4428.0,14555.0,20106.0,0.0
-4737.0,15166.0,21438.0,0.0
-4842.0,15097.0,21841.0,0.0
-4948.0,15017.0,22239.0,0.0
-5056.0,14935.0,22649.0,0.0
-5172.0,14869.0,23094.0,0.0
-5273.0,14751.0,23471.0,0.0
-5384.0,14650.0,23888.0,0.0
-5494.0,14539.0,24301.0,0.0
-5610.0,14432.0,24734.0,0.0
-5536.0,13842.0,24333.0,0.0
-5661.0,13755.0,24809.0,0.0
-5713.0,13483.0,24964.0,0.0
-6128.0,14045.0,26702.0,0.0
-6266.0,13937.0,27222.0,0.0
-6399.0,13810.0,27724.0,0.0
-6539.0,13685.0,28249.0,0.0
-6657.0,13504.0,28679.0,0.0
-6756.0,13276.0,29024.0,0.0
-7094.0,13500.0,30397.0,0.0
-7267.0,13380.0,31047.0,0.0
-7430.0,13230.0,31661.0,0.0
-7528.0,12953.0,31993.0,0.0
-7612.0,12650.0,32266.0,0.0
-5388.0,8640.0,22779.0,0.0
-5494.0,8495.0,23169.0,0.0
-5649.0,8412.0,23760.0,0.0
-5670.0,8127.0,23790.0,0.0
-5667.0,7807.0,23714.0,0.0
-5662.0,7493.0,23640.0,0.0
-5653.0,7173.0,23539.0,0.0
-5643.0,6858.0,23440.0,0.0
-5634.0,6549.0,23346.0,0.0
-5626.0,6245.0,23258.0,0.0
-5621.0,5948.0,23181.0,0.0
-5613.0,5652.0,23093.0,0.0
-5610.0,5362.0,23022.0,0.0
-5604.0,5074.0,22942.0,0.0
-5600.0,4791.0,22872.0,0.0
-5591.0,4507.0,22781.0,0.0
-5583.0,4227.0,22702.0,0.0
-5577.0,3952.0,22624.0,0.0
-5575.0,3681.0,22559.0,0.0
-5568.0,3410.0,22477.0,0.0
-5562.0,3142.0,22400.0,0.0
-5536.0,2867.0,22247.0,0.0
-5536.0,2608.0,22199.0,0.0
-5530.0,2347.0,22122.0,0.0
-5533.0,2092.0,22082.0,0.0
-5523.0,1835.0,21994.0,0.0
-5521.0,1583.0,21937.0,0.0
-5514.0,1331.0,21858.0,0.0
-5354.0,1051.0,21178.0,0.0
-5482.0,830.0,21636.0,0.0
-5281.0,564.0,20792.0,0.0
-5281.0,329.0,20746.0,0.0
-5275.0,96.0,20679.0,0.0
-5276.0,-135.0,20633.0,0.0
-5281.0,-367.0,20608.0,0.0
-5459.0,-618.0,21253.0,0.0
-5466.0,-856.0,21234.0,0.0
-5451.0,-1091.0,21130.0,0.0
-5451.0,-1327.0,21079.0,0.0
-5394.0,-1545.0,20811.0,0.0
-5441.0,-1792.0,20946.0,0.0
-5435.0,-2023.0,20875.0,0.0
-5414.0,-2248.0,20751.0,0.0
-5426.0,-2484.0,20748.0,0.0
-6.0,-3.0,25.0,0.0
-5420.0,-2943.0,20630.0,0.0
-1.0,-1.0,7.0,0.0
-6.0,-4.0,27.0,0.0
-2.0,-2.0,8.0,0.0
-2.0,-2.0,10.0,0.0
-2.0,-2.0,10.0,0.0
-4.0,-4.0,16.0,0.0
-8.0,-8.0,33.0,0.0
-6.0,-6.0,26.0,0.0
-5.0,-4.0,19.0,0.0
-7.0,-7.0,31.0,0.0
-4.0,-4.0,18.0,0.0
-7.0,-7.0,29.0,0.0
-3.0,-3.0,14.0,0.0
-2.0,-2.0,11.0,0.0
-8.0,-10.0,33.0,0.0
-10.0,-13.0,40.0,0.0
-6.0,-8.0,23.0,0.0
-8.0,-11.0,33.0,0.0
-6.0,-8.0,23.0,0.0
-9.0,-12.0,34.0,0.0
-7.0,-10.0,27.0,0.0
-10.0,-16.0,41.0,0.0
-10.0,-15.0,38.0,0.0
-11.0,-18.0,43.0,0.0
-11.0,-19.0,44.0,0.0
-12.0,-20.0,45.0,0.0
-11.0,-20.0,44.0,0.0
-12.0,-21.0,45.0,0.0
-10.0,-19.0,40.0,0.0
-14.0,-28.0,54.0,0.0
-15.0,-29.0,56.0,0.0
-12.0,-25.0,47.0,0.0
-16.0,-33.0,59.0,0.0
-18.0,-38.0,67.0,0.0
-16.0,-36.0,61.0,0.0
-18.0,-39.0,66.0,0.0
-16.0,-38.0,61.0,0.0
-18.0,-43.0,68.0,0.0
-14.0,-34.0,53.0,0.0
-20.0,-46.0,70.0,0.0
-18.0,-44.0,65.0,0.0
-20.0,-49.0,70.0,0.0
-22.0,-56.0,78.0,0.0
-23.0,-58.0,80.0,0.0
-24.0,-63.0,84.0,0.0
-23.0,-62.0,81.0,0.0
-25.0,-68.0,87.0,0.0
-27.0,-73.0,92.0,0.0
-25.0,-71.0,86.0,0.0
-24.0,-70.0,84.0,0.0
-27.0,-80.0,92.0,0.0
-26.0,-78.0,88.0,0.0
-25.0,-77.0,84.0,0.0
-26.0,-82.0,89.0,0.0
-28.0,-88.0,94.0,0.0
-25.0,-79.0,82.0,0.0
-28.0,-91.0,92.0,0.0
-28.0,-96.0,94.0,0.0
-29.0,-100.0,97.0,0.0
-30.0,-107.0,101.0,0.0
-29.0,-102.0,95.0,0.0
-28.0,-101.0,91.0,0.0
-28.0,-106.0,93.0,0.0
-30.0,-112.0,96.0,0.0
-30.0,-115.0,97.0,0.0
-28.0,-109.0,90.0,0.0
-31.0,-123.0,99.0,0.0
-30.0,-119.0,94.0,0.0
-30.0,-123.0,96.0,0.0
-29.0,-119.0,90.0,0.0
-31.0,-131.0,97.0,0.0
-30.0,-130.0,94.0,0.0
-32.0,-140.0,99.0,0.0
-31.0,-139.0,96.0,0.0
-31.0,-142.0,96.0,0.0
-30.0,-140.0,92.0,0.0
-31.0,-147.0,94.0,0.0
-32.0,-151.0,94.0,0.0
-30.0,-148.0,90.0,0.0
-32.0,-155.0,92.0,0.0
-32.0,-159.0,92.0,0.0
-32.0,-160.0,90.0,0.0
-32.0,-162.0,89.0,0.0
-28.0,-155.0,83.0,0.0
-28.0,-157.0,82.0,0.0
-30.0,-163.0,83.0,0.0
-28.0,-160.0,79.0,0.0
-26.0,-153.0,74.0,0.0
-26.0,-158.0,74.0,0.0
-29.0,-170.0,78.0,0.0
-25.0,-156.0,69.0,0.0
-25.0,-161.0,69.0,0.0
-26.0,-167.0,70.0,0.0
-26.0,-168.0,68.0,0.0
-25.0,-167.0,66.0,0.0
-31.0,-206.0,78.0,0.0
-39.0,-266.0,98.0,0.0
-40.0,-274.0,96.0,0.0
-40.0,-277.0,94.0,0.0
-39.0,-279.0,92.0,0.0
-39.0,-283.0,90.0,0.0
-38.0,-286.0,87.0,0.0
-37.0,-283.0,84.0,0.0
-37.0,-293.0,83.0,0.0
-2946.0,16530.0,15459.0,0.0
-3015.0,16459.0,15725.0,0.0
-3089.0,16417.0,16024.0,0.0
-3159.0,16338.0,16292.0,0.0
-3233.0,16277.0,16583.0,0.0
-3307.0,16211.0,16873.0,0.0
-3384.0,16155.0,17182.0,0.0
-3417.0,15883.0,17260.0,0.0
-3508.0,15875.0,17629.0,0.0
-3545.0,15622.0,17729.0,0.0
-3535.0,15175.0,17600.0,0.0
-3762.0,15723.0,18640.0,0.0
-3861.0,15716.0,19044.0,0.0
-3950.0,15661.0,19403.0,0.0
-4037.0,15585.0,19742.0,0.0
-4124.0,15502.0,20081.0,0.0
-4108.0,15034.0,19917.0,0.0
-4239.0,15108.0,20473.0,0.0
-4254.0,14760.0,20465.0,0.0
-4270.0,14422.0,20461.0,0.0
-4592.0,15094.0,21919.0,0.0
-4690.0,15002.0,22301.0,0.0
-4799.0,14933.0,22731.0,0.0
-4902.0,14840.0,23136.0,0.0
-5006.0,14742.0,23545.0,0.0
-5117.0,14653.0,23981.0,0.0
-5223.0,14541.0,24396.0,0.0
-5341.0,14450.0,24859.0,0.0
-5409.0,14218.0,25089.0,0.0
-5425.0,13853.0,25082.0,0.0
-5438.0,13482.0,25057.0,0.0
-5826.0,14021.0,26760.0,0.0
-5959.0,13916.0,27285.0,0.0
-6090.0,13791.0,27793.0,0.0
-6225.0,13668.0,28325.0,0.0
-6355.0,13521.0,28828.0,0.0
-6440.0,13270.0,29127.0,0.0
-6573.0,13110.0,29638.0,0.0
-6763.0,13050.0,30405.0,0.0
-6945.0,12956.0,31133.0,0.0
-7159.0,12903.0,31999.0,0.0
-7235.0,12589.0,32247.0,0.0
-5136.0,8622.0,22828.0,0.0
-5240.0,8479.0,23225.0,0.0
-5379.0,8384.0,23778.0,0.0
-5401.0,8098.0,23808.0,0.0
-5398.0,7779.0,23731.0,0.0
-5390.0,7457.0,23631.0,0.0
-5383.0,7140.0,23537.0,0.0
-5379.0,6832.0,23457.0,0.0
-5378.0,6531.0,23389.0,0.0
-5366.0,6222.0,23281.0,0.0
-5364.0,5927.0,23212.0,0.0
-5358.0,5632.0,23129.0,0.0
-5349.0,5337.0,23028.0,0.0
-5345.0,5052.0,22956.0,0.0
-5336.0,4763.0,22859.0,0.0
-5331.0,4482.0,22778.0,0.0
-5325.0,4204.0,22697.0,0.0
-5315.0,3925.0,22600.0,0.0
-5313.0,3656.0,22538.0,0.0
-5308.0,3387.0,22465.0,0.0
-5303.0,3119.0,22386.0,0.0
-5283.0,2847.0,22248.0,0.0
-5282.0,2588.0,22193.0,0.0
-5278.0,2329.0,22120.0,0.0
-5284.0,2076.0,22095.0,0.0
-5273.0,1819.0,21996.0,0.0
-4810.0,1429.0,20018.0,0.0
-4809.0,1202.0,19964.0,0.0
-4876.0,989.0,20198.0,0.0
-4806.0,749.0,19866.0,0.0
-4854.0,530.0,20012.0,0.0
-4825.0,304.0,19849.0,0.0
-4840.0,81.0,19861.0,0.0
-4847.0,-141.0,19847.0,0.0
-4807.0,-360.0,19642.0,0.0
-4810.0,-580.0,19606.0,0.0
-4805.0,-797.0,19542.0,0.0
-4804.0,-1014.0,19492.0,0.0
-4806.0,-1231.0,19454.0,0.0
-4803.0,-1447.0,19398.0,0.0
-4794.0,-1659.0,19318.0,0.0
-4805.0,-1878.0,19318.0,0.0
-5169.0,-2252.0,20733.0,0.0
-5188.0,-2491.0,20761.0,0.0
-5186.0,-2721.0,20708.0,0.0
-2.0,-1.0,11.0,0.0
-5.0,-3.0,21.0,0.0
-9.0,-6.0,36.0,0.0
-6.0,-4.0,27.0,0.0
-5.0,-4.0,20.0,0.0
-10.0,-8.0,40.0,0.0
-6.0,-5.0,26.0,0.0
-3.0,-3.0,12.0,0.0
-1.0,-1.0,7.0,0.0
-9.0,-9.0,36.0,0.0
-6.0,-6.0,27.0,0.0
-9.0,-9.0,36.0,0.0
-6.0,-6.0,24.0,0.0
-8.0,-9.0,32.0,0.0
-4.0,-4.0,15.0,0.0
-9.0,-11.0,38.0,0.0
-8.0,-10.0,32.0,0.0
-9.0,-12.0,37.0,0.0
-8.0,-11.0,34.0,0.0
-9.0,-13.0,37.0,0.0
-11.0,-16.0,44.0,0.0
-7.0,-11.0,28.0,0.0
-13.0,-20.0,51.0,0.0
-13.0,-21.0,50.0,0.0
-10.0,-17.0,41.0,0.0
-12.0,-19.0,46.0,0.0
-15.0,-27.0,59.0,0.0
-14.0,-24.0,52.0,0.0
-15.0,-27.0,56.0,0.0
-14.0,-27.0,55.0,0.0
-15.0,-29.0,57.0,0.0
-16.0,-33.0,62.0,0.0
-16.0,-34.0,62.0,0.0
-17.0,-35.0,64.0,0.0
-20.0,-42.0,74.0,0.0
-18.0,-39.0,66.0,0.0
-16.0,-37.0,60.0,0.0
-20.0,-45.0,73.0,0.0
-22.0,-51.0,82.0,0.0
-20.0,-47.0,74.0,0.0
-20.0,-50.0,75.0,0.0
-22.0,-54.0,79.0,0.0
-21.0,-54.0,78.0,0.0
-25.0,-65.0,92.0,0.0
-25.0,-66.0,90.0,0.0
-20.0,-54.0,72.0,0.0
-27.0,-73.0,96.0,0.0
-25.0,-71.0,92.0,0.0
-22.0,-63.0,78.0,0.0
-28.0,-81.0,99.0,0.0
-26.0,-76.0,91.0,0.0
-24.0,-74.0,86.0,0.0
-27.0,-85.0,95.0,0.0
-26.0,-83.0,92.0,0.0
-27.0,-86.0,94.0,0.0
-26.0,-87.0,93.0,0.0
-25.0,-85.0,88.0,0.0
-29.0,-98.0,99.0,0.0
-29.0,-101.0,100.0,0.0
-32.0,-114.0,110.0,0.0
-30.0,-109.0,104.0,0.0
-28.0,-101.0,94.0,0.0
-30.0,-113.0,103.0,0.0
-29.0,-111.0,99.0,0.0
-30.0,-115.0,100.0,0.0
-28.0,-112.0,95.0,0.0
-30.0,-123.0,102.0,0.0
-30.0,-121.0,98.0,0.0
-30.0,-127.0,101.0,0.0
-28.0,-121.0,93.0,0.0
-31.0,-133.0,100.0,0.0
-32.0,-139.0,103.0,0.0
-30.0,-133.0,96.0,0.0
-32.0,-145.0,102.0,0.0
-31.0,-143.0,99.0,0.0
-31.0,-146.0,99.0,0.0
-31.0,-152.0,100.0,0.0
-31.0,-153.0,98.0,0.0
-31.0,-156.0,97.0,0.0
-32.0,-161.0,98.0,0.0
-31.0,-159.0,95.0,0.0
-31.0,-166.0,97.0,0.0
-32.0,-171.0,97.0,0.0
-31.0,-171.0,95.0,0.0
-30.0,-165.0,89.0,0.0
-30.0,-171.0,90.0,0.0
-30.0,-176.0,90.0,0.0
-29.0,-174.0,87.0,0.0
-29.0,-174.0,84.0,0.0
-27.0,-169.0,79.0,0.0
-26.0,-166.0,76.0,0.0
-25.0,-158.0,70.0,0.0
-24.0,-159.0,69.0,0.0
-25.0,-169.0,70.0,0.0
-24.0,-167.0,68.0,0.0
-25.0,-171.0,68.0,0.0
-28.0,-200.0,76.0,0.0
-37.0,-269.0,99.0,0.0
-38.0,-277.0,99.0,0.0
-37.0,-282.0,97.0,0.0
-36.0,-277.0,92.0,0.0
-36.0,-280.0,90.0,0.0
-35.0,-284.0,88.0,0.0
-35.0,-285.0,85.0,0.0
-34.0,-287.0,82.0,0.0
-3964.0,23833.0,22371.0,0.0
-2931.0,17129.0,16426.0,0.0
-2992.0,17006.0,16660.0,0.0
-2994.0,16550.0,16563.0,0.0
-3031.0,16300.0,16665.0,0.0
-3098.0,16206.0,16930.0,0.0
-3147.0,16018.0,17096.0,0.0
-3244.0,16066.0,17522.0,0.0
-3313.0,15967.0,17795.0,0.0
-3320.0,15571.0,17734.0,0.0
-3365.0,15357.0,17876.0,0.0
-3391.0,15064.0,17922.0,0.0
-3636.0,15720.0,19118.0,0.0
-3720.0,15655.0,19463.0,0.0
-3802.0,15569.0,19792.0,0.0
-3870.0,15424.0,20051.0,0.0
-3961.0,15362.0,20424.0,0.0
-4056.0,15310.0,20823.0,0.0
-4029.0,14797.0,20589.0,0.0
-4045.0,14453.0,20578.0,0.0
-4326.0,15037.0,21914.0,0.0
-4430.0,14978.0,22345.0,0.0
-4533.0,14906.0,22772.0,0.0
-4634.0,14819.0,23185.0,0.0
-4736.0,14724.0,23603.0,0.0
-4843.0,14633.0,24036.0,0.0
-4950.0,14536.0,24476.0,0.0
-5040.0,14379.0,24827.0,0.0
-5157.0,14289.0,25307.0,0.0
-5196.0,13980.0,25404.0,0.0
-5241.0,13687.0,25533.0,0.0
-5266.0,13342.0,25558.0,0.0
-5657.0,13902.0,27361.0,0.0
-5779.0,13771.0,27859.0,0.0
-5902.0,13631.0,28355.0,0.0
-6036.0,13505.0,28903.0,0.0
-6108.0,13231.0,29150.0,0.0
-6237.0,13073.0,29668.0,0.0
-6352.0,12875.0,30115.0,0.0
-6754.0,13233.0,31922.0,0.0
-6742.0,12759.0,31767.0,0.0
-6863.0,12536.0,32238.0,0.0
-4883.0,8602.0,22866.0,0.0
-4979.0,8451.0,23244.0,0.0
-5124.0,8374.0,23849.0,0.0
-5134.0,8071.0,23830.0,0.0
-5122.0,7737.0,23703.0,0.0
-5129.0,7434.0,23662.0,0.0
-5117.0,7111.0,23544.0,0.0
-5113.0,6802.0,23457.0,0.0
-5107.0,6495.0,23366.0,0.0
-5101.0,6191.0,23269.0,0.0
-5099.0,5898.0,23203.0,0.0
-5093.0,5601.0,23107.0,0.0
-5085.0,5307.0,23011.0,0.0
-5082.0,5022.0,22935.0,0.0
-5077.0,4738.0,22851.0,0.0
-5074.0,4460.0,22783.0,0.0
-5071.0,4183.0,22708.0,0.0
-5063.0,3906.0,22613.0,0.0
-5061.0,3635.0,22545.0,0.0
-5054.0,3365.0,22457.0,0.0
-5054.0,3102.0,22402.0,0.0
-5044.0,2835.0,22301.0,0.0
-5030.0,2568.0,22184.0,0.0
-5039.0,2316.0,22167.0,0.0
-5038.0,2061.0,22110.0,0.0
-4948.0,1775.0,21661.0,0.0
-4979.0,1538.0,21746.0,0.0
-4868.0,1261.0,21204.0,0.0
-4871.0,1022.0,21170.0,0.0
-4987.0,802.0,21622.0,0.0
-4844.0,542.0,20951.0,0.0
-4848.0,308.0,20919.0,0.0
-4843.0,74.0,20849.0,0.0
-4839.0,-158.0,20781.0,0.0
-4870.0,-392.0,20863.0,0.0
-4965.0,-637.0,21221.0,0.0
-4913.0,-864.0,20954.0,0.0
-4927.0,-1099.0,20962.0,0.0
-4936.0,-1334.0,20949.0,0.0
-4883.0,-1550.0,20681.0,0.0
-4925.0,-1794.0,20806.0,0.0
-4857.0,-1996.0,20471.0,0.0
-4945.0,-2263.0,20795.0,0.0
-4945.0,-2494.0,20749.0,0.0
-7.0,-4.0,29.0,0.0
-7.0,-3.0,28.0,0.0
-9.0,-6.0,38.0,0.0
-6.0,-4.0,26.0,0.0
-7.0,-5.0,29.0,0.0
-4.0,-3.0,18.0,0.0
-7.0,-6.0,31.0,0.0
-8.0,-7.0,32.0,0.0
-9.0,-8.0,38.0,0.0
-7.0,-7.0,29.0,0.0
-9.0,-9.0,35.0,0.0
-4.0,-4.0,17.0,0.0
-11.0,-10.0,43.0,0.0
-11.0,-12.0,43.0,0.0
-5.0,-5.0,22.0,0.0
-8.0,-9.0,33.0,0.0
-11.0,-14.0,46.0,0.0
-12.0,-15.0,47.0,0.0
-10.0,-13.0,39.0,0.0
-9.0,-12.0,35.0,0.0
-11.0,-16.0,44.0,0.0
-11.0,-15.0,42.0,0.0
-11.0,-17.0,43.0,0.0
-12.0,-19.0,49.0,0.0
-15.0,-23.0,57.0,0.0
-14.0,-23.0,55.0,0.0
-16.0,-28.0,62.0,0.0
-15.0,-25.0,57.0,0.0
-17.0,-31.0,66.0,0.0
-13.0,-25.0,51.0,0.0
-14.0,-26.0,53.0,0.0
-15.0,-29.0,57.0,0.0
-19.0,-37.0,70.0,0.0
-16.0,-32.0,60.0,0.0
-20.0,-41.0,74.0,0.0
-22.0,-46.0,82.0,0.0
-20.0,-43.0,74.0,0.0
-22.0,-49.0,81.0,0.0
-18.0,-41.0,66.0,0.0
-20.0,-46.0,74.0,0.0
-20.0,-47.0,74.0,0.0
-22.0,-55.0,83.0,0.0
-22.0,-54.0,79.0,0.0
-23.0,-62.0,89.0,0.0
-23.0,-63.0,88.0,0.0
-27.0,-73.0,100.0,0.0
-25.0,-70.0,93.0,0.0
-24.0,-70.0,91.0,0.0
-25.0,-74.0,94.0,0.0
-22.0,-67.0,84.0,0.0
-27.0,-81.0,99.0,0.0
-25.0,-78.0,92.0,0.0
-27.0,-84.0,98.0,0.0
-30.0,-96.0,110.0,0.0
-28.0,-91.0,101.0,0.0
-26.0,-88.0,96.0,0.0
-27.0,-91.0,97.0,0.0
-28.0,-97.0,101.0,0.0
-29.0,-101.0,103.0,0.0
-30.0,-107.0,107.0,0.0
-31.0,-113.0,109.0,0.0
-29.0,-110.0,104.0,0.0
-31.0,-117.0,109.0,0.0
-29.0,-113.0,103.0,0.0
-30.0,-119.0,105.0,0.0
-29.0,-116.0,101.0,0.0
-29.0,-119.0,102.0,0.0
-29.0,-121.0,101.0,0.0
-30.0,-128.0,104.0,0.0
-31.0,-132.0,105.0,0.0
-31.0,-135.0,105.0,0.0
-32.0,-141.0,106.0,0.0
-31.0,-142.0,105.0,0.0
-30.0,-140.0,102.0,0.0
-30.0,-143.0,101.0,0.0
-31.0,-149.0,103.0,0.0
-32.0,-154.0,104.0,0.0
-30.0,-149.0,98.0,0.0
-31.0,-156.0,101.0,0.0
-29.0,-150.0,95.0,0.0
-31.0,-161.0,99.0,0.0
-31.0,-166.0,99.0,0.0
-31.0,-170.0,99.0,0.0
-31.0,-172.0,98.0,0.0
-31.0,-176.0,98.0,0.0
-30.0,-175.0,95.0,0.0
-29.0,-173.0,91.0,0.0
-28.0,-167.0,85.0,0.0
-28.0,-174.0,87.0,0.0
-28.0,-178.0,86.0,0.0
-27.0,-170.0,80.0,0.0
-26.0,-170.0,78.0,0.0
-25.0,-169.0,75.0,0.0
-25.0,-171.0,74.0,0.0
-25.0,-171.0,72.0,0.0
-25.0,-177.0,72.0,0.0
-25.0,-178.0,70.0,0.0
-27.0,-195.0,75.0,0.0
-36.0,-274.0,102.0,0.0
-37.0,-284.0,102.0,0.0
-36.0,-283.0,98.0,0.0
-35.0,-287.0,96.0,0.0
-35.0,-296.0,95.0,0.0
-35.0,-302.0,94.0,0.0
-34.0,-294.0,88.0,0.0
-33.0,-299.0,86.0,0.0
0.0,0.0,0.0,0.0
-5393.0,33941.0,32662.0,0.0
-2985.0,18253.0,17944.0,0.0
-3047.0,18103.0,18181.0,0.0
-3016.0,17413.0,17866.0,0.0
-3160.0,17734.0,18591.0,0.0
-3260.0,17781.0,19045.0,0.0
-3255.0,17261.0,18890.0,0.0
-2955.0,15237.0,17041.0,0.0
-3376.0,16925.0,19343.0,0.0
-3167.0,15442.0,18037.0,0.0
-3180.0,15080.0,18002.0,0.0
-3402.0,15686.0,19142.0,0.0
-3485.0,15632.0,19503.0,0.0
-3561.0,15537.0,19820.0,0.0
-3628.0,15394.0,20081.0,0.0
-3721.0,15356.0,20487.0,0.0
-3737.0,14997.0,20467.0,0.0
-3804.0,14847.0,20731.0,0.0
-3831.0,14537.0,20772.0,0.0
-4071.0,15022.0,21969.0,0.0
-4174.0,14975.0,22420.0,0.0
-4273.0,14901.0,22842.0,0.0
-4367.0,14801.0,23239.0,0.0
-4463.0,14700.0,23645.0,0.0
-4568.0,14615.0,24092.0,0.0
-4664.0,14495.0,24494.0,0.0
-4767.0,14388.0,24930.0,0.0
-4873.0,14279.0,25379.0,0.0
-4941.0,14053.0,25630.0,0.0
-4968.0,13709.0,25666.0,0.0
-4996.0,13373.0,25712.0,0.0
-5350.0,13882.0,27422.0,0.0
-5468.0,13754.0,27925.0,0.0
-5581.0,13599.0,28392.0,0.0
-5721.0,13499.0,28998.0,0.0
-5782.0,13204.0,29201.0,0.0
-5926.0,13092.0,29824.0,0.0
-6015.0,12848.0,30166.0,0.0
-6357.0,13120.0,31770.0,0.0
-6422.0,12799.0,31987.0,0.0
-6501.0,12500.0,32270.0,0.0
-4623.0,8570.0,22871.0,0.0
-4695.0,8384.0,23150.0,0.0
-4853.0,8342.0,23850.0,0.0
-4848.0,8014.0,23755.0,0.0
-4850.0,7701.0,23689.0,0.0
-4857.0,7399.0,23646.0,0.0
-4849.0,7078.0,23534.0,0.0
-4846.0,6771.0,23451.0,0.0
-4841.0,6464.0,23355.0,0.0
-4841.0,6167.0,23286.0,0.0
-4840.0,5873.0,23213.0,0.0
-4829.0,5572.0,23094.0,0.0
-4824.0,5280.0,23004.0,0.0
-4822.0,4996.0,22929.0,0.0
-4822.0,4718.0,22868.0,0.0
-4815.0,4434.0,22770.0,0.0
-4809.0,4155.0,22675.0,0.0
-4804.0,3881.0,22595.0,0.0
-4815.0,3621.0,22580.0,0.0
-4801.0,3345.0,22458.0,0.0
-4793.0,3077.0,22362.0,0.0
-4795.0,2818.0,22312.0,0.0
-4793.0,2557.0,22241.0,0.0
-4787.0,2298.0,22160.0,0.0
-4783.0,2042.0,22081.0,0.0
-4775.0,1786.0,21986.0,0.0
-4705.0,1513.0,21613.0,0.0
-4620.0,1246.0,21168.0,0.0
-4615.0,1005.0,21091.0,0.0
-4687.0,780.0,21371.0,0.0
-4663.0,537.0,21205.0,0.0
-4622.0,297.0,20968.0,0.0
-4633.0,63.0,20968.0,0.0
-4602.0,-168.0,20777.0,0.0
-4612.0,-400.0,20772.0,0.0
-4683.0,-640.0,21042.0,0.0
-4684.0,-874.0,20998.0,0.0
-4678.0,-1105.0,20922.0,0.0
-4691.0,-1340.0,20923.0,0.0
-4635.0,-1553.0,20628.0,0.0
-4688.0,-1801.0,20814.0,0.0
-4626.0,-2004.0,20490.0,0.0
-4688.0,-2260.0,20717.0,0.0
-4708.0,-2500.0,20760.0,0.0
-4703.0,-2727.0,20690.0,0.0
-4701.0,-2954.0,20633.0,0.0
-4695.0,-3178.0,20559.0,0.0
-4689.0,-3402.0,20484.0,0.0
-3.0,-2.0,15.0,0.0
-9.0,-7.0,39.0,0.0
-6.0,-5.0,25.0,0.0
-10.0,-9.0,40.0,0.0
-10.0,-9.0,42.0,0.0
-9.0,-9.0,37.0,0.0
-9.0,-9.0,38.0,0.0
-9.0,-9.0,36.0,0.0
-10.0,-10.0,41.0,0.0
-9.0,-10.0,38.0,0.0
-7.0,-8.0,27.0,0.0
-10.0,-11.0,39.0,0.0
-11.0,-15.0,50.0,0.0
-8.0,-10.0,34.0,0.0
-11.0,-16.0,48.0,0.0
-11.0,-15.0,46.0,0.0
-9.0,-13.0,35.0,0.0
-10.0,-16.0,46.0,0.0
-7.0,-10.0,27.0,0.0
-10.0,-16.0,40.0,0.0
-10.0,-16.0,40.0,0.0
-14.0,-25.0,58.0,0.0
-18.0,-31.0,72.0,0.0
-13.0,-25.0,54.0,0.0
-13.0,-26.0,54.0,0.0
-12.0,-24.0,51.0,0.0
-14.0,-28.0,57.0,0.0
-14.0,-30.0,59.0,0.0
-18.0,-39.0,73.0,0.0
-17.0,-36.0,68.0,0.0
-19.0,-42.0,76.0,0.0
-18.0,-40.0,71.0,0.0
-20.0,-47.0,80.0,0.0
-17.0,-39.0,66.0,0.0
-20.0,-47.0,77.0,0.0
-20.0,-50.0,79.0,0.0
-16.0,-42.0,64.0,0.0
-20.0,-52.0,79.0,0.0
-19.0,-50.0,74.0,0.0
-21.0,-59.0,86.0,0.0
-20.0,-56.0,79.0,0.0
-24.0,-67.0,93.0,0.0
-21.0,-62.0,83.0,0.0
-26.0,-76.0,100.0,0.0
-24.0,-74.0,94.0,0.0
-27.0,-83.0,103.0,0.0
-27.0,-83.0,102.0,0.0
-28.0,-88.0,106.0,0.0
-25.0,-81.0,95.0,0.0
-26.0,-86.0,98.0,0.0
-27.0,-91.0,102.0,0.0
-28.0,-100.0,109.0,0.0
-27.0,-97.0,103.0,0.0
-26.0,-95.0,99.0,0.0
-29.0,-109.0,112.0,0.0
-30.0,-113.0,113.0,0.0
-29.0,-112.0,109.0,0.0
-28.0,-111.0,106.0,0.0
-28.0,-113.0,105.0,0.0
-30.0,-123.0,112.0,0.0
-29.0,-122.0,110.0,0.0
-29.0,-126.0,110.0,0.0
-30.0,-131.0,112.0,0.0
-30.0,-134.0,112.0,0.0
-29.0,-129.0,106.0,0.0
-28.0,-129.0,102.0,0.0
-30.0,-139.0,108.0,0.0
-29.0,-137.0,104.0,0.0
-30.0,-147.0,109.0,0.0
-28.0,-140.0,102.0,0.0
-27.0,-139.0,98.0,0.0
-30.0,-152.0,105.0,0.0
-29.0,-149.0,101.0,0.0
-29.0,-153.0,101.0,0.0
-28.0,-151.0,97.0,0.0
-29.0,-158.0,100.0,0.0
-29.0,-163.0,100.0,0.0
-28.0,-161.0,97.0,0.0
-29.0,-169.0,99.0,0.0
-27.0,-163.0,93.0,0.0
-29.0,-175.0,98.0,0.0
-30.0,-186.0,101.0,0.0
-27.0,-173.0,91.0,0.0
-29.0,-183.0,94.0,0.0
-29.0,-190.0,95.0,0.0
-27.0,-179.0,87.0,0.0
-26.0,-175.0,83.0,0.0
-26.0,-179.0,82.0,0.0
-24.0,-175.0,78.0,0.0
-24.0,-177.0,77.0,0.0
-24.0,-177.0,75.0,0.0
-24.0,-187.0,76.0,0.0
-23.0,-178.0,71.0,0.0
-24.0,-191.0,73.0,0.0
-32.0,-258.0,96.0,0.0
-34.0,-289.0,104.0,0.0
-33.0,-285.0,100.0,0.0
-33.0,-289.0,97.0,0.0
-32.0,-292.0,95.0,0.0
-32.0,-295.0,92.0,0.0
-31.0,-299.0,90.0,0.0
-31.0,-302.0,88.0,0.0
-4983.0,35033.0,33112.0,0.0
-4956.0,33800.0,32636.0,0.0
-2754.0,18227.0,17980.0,0.0
-4969.0,31910.0,32156.0,0.0
-2799.0,17449.0,17965.0,0.0
-2975.0,18001.0,18934.0,0.0
-3013.0,17703.0,19025.0,0.0
-2771.0,15816.0,17367.0,0.0
-3065.0,16995.0,19070.0,0.0
-3142.0,16923.0,19405.0,0.0
-2937.0,15375.0,18019.0,0.0
-2978.0,15149.0,18146.0,0.0
-3082.0,15233.0,18653.0,0.0
-3532.0,16968.0,21240.0,0.0
-3559.0,16614.0,21264.0,0.0
-3606.0,16361.0,21413.0,0.0
-3664.0,16157.0,21628.0,0.0
-3517.0,15073.0,20640.0,0.0
-3549.0,14783.0,20712.0,0.0
-3571.0,14452.0,20719.0,0.0
-3645.0,14339.0,21040.0,0.0
-3912.0,14949.0,22457.0,0.0
-4019.0,14922.0,22951.0,0.0
-4107.0,14809.0,23331.0,0.0
-4191.0,14679.0,23692.0,0.0
-4284.0,14572.0,24101.0,0.0
-4389.0,14492.0,24572.0,0.0
-4491.0,14396.0,25029.0,0.0
-4575.0,14227.0,25373.0,0.0
-4691.0,14153.0,25902.0,0.0
-4742.0,13874.0,26064.0,0.0
-4750.0,13478.0,26001.0,0.0
-5039.0,13857.0,27466.0,0.0
-5161.0,13749.0,28012.0,0.0
-5254.0,13554.0,28399.0,0.0
-5393.0,13467.0,29031.0,0.0
-5455.0,13179.0,29248.0,0.0
-5601.0,13086.0,29916.0,0.0
-5661.0,12783.0,30120.0,0.0
-6005.0,13096.0,31826.0,0.0
-6113.0,12867.0,32278.0,0.0
-6134.0,12453.0,32267.0,0.0
-4354.0,8521.0,22827.0,0.0
-4332.0,8164.0,22628.0,0.0
-4558.0,8265.0,23723.0,0.0
-4587.0,7996.0,23792.0,0.0
-4586.0,7677.0,23708.0,0.0
-4581.0,7356.0,23602.0,0.0
-4575.0,7038.0,23494.0,0.0
-4580.0,6740.0,23440.0,0.0
-4575.0,6433.0,23338.0,0.0
-4571.0,6132.0,23249.0,0.0
-4570.0,5836.0,23166.0,0.0
-4567.0,5545.0,23083.0,0.0
-4566.0,5257.0,23003.0,0.0
-4560.0,4969.0,22909.0,0.0
-4563.0,4693.0,22855.0,0.0
-4560.0,4413.0,22768.0,0.0
-4554.0,4134.0,22674.0,0.0
-4558.0,3867.0,22631.0,0.0
-4556.0,3596.0,22552.0,0.0
-4552.0,3327.0,22467.0,0.0
-4547.0,3061.0,22380.0,0.0
-4540.0,2797.0,22288.0,0.0
-4539.0,2538.0,22221.0,0.0
-4537.0,2281.0,22147.0,0.0
-4533.0,2026.0,22073.0,0.0
-4527.0,1771.0,21988.0,0.0
-4452.0,1496.0,21560.0,0.0
-4374.0,1230.0,21127.0,0.0
-4379.0,993.0,21097.0,0.0
-4460.0,770.0,21435.0,0.0
-4421.0,525.0,21192.0,0.0
-4387.0,286.0,20977.0,0.0
-4442.0,53.0,21182.0,0.0
-4400.0,-180.0,20931.0,0.0
-4382.0,-410.0,20796.0,0.0
-4461.0,-652.0,21117.0,0.0
-4449.0,-883.0,21013.0,0.0
-4453.0,-1116.0,20979.0,0.0
-4450.0,-1346.0,20915.0,0.0
-4387.0,-1554.0,20566.0,0.0
-4447.0,-1805.0,20799.0,0.0
-4409.0,-2017.0,20576.0,0.0
-4427.0,-2253.0,20608.0,0.0
-4468.0,-2503.0,20752.0,0.0
-4464.0,-2729.0,20684.0,0.0
-4452.0,-2949.0,20582.0,0.0
-4459.0,-3182.0,20567.0,0.0
-3.0,-2.0,12.0,0.0
-5.0,-4.0,20.0,0.0
-3.0,-3.0,13.0,0.0
-5.0,-4.0,20.0,0.0
-6.0,-6.0,30.0,0.0
-6.0,-5.0,23.0,0.0
-5.0,-5.0,21.0,0.0
-5.0,-5.0,22.0,0.0
-6.0,-7.0,29.0,0.0
-6.0,-7.0,31.0,0.0
-5.0,-5.0,21.0,0.0
-6.0,-8.0,29.0,0.0
-7.0,-9.0,31.0,0.0
-8.0,-11.0,36.0,0.0
-6.0,-7.0,24.0,0.0
-6.0,-8.0,26.0,0.0
-7.0,-9.0,27.0,0.0
-6.0,-10.0,28.0,0.0
-10.0,-16.0,46.0,0.0
-11.0,-18.0,47.0,0.0
-8.0,-14.0,36.0,0.0
-8.0,-15.0,37.0,0.0
-11.0,-19.0,46.0,0.0
-8.0,-14.0,34.0,0.0
-15.0,-30.0,66.0,0.0
-14.0,-28.0,61.0,0.0
-8.0,-17.0,35.0,0.0
-11.0,-23.0,48.0,0.0
-14.0,-31.0,61.0,0.0
-13.0,-31.0,59.0,0.0
-16.0,-38.0,69.0,0.0
-16.0,-37.0,67.0,0.0
-18.0,-42.0,73.0,0.0
-18.0,-43.0,75.0,0.0
-14.0,-37.0,62.0,0.0
-17.0,-43.0,70.0,0.0
-17.0,-46.0,72.0,0.0
-17.0,-45.0,71.0,0.0
-20.0,-55.0,83.0,0.0
-20.0,-57.0,83.0,0.0
-18.0,-54.0,79.0,0.0
-22.0,-65.0,93.0,0.0
-22.0,-67.0,91.0,0.0
-20.0,-62.0,84.0,0.0
-21.0,-67.0,87.0,0.0
-23.0,-74.0,95.0,0.0
-24.0,-78.0,98.0,0.0
-21.0,-69.0,85.0,0.0
-24.0,-85.0,101.0,0.0
-23.0,-80.0,94.0,0.0
-24.0,-86.0,99.0,0.0
-23.0,-86.0,97.0,0.0
-24.0,-92.0,100.0,0.0
-26.0,-99.0,106.0,0.0
-23.0,-88.0,91.0,0.0
-25.0,-98.0,100.0,0.0
-24.0,-98.0,98.0,0.0
-25.0,-102.0,100.0,0.0
-25.0,-106.0,101.0,0.0
-24.0,-102.0,96.0,0.0
-27.0,-115.0,106.0,0.0
-27.0,-118.0,105.0,0.0
-26.0,-117.0,103.0,0.0
-26.0,-119.0,103.0,0.0
-26.0,-122.0,102.0,0.0
-26.0,-123.0,100.0,0.0
-27.0,-134.0,107.0,0.0
-25.0,-122.0,95.0,0.0
-26.0,-127.0,98.0,0.0
-26.0,-137.0,102.0,0.0
-27.0,-142.0,103.0,0.0
-25.0,-138.0,98.0,0.0
-28.0,-152.0,106.0,0.0
-28.0,-154.0,105.0,0.0
-27.0,-153.0,101.0,0.0
-26.0,-150.0,97.0,0.0
-27.0,-158.0,100.0,0.0
-27.0,-161.0,100.0,0.0
-26.0,-159.0,96.0,0.0
-26.0,-164.0,97.0,0.0
-25.0,-162.0,93.0,0.0
-24.0,-160.0,90.0,0.0
-25.0,-167.0,91.0,0.0
-25.0,-171.0,91.0,0.0
-23.0,-164.0,85.0,0.0
-24.0,-172.0,86.0,0.0
-23.0,-166.0,81.0,0.0
-24.0,-175.0,84.0,0.0
-22.0,-172.0,80.0,0.0
-23.0,-178.0,80.0,0.0
-22.0,-175.0,76.0,0.0
-21.0,-165.0,69.0,0.0
-21.0,-175.0,72.0,0.0
-21.0,-182.0,72.0,0.0
-22.0,-188.0,73.0,0.0
-27.0,-243.0,90.0,0.0
-31.0,-289.0,104.0,0.0
-30.0,-285.0,99.0,0.0
-29.0,-286.0,97.0,0.0
-29.0,-291.0,95.0,0.0
-29.0,-296.0,93.0,0.0
-28.0,-297.0,90.0,0.0
-28.0,-300.0,87.0,0.0
0.0,0.0,0.0,0.0
-4536.0,33762.0,32707.0,0.0
-2520.0,18173.0,17984.0,0.0
0.0,0.0,0.0,0.0
-4664.0,31603.0,32641.0,0.0
-2739.0,17998.0,18991.0,0.0
-2775.0,17681.0,19064.0,0.0
-2735.0,16909.0,18628.0,0.0
-2812.0,16870.0,18989.0,0.0
-2671.0,15551.0,17890.0,0.0
-2751.0,15547.0,18279.0,0.0
-2739.0,15027.0,18058.0,0.0
-2799.0,14911.0,18315.0,0.0
-3349.0,17319.0,21750.0,0.0
-3364.0,16897.0,21696.0,0.0
-3374.0,16455.0,21606.0,0.0
-3379.0,16004.0,21493.0,0.0
-3390.0,15592.0,21419.0,0.0
-3196.0,14273.0,20061.0,0.0
-3272.0,14192.0,20411.0,0.0
-3398.0,14313.0,21069.0,0.0
-3448.0,14098.0,21246.0,0.0
-5005.0,19873.0,30667.0,0.0
-5057.0,19494.0,30812.0,0.0
-5116.0,19141.0,30994.0,0.0
-5594.0,20310.0,33703.0,0.0
-5619.0,19793.0,33669.0,0.0
-4685.0,16014.0,27933.0,0.0
-4714.0,15626.0,27959.0,0.0
-4712.0,15143.0,27803.0,0.0
-4367.0,13603.0,25640.0,0.0
-4469.0,13490.0,26114.0,0.0
-4519.0,13217.0,26285.0,0.0
-4843.0,13716.0,28038.0,0.0
-4936.0,13531.0,28445.0,0.0
-5065.0,13434.0,29059.0,0.0
-5131.0,13161.0,29310.0,0.0
-5252.0,13022.0,29873.0,0.0
-5557.0,13311.0,31475.0,0.0
-5736.0,13266.0,32355.0,0.0
-5739.0,12806.0,32239.0,0.0
-5765.0,12404.0,32254.0,0.0
-4102.0,8501.0,22855.0,0.0
-4092.0,8164.0,22711.0,0.0
-4174.0,8011.0,23080.0,0.0
-4263.0,7863.0,23485.0,0.0
-4318.0,7644.0,23697.0,0.0
-4322.0,7337.0,23633.0,0.0
-4313.0,7013.0,23505.0,0.0
-4310.0,6702.0,23401.0,0.0
-4313.0,6407.0,23337.0,0.0
-4312.0,6107.0,23253.0,0.0
-4311.0,5814.0,23173.0,0.0
-4309.0,5521.0,23084.0,0.0
-4310.0,5235.0,23010.0,0.0
-4308.0,4950.0,22927.0,0.0
-4309.0,4671.0,22857.0,0.0
-4308.0,4394.0,22783.0,0.0
-4301.0,4113.0,22673.0,0.0
-4305.0,3846.0,22622.0,0.0
-4302.0,3576.0,22542.0,0.0
-4292.0,3303.0,22419.0,0.0
-4299.0,3046.0,22391.0,0.0
-4294.0,2782.0,22300.0,0.0
-4292.0,2523.0,22231.0,0.0
-4289.0,2265.0,22145.0,0.0
-4282.0,2009.0,22050.0,0.0
-4278.0,1755.0,21968.0,0.0
-4230.0,1489.0,21660.0,0.0
-3955.0,1163.0,20195.0,0.0
-3968.0,939.0,20209.0,0.0
-3913.0,703.0,19876.0,0.0
-3920.0,482.0,19860.0,0.0
-3958.0,263.0,20002.0,0.0
-3907.0,40.0,19691.0,0.0
-3910.0,-177.0,19653.0,0.0
-3911.0,-394.0,19608.0,0.0
-3912.0,-611.0,19563.0,0.0
-3923.0,-830.0,19573.0,0.0
-3922.0,-1045.0,19517.0,0.0
-3922.0,-1260.0,19472.0,0.0
-3934.0,-1477.0,19481.0,0.0
-3921.0,-1686.0,19369.0,0.0
-3932.0,-1904.0,19379.0,0.0
-4086.0,-2200.0,20089.0,0.0
-4234.0,-2509.0,20768.0,0.0
-4228.0,-2733.0,20687.0,0.0
-4227.0,-2959.0,20630.0,0.0
-4224.0,-3185.0,20572.0,0.0
-7.0,-5.0,35.0,0.0
-4213.0,-3629.0,20424.0,0.0
-4.0,-3.0,19.0,0.0
-5.0,-5.0,26.0,0.0
-9.0,-9.0,41.0,0.0
-9.0,-10.0,44.0,0.0
-10.0,-12.0,50.0,0.0
-6.0,-7.0,28.0,0.0
-9.0,-10.0,39.0,0.0
-8.0,-9.0,36.0,0.0
-4.0,-5.0,21.0,0.0
-6.0,-8.0,28.0,0.0
-6.0,-8.0,31.0,0.0
-8.0,-11.0,36.0,0.0
-7.0,-10.0,33.0,0.0
-9.0,-15.0,44.0,0.0
-8.0,-11.0,35.0,0.0
-14.0,-23.0,65.0,0.0
-8.0,-12.0,35.0,0.0
-5.0,-9.0,26.0,0.0
-12.0,-22.0,55.0,0.0
-9.0,-16.0,41.0,0.0
-8.0,-15.0,36.0,0.0
-10.0,-21.0,48.0,0.0
-15.0,-31.0,68.0,0.0
-12.0,-26.0,54.0,0.0
-12.0,-25.0,53.0,0.0
-13.0,-31.0,63.0,0.0
-11.0,-26.0,51.0,0.0
-14.0,-31.0,60.0,0.0
-15.0,-36.0,67.0,0.0
-17.0,-41.0,75.0,0.0
-16.0,-42.0,73.0,0.0
-14.0,-38.0,66.0,0.0
-15.0,-40.0,68.0,0.0
-16.0,-42.0,70.0,0.0
-18.0,-51.0,82.0,0.0
-17.0,-50.0,78.0,0.0
-17.0,-53.0,79.0,0.0
-19.0,-57.0,84.0,0.0
-19.0,-58.0,85.0,0.0
-19.0,-60.0,84.0,0.0
-21.0,-66.0,90.0,0.0
-24.0,-77.0,104.0,0.0
-22.0,-75.0,99.0,0.0
-23.0,-80.0,103.0,0.0
-20.0,-69.0,86.0,0.0
-22.0,-80.0,98.0,0.0
-22.0,-81.0,97.0,0.0
-23.0,-86.0,101.0,0.0
-24.0,-91.0,103.0,0.0
-24.0,-96.0,107.0,0.0
-21.0,-84.0,93.0,0.0
-21.0,-87.0,93.0,0.0
-25.0,-99.0,104.0,0.0
-25.0,-105.0,109.0,0.0
-26.0,-110.0,110.0,0.0
-26.0,-112.0,110.0,0.0
-25.0,-110.0,106.0,0.0
-25.0,-114.0,107.0,0.0
-25.0,-116.0,107.0,0.0
-26.0,-121.0,108.0,0.0
-24.0,-117.0,103.0,0.0
-27.0,-130.0,112.0,0.0
-26.0,-129.0,108.0,0.0
-25.0,-126.0,104.0,0.0
-25.0,-127.0,102.0,0.0
-25.0,-132.0,103.0,0.0
-26.0,-135.0,104.0,0.0
-26.0,-146.0,109.0,0.0
-27.0,-152.0,111.0,0.0
-26.0,-149.0,107.0,0.0
-27.0,-156.0,109.0,0.0
-25.0,-151.0,103.0,0.0
-25.0,-155.0,104.0,0.0
-24.0,-154.0,100.0,0.0
-26.0,-165.0,105.0,0.0
-26.0,-166.0,103.0,0.0
-24.0,-163.0,99.0,0.0
-25.0,-169.0,100.0,0.0
-25.0,-173.0,100.0,0.0
-25.0,-174.0,98.0,0.0
-26.0,-181.0,99.0,0.0
-25.0,-184.0,97.0,0.0
-23.0,-175.0,90.0,0.0
-24.0,-180.0,91.0,0.0
-22.0,-174.0,85.0,0.0
-22.0,-177.0,84.0,0.0
-22.0,-181.0,84.0,0.0
-21.0,-179.0,81.0,0.0
-20.0,-172.0,76.0,0.0
-20.0,-180.0,76.0,0.0
-21.0,-189.0,78.0,0.0
-21.0,-194.0,78.0,0.0
-20.0,-191.0,75.0,0.0
-25.0,-247.0,93.0,0.0
-28.0,-281.0,103.0,0.0
-28.0,-282.0,99.0,0.0
-27.0,-293.0,100.0,0.0
-26.0,-295.0,96.0,0.0
-26.0,-290.0,92.0,0.0
-26.0,-293.0,90.0,0.0
-24.0,-297.0,87.0,0.0
-1848.0,15666.0,14902.0,0.0
-4103.0,33625.0,32674.0,0.0
-2291.0,18165.0,18032.0,0.0
-4174.0,32011.0,32463.0,0.0
-4248.0,31531.0,32669.0,0.0
-2501.0,17977.0,19029.0,0.0
-2532.0,17625.0,19060.0,0.0
-2542.0,17149.0,18950.0,0.0
-2549.0,16662.0,18814.0,0.0
-2375.0,15044.0,17360.0,0.0
-2572.0,15796.0,18628.0,0.0
-2548.0,15176.0,18292.0,0.0
-2597.0,15001.0,18483.0,0.0
-2632.0,14747.0,18576.0,0.0
-3090.0,16798.0,21636.0,0.0
-3103.0,16361.0,21549.0,0.0
-3114.0,15935.0,21465.0,0.0
-3126.0,15519.0,21385.0,0.0
-2962.0,14270.0,20118.0,0.0
-3034.0,14182.0,20460.0,0.0
-3147.0,14274.0,21077.0,0.0
-3200.0,14075.0,21278.0,0.0
-4651.0,19849.0,30724.0,0.0
-4704.0,19474.0,30874.0,0.0
-4746.0,19058.0,30956.0,0.0
-5207.0,20281.0,33759.0,0.0
-5225.0,19730.0,33668.0,0.0
-4381.0,16037.0,28061.0,0.0
-4392.0,15584.0,27972.0,0.0
-4063.0,13973.0,25738.0,0.0
-4399.0,14657.0,27715.0,0.0
-4255.0,13728.0,26659.0,0.0
-4268.0,13334.0,26604.0,0.0
-4524.0,13681.0,28059.0,0.0
-4615.0,13499.0,28473.0,0.0
-4804.0,13591.0,29495.0,0.0
-4935.0,13496.0,30153.0,0.0
-5005.0,13224.0,30438.0,0.0
-5220.0,13319.0,31599.0,0.0
-5281.0,13001.0,31818.0,0.0
-5385.0,12787.0,32300.0,0.0
-5394.0,12346.0,32213.0,0.0
-3854.0,8495.0,22916.0,0.0
-3962.0,8403.0,23456.0,0.0
-4032.0,8222.0,23771.0,0.0
-4044.0,7921.0,23746.0,0.0
-4048.0,7610.0,23677.0,0.0
-4053.0,7302.0,23609.0,0.0
-4054.0,6993.0,23524.0,0.0
-4050.0,6680.0,23412.0,0.0
-4053.0,6383.0,23343.0,0.0
-4053.0,6085.0,23258.0,0.0
-4056.0,5794.0,23187.0,0.0
-4047.0,5491.0,23055.0,0.0
-4052.0,5211.0,22999.0,0.0
-4052.0,4928.0,22920.0,0.0
-4056.0,4652.0,22862.0,0.0
-4054.0,4373.0,22781.0,0.0
-4055.0,4100.0,22707.0,0.0
-4053.0,3828.0,22627.0,0.0
-4053.0,3559.0,22549.0,0.0
-4035.0,3279.0,22379.0,0.0
-4043.0,3024.0,22357.0,0.0
-4047.0,2766.0,22305.0,0.0
-4045.0,2507.0,22227.0,0.0
-4037.0,2247.0,22120.0,0.0
-4036.0,1994.0,22046.0,0.0
-3908.0,1688.0,21286.0,0.0
-3944.0,1460.0,21418.0,0.0
-3913.0,1209.0,21191.0,0.0
-3904.0,968.0,21084.0,0.0
-3993.0,749.0,21502.0,0.0
-4017.0,512.0,21573.0,0.0
-3920.0,266.0,20992.0,0.0
-3980.0,33.0,21259.0,0.0
-3953.0,-199.0,21055.0,0.0
-4003.0,-437.0,21263.0,0.0
-4013.0,-673.0,21266.0,0.0
-4003.0,-904.0,21162.0,0.0
-4004.0,-1137.0,21107.0,0.0
-4012.0,-1371.0,21098.0,0.0
-3968.0,-1585.0,20815.0,0.0
-4006.0,-1830.0,20959.0,0.0
-3993.0,-2053.0,20843.0,0.0
-3992.0,-2281.0,20786.0,0.0
-4001.0,-2514.0,20782.0,0.0
-3995.0,-2738.0,20704.0,0.0
-3990.0,-2962.0,20633.0,0.0
-3988.0,-3186.0,20567.0,0.0
-6.0,-5.0,28.0,0.0
-3977.0,-3629.0,20419.0,0.0
-5.0,-5.0,24.0,0.0
-7.0,-8.0,37.0,0.0
-4.0,-5.0,22.0,0.0
-4.0,-5.0,19.0,0.0
-7.0,-9.0,38.0,0.0
-3.0,-4.0,18.0,0.0
-4.0,-5.0,21.0,0.0
-8.0,-10.0,42.0,0.0
-4.0,-5.0,19.0,0.0
-3.0,-4.0,18.0,0.0
-7.0,-11.0,36.0,0.0
-6.0,-8.0,29.0,0.0
-6.0,-9.0,29.0,0.0
-7.0,-12.0,38.0,0.0
-6.0,-10.0,28.0,0.0
-7.0,-11.0,33.0,0.0
-6.0,-10.0,28.0,0.0
-9.0,-17.0,45.0,0.0
-8.0,-16.0,39.0,0.0
-6.0,-12.0,30.0,0.0
-9.0,-19.0,45.0,0.0
-9.0,-17.0,42.0,0.0
-10.0,-23.0,51.0,0.0
-13.0,-28.0,61.0,0.0
-10.0,-24.0,51.0,0.0
-10.0,-23.0,48.0,0.0
-10.0,-22.0,45.0,0.0
-12.0,-30.0,59.0,0.0
-11.0,-28.0,53.0,0.0
-14.0,-38.0,69.0,0.0
-12.0,-33.0,58.0,0.0
-16.0,-45.0,76.0,0.0
-14.0,-41.0,68.0,0.0
-16.0,-49.0,80.0,0.0
-14.0,-39.0,62.0,0.0
-17.0,-52.0,82.0,0.0
-16.0,-53.0,80.0,0.0
-17.0,-54.0,80.0,0.0
-16.0,-51.0,75.0,0.0
-18.0,-60.0,86.0,0.0
-18.0,-61.0,85.0,0.0
-20.0,-67.0,90.0,0.0
-20.0,-71.0,93.0,0.0
-19.0,-71.0,91.0,0.0
-19.0,-69.0,86.0,0.0
-22.0,-83.0,101.0,0.0
-21.0,-82.0,98.0,0.0
-22.0,-87.0,102.0,0.0
-21.0,-85.0,98.0,0.0
-22.0,-90.0,102.0,0.0
-22.0,-92.0,101.0,0.0
-20.0,-86.0,92.0,0.0
-21.0,-93.0,98.0,0.0
-21.0,-93.0,96.0,0.0
-22.0,-100.0,100.0,0.0
-23.0,-106.0,105.0,0.0
-23.0,-107.0,103.0,0.0
-22.0,-108.0,101.0,0.0
-23.0,-115.0,106.0,0.0
-23.0,-118.0,106.0,0.0
-23.0,-117.0,103.0,0.0
-23.0,-123.0,107.0,0.0
-23.0,-120.0,100.0,0.0
-24.0,-131.0,108.0,0.0
-22.0,-125.0,100.0,0.0
-23.0,-131.0,103.0,0.0
-22.0,-128.0,99.0,0.0
-24.0,-138.0,104.0,0.0
-23.0,-136.0,100.0,0.0
-23.0,-140.0,100.0,0.0
-23.0,-146.0,102.0,0.0
-22.0,-141.0,96.0,0.0
-23.0,-156.0,104.0,0.0
-22.0,-153.0,100.0,0.0
-22.0,-148.0,94.0,0.0
-23.0,-165.0,103.0,0.0
-22.0,-162.0,98.0,0.0
-23.0,-167.0,99.0,0.0
-22.0,-166.0,96.0,0.0
-21.0,-163.0,92.0,0.0
-21.0,-167.0,92.0,0.0
-20.0,-166.0,89.0,0.0
-20.0,-164.0,85.0,0.0
-20.0,-173.0,88.0,0.0
-20.0,-172.0,85.0,0.0
-19.0,-168.0,80.0,0.0
-19.0,-170.0,79.0,0.0
-19.0,-175.0,80.0,0.0
-18.0,-176.0,78.0,0.0
-18.0,-173.0,73.0,0.0
-18.0,-180.0,75.0,0.0
-18.0,-178.0,72.0,0.0
-18.0,-190.0,74.0,0.0
-22.0,-237.0,89.0,0.0
-25.0,-282.0,103.0,0.0
-25.0,-287.0,102.0,0.0
-25.0,-291.0,100.0,0.0
-24.0,-296.0,98.0,0.0
-23.0,-296.0,94.0,0.0
-22.0,-290.0,89.0,0.0
-22.0,-304.0,90.0,0.0
-1648.0,15581.0,14866.0,0.0
-1686.0,15376.0,14986.0,0.0
-3731.0,32841.0,32699.0,0.0
-3828.0,32536.0,33094.0,0.0
-3825.0,31409.0,32638.0,0.0
-2261.0,17948.0,19054.0,0.0
-2288.0,17556.0,19043.0,0.0
-2299.0,17063.0,18911.0,0.0
-2314.0,16620.0,18822.0,0.0
-2161.0,15020.0,17384.0,0.0
-2338.0,15730.0,18605.0,0.0
-2298.0,14977.0,18107.0,0.0
-2356.0,14875.0,18382.0,0.0
-2405.0,14706.0,18580.0,0.0
-2692.0,15951.0,20605.0,0.0
-2811.0,16144.0,21325.0,0.0
-2672.0,14865.0,20083.0,0.0
-2711.0,14621.0,20207.0,0.0
-2877.0,15039.0,21266.0,0.0
-2864.0,14513.0,20999.0,0.0
-2904.0,14265.0,21126.0,0.0
-4240.0,20188.0,30609.0,0.0
-4229.0,19520.0,30304.0,0.0
-4354.0,19476.0,30969.0,0.0
-4388.0,19022.0,30990.0,0.0
-3875.0,16280.0,27181.0,0.0
-4832.0,19668.0,33663.0,0.0
-3976.0,15682.0,27525.0,0.0
-4060.0,15507.0,27920.0,0.0
-4079.0,15088.0,27876.0,0.0
-3909.0,13999.0,26550.0,0.0
-3890.0,13485.0,26266.0,0.0
-3993.0,13392.0,26804.0,0.0
-3985.0,12927.0,26593.0,0.0
-4301.0,13489.0,28540.0,0.0
-3965.0,12021.0,26172.0,0.0
-4567.0,13376.0,29982.0,0.0
-4669.0,13205.0,30491.0,0.0
-4801.0,13106.0,31194.0,0.0
-4961.0,13064.0,32074.0,0.0
-5019.0,12738.0,32282.0,0.0
-5029.0,12299.0,32197.0,0.0
-3574.0,8411.0,22768.0,0.0
-3605.0,8162.0,22863.0,0.0
-3700.0,8052.0,23359.0,0.0
-3754.0,7843.0,23591.0,0.0
-3785.0,7585.0,23683.0,0.0
-3787.0,7272.0,23593.0,0.0
-3788.0,6961.0,23499.0,0.0
-3788.0,6655.0,23407.0,0.0
-3786.0,6348.0,23299.0,0.0
-3791.0,6056.0,23233.0,0.0
-3792.0,5763.0,23151.0,0.0
-3792.0,5471.0,23061.0,0.0
-3791.0,5181.0,22962.0,0.0
-3792.0,4899.0,22883.0,0.0
-3804.0,4635.0,22874.0,0.0
-3795.0,4346.0,22739.0,0.0
-3796.0,4074.0,22662.0,0.0
-3796.0,3803.0,22587.0,0.0
-3798.0,3536.0,22516.0,0.0
-3797.0,3271.0,22438.0,0.0
-3797.0,3008.0,22359.0,0.0
-3798.0,2750.0,22297.0,0.0
-3796.0,2491.0,22212.0,0.0
-3793.0,2233.0,22121.0,0.0
-3799.0,1984.0,22087.0,0.0
-3793.0,1730.0,21989.0,0.0
-3793.0,1481.0,21918.0,0.0
-3792.0,1234.0,21846.0,0.0
-3684.0,961.0,21165.0,0.0
-3772.0,742.0,21606.0,0.0
-3783.0,503.0,21611.0,0.0
-3693.0,257.0,21030.0,0.0
-3742.0,24.0,21252.0,0.0
-3730.0,-208.0,21127.0,0.0
-3780.0,-447.0,21351.0,0.0
-3774.0,-680.0,21255.0,0.0
-3668.0,-888.0,20607.0,0.0
-3775.0,-1146.0,21153.0,0.0
-3772.0,-1376.0,21085.0,0.0
-3746.0,-1596.0,20880.0,0.0
-3765.0,-1833.0,20936.0,0.0
-3764.0,-2061.0,20881.0,0.0
-3761.0,-2288.0,20813.0,0.0
-3760.0,-2515.0,20758.0,0.0
-3754.0,-2737.0,20673.0,0.0
-3752.0,-2961.0,20609.0,0.0
-3754.0,-3189.0,20577.0,0.0
-3746.0,-3409.0,20486.0,0.0
-5.0,-5.0,31.0,0.0
-3741.0,-3853.0,20361.0,0.0
-7.0,-8.0,37.0,0.0
-5.0,-6.0,24.0,0.0
-5.0,-5.0,23.0,0.0
-5.0,-6.0,26.0,0.0
-5.0,-6.0,27.0,0.0
-5.0,-7.0,31.0,0.0
-8.0,-10.0,40.0,0.0
-4.0,-5.0,19.0,0.0
-7.0,-10.0,38.0,0.0
-5.0,-6.0,23.0,0.0
-7.0,-11.0,38.0,0.0
-5.0,-9.0,29.0,0.0
-8.0,-15.0,45.0,0.0
-7.0,-12.0,35.0,0.0
-7.0,-13.0,38.0,0.0
-7.0,-13.0,35.0,0.0
-8.0,-15.0,42.0,0.0
-9.0,-19.0,47.0,0.0
-8.0,-15.0,38.0,0.0
-9.0,-20.0,47.0,0.0
-8.0,-19.0,43.0,0.0
-10.0,-23.0,51.0,0.0
-10.0,-26.0,56.0,0.0
-13.0,-32.0,66.0,0.0
-10.0,-25.0,50.0,0.0
-14.0,-36.0,73.0,0.0
-10.0,-26.0,50.0,0.0
-11.0,-30.0,56.0,0.0
-15.0,-43.0,77.0,0.0
-16.0,-44.0,79.0,0.0
-13.0,-39.0,67.0,0.0
-13.0,-39.0,65.0,0.0
-13.0,-42.0,69.0,0.0
-13.0,-43.0,68.0,0.0
-16.0,-52.0,82.0,0.0
-18.0,-59.0,89.0,0.0
-17.0,-57.0,85.0,0.0
-16.0,-55.0,80.0,0.0
-15.0,-52.0,75.0,0.0
-18.0,-63.0,87.0,0.0
-20.0,-73.0,98.0,0.0
-18.0,-70.0,93.0,0.0
-19.0,-74.0,96.0,0.0
-21.0,-84.0,106.0,0.0
-21.0,-85.0,105.0,0.0
-19.0,-81.0,98.0,0.0
-20.0,-83.0,99.0,0.0
-21.0,-91.0,105.0,0.0
-21.0,-96.0,108.0,0.0
-21.0,-94.0,104.0,0.0
-21.0,-99.0,106.0,0.0
-21.0,-102.0,107.0,0.0
-21.0,-102.0,105.0,0.0
-22.0,-107.0,108.0,0.0
-22.0,-109.0,107.0,0.0
-22.0,-113.0,109.0,0.0
-20.0,-101.0,95.0,0.0
-21.0,-111.0,102.0,0.0
-21.0,-115.0,104.0,0.0
-22.0,-120.0,106.0,0.0
-22.0,-126.0,108.0,0.0
-23.0,-132.0,111.0,0.0
-21.0,-128.0,106.0,0.0
-22.0,-132.0,106.0,0.0
-23.0,-137.0,109.0,0.0
-24.0,-149.0,115.0,0.0
-23.0,-143.0,108.0,0.0
-23.0,-150.0,111.0,0.0
-22.0,-143.0,103.0,0.0
-22.0,-147.0,103.0,0.0
-22.0,-154.0,106.0,0.0
-21.0,-151.0,101.0,0.0
-21.0,-155.0,101.0,0.0
-21.0,-162.0,103.0,0.0
-22.0,-168.0,105.0,0.0
-21.0,-165.0,101.0,0.0
-21.0,-171.0,102.0,0.0
-20.0,-168.0,97.0,0.0
-21.0,-175.0,99.0,0.0
-20.0,-174.0,97.0,0.0
-20.0,-175.0,94.0,0.0
-19.0,-175.0,91.0,0.0
-18.0,-171.0,87.0,0.0
-19.0,-177.0,88.0,0.0
-18.0,-179.0,86.0,0.0
-17.0,-171.0,80.0,0.0
-17.0,-176.0,80.0,0.0
-16.0,-178.0,79.0,0.0
-16.0,-180.0,77.0,0.0
-17.0,-193.0,80.0,0.0
-16.0,-183.0,74.0,0.0
-17.0,-197.0,77.0,0.0
-19.0,-240.0,91.0,0.0
-23.0,-286.0,105.0,0.0
-22.0,-284.0,101.0,0.0
-22.0,-289.0,99.0,0.0
-21.0,-300.0,100.0,0.0
-21.0,-294.0,94.0,0.0
-20.0,-298.0,92.0,0.0
-19.0,-304.0,91.0,0.0
-1446.0,15456.0,14790.0,0.0
-1483.0,15254.0,14910.0,0.0
-1812.0,17943.0,17916.0,0.0
-1871.0,17840.0,18198.0,0.0
-1842.0,16932.0,17644.0,0.0
-1885.0,16704.0,17784.0,0.0
-1891.0,16170.0,17589.0,0.0
-1910.0,15766.0,17524.0,0.0
-1914.0,15258.0,17330.0,0.0
-2093.0,16119.0,18707.0,0.0
-2112.0,15725.0,18652.0,0.0
-2126.0,15300.0,18548.0,0.0
-2140.0,14891.0,18454.0,0.0
-2558.0,17219.0,21816.0,0.0
-3687.0,24014.0,31108.0,0.0
-2417.0,15238.0,20186.0,0.0
-2561.0,15625.0,21169.0,0.0
-2610.0,15416.0,21365.0,0.0
-2623.0,15001.0,21271.0,0.0
-2641.0,14619.0,21213.0,0.0
-2664.0,14276.0,21203.0,0.0
-3871.0,20093.0,30552.0,0.0
-3946.0,19832.0,30878.0,0.0
-3989.0,19412.0,30956.0,0.0
-4385.0,20659.0,33753.0,0.0
-3557.0,16227.0,27170.0,0.0
-3648.0,16110.0,27654.0,0.0
-3730.0,15941.0,28060.0,0.0
-3696.0,15291.0,27610.0,0.0
-3753.0,15024.0,27838.0,0.0
-3590.0,13905.0,26451.0,0.0
-3766.0,14108.0,27562.0,0.0
-3727.0,13496.0,27092.0,0.0
-3748.0,13119.0,27070.0,0.0
-3844.0,13003.0,27594.0,0.0
-3834.0,12525.0,27351.0,0.0
-3819.0,12046.0,27083.0,0.0
-3817.0,11619.0,26911.0,0.0
-4503.0,13222.0,31567.0,0.0
-4568.0,12930.0,31845.0,0.0
-4654.0,12690.0,32263.0,0.0
-4663.0,12244.0,32157.0,0.0
-3324.0,8398.0,22805.0,0.0
-3408.0,8278.0,23262.0,0.0
-3462.0,8078.0,23513.0,0.0
-3506.0,7851.0,23693.0,0.0
-3519.0,7555.0,23670.0,0.0
-3522.0,7242.0,23576.0,0.0
-3526.0,6935.0,23493.0,0.0
-3529.0,6629.0,23403.0,0.0
-3531.0,6329.0,23317.0,0.0
-3534.0,6034.0,23235.0,0.0
-3535.0,5740.0,23145.0,0.0
-3536.0,5449.0,23054.0,0.0
-3540.0,5166.0,22987.0,0.0
-3543.0,4886.0,22912.0,0.0
-3545.0,4607.0,22830.0,0.0
-3550.0,4336.0,22776.0,0.0
-3544.0,4054.0,22652.0,0.0
-3549.0,3788.0,22599.0,0.0
-3548.0,3519.0,22511.0,0.0
-3553.0,3258.0,22455.0,0.0
-3551.0,2993.0,22362.0,0.0
-3547.0,2731.0,22265.0,0.0
-3552.0,2477.0,22213.0,0.0
-3551.0,2221.0,22135.0,0.0
-3554.0,1970.0,22078.0,0.0
-3550.0,1717.0,21980.0,0.0
-3545.0,1467.0,21885.0,0.0
-3519.0,1212.0,21652.0,0.0
-3447.0,950.0,21145.0,0.0
-3487.0,722.0,21326.0,0.0
-3487.0,485.0,21262.0,0.0
-3460.0,248.0,21038.0,0.0
-3467.0,15.0,21019.0,0.0
-3483.0,-216.0,21053.0,0.0
-3540.0,-455.0,21337.0,0.0
-3527.0,-686.0,21197.0,0.0
-3516.0,-915.0,21072.0,0.0
-3539.0,-1152.0,21154.0,0.0
-3538.0,-1383.0,21088.0,0.0
-3510.0,-1600.0,20872.0,0.0
-3532.0,-1839.0,20950.0,0.0
-3533.0,-2068.0,20901.0,0.0
-3532.0,-2294.0,20837.0,0.0
-3530.0,-2520.0,20781.0,0.0
-3525.0,-2743.0,20695.0,0.0
-3520.0,-2965.0,20616.0,0.0
-3519.0,-3190.0,20565.0,0.0
-3516.0,-3412.0,20502.0,0.0
-3513.0,-3633.0,20434.0,0.0
-3513.0,-3859.0,20391.0,0.0
-7.0,-8.0,40.0,0.0
-5.0,-6.0,28.0,0.0
-4.0,-5.0,22.0,0.0
-3505.0,-4748.0,20165.0,0.0
-2.0,-3.0,13.0,0.0
-8.0,-11.0,45.0,0.0
-7.0,-9.0,36.0,0.0
-4.0,-6.0,24.0,0.0
-4.0,-5.0,21.0,0.0
-3.0,-5.0,17.0,0.0
-7.0,-12.0,41.0,0.0
-8.0,-13.0,43.0,0.0
-6.0,-11.0,33.0,0.0
-6.0,-12.0,36.0,0.0
-6.0,-13.0,38.0,0.0
-8.0,-16.0,43.0,0.0
-7.0,-15.0,39.0,0.0
-8.0,-19.0,49.0,0.0
-10.0,-23.0,55.0,0.0
-7.0,-15.0,38.0,0.0
-8.0,-21.0,48.0,0.0
-7.0,-18.0,40.0,0.0
-8.0,-20.0,43.0,0.0
-8.0,-22.0,47.0,0.0
-9.0,-25.0,51.0,0.0
-8.0,-24.0,46.0,0.0
-12.0,-37.0,71.0,0.0
-12.0,-35.0,66.0,0.0
-13.0,-37.0,67.0,0.0
-12.0,-35.0,63.0,0.0
-12.0,-38.0,65.0,0.0
-11.0,-35.0,59.0,0.0
-13.0,-40.0,67.0,0.0
-15.0,-48.0,77.0,0.0
-15.0,-52.0,81.0,0.0
-13.0,-46.0,70.0,0.0
-18.0,-67.0,101.0,0.0
-16.0,-58.0,85.0,0.0
-17.0,-67.0,94.0,0.0
-18.0,-72.0,101.0,0.0
-17.0,-71.0,97.0,0.0
-15.0,-61.0,80.0,0.0
-18.0,-74.0,95.0,0.0
-18.0,-78.0,99.0,0.0
-18.0,-77.0,96.0,0.0
-17.0,-78.0,94.0,0.0
-17.0,-79.0,93.0,0.0
-21.0,-95.0,110.0,0.0
-18.0,-86.0,97.0,0.0
-18.0,-91.0,101.0,0.0
-20.0,-97.0,105.0,0.0
-19.0,-92.0,98.0,0.0
-18.0,-93.0,96.0,0.0
-18.0,-96.0,98.0,0.0
-20.0,-109.0,108.0,0.0
-21.0,-119.0,116.0,0.0
-20.0,-115.0,109.0,0.0
-20.0,-116.0,107.0,0.0
-19.0,-110.0,100.0,0.0
-18.0,-110.0,97.0,0.0
-18.0,-116.0,100.0,0.0
-19.0,-120.0,101.0,0.0
-19.0,-118.0,97.0,0.0
-19.0,-131.0,106.0,0.0
-20.0,-134.0,106.0,0.0
-20.0,-139.0,108.0,0.0
-21.0,-142.0,108.0,0.0
-19.0,-135.0,100.0,0.0
-19.0,-142.0,102.0,0.0
-19.0,-145.0,102.0,0.0
-19.0,-144.0,99.0,0.0
-20.0,-160.0,108.0,0.0
-18.0,-145.0,95.0,0.0
-19.0,-158.0,102.0,0.0
-20.0,-173.0,109.0,0.0
-18.0,-162.0,99.0,0.0
-18.0,-161.0,95.0,0.0
-20.0,-175.0,102.0,0.0
-19.0,-175.0,100.0,0.0
-18.0,-173.0,95.0,0.0
-18.0,-169.0,91.0,0.0
-17.0,-167.0,88.0,0.0
-16.0,-172.0,89.0,0.0
-16.0,-170.0,85.0,0.0
-15.0,-167.0,81.0,0.0
-15.0,-168.0,79.0,0.0
-15.0,-171.0,78.0,0.0
-15.0,-175.0,78.0,0.0
-14.0,-175.0,76.0,0.0
-14.0,-177.0,74.0,0.0
-14.0,-187.0,76.0,0.0
-14.0,-192.0,76.0,0.0
-16.0,-221.0,84.0,0.0
-19.0,-274.0,102.0,0.0
-19.0,-284.0,101.0,0.0
-19.0,-289.0,100.0,0.0
-19.0,-298.0,100.0,0.0
-18.0,-301.0,97.0,0.0
-17.0,-305.0,94.0,0.0
-17.0,-309.0,92.0,0.0
-1249.0,15369.0,14745.0,0.0
-1285.0,15154.0,14852.0,0.0
-2866.0,32427.0,32467.0,0.0
-2977.0,32336.0,33074.0,0.0
-3021.0,31547.0,32963.0,0.0
-2979.0,29907.0,31927.0,0.0
-1804.0,17429.0,19010.0,0.0
-1809.0,16825.0,18750.0,0.0
-1835.0,16447.0,18729.0,0.0
-1868.0,16136.0,18779.0,0.0
-1876.0,15628.0,18588.0,0.0
-1897.0,15248.0,18536.0,0.0
-1918.0,14879.0,18490.0,0.0
-2306.0,17271.0,21941.0,0.0
-3316.0,23994.0,31165.0,0.0
-2176.0,15207.0,20199.0,0.0
-2309.0,15593.0,21183.0,0.0
-2357.0,15385.0,21381.0,0.0
-2374.0,14980.0,21299.0,0.0
-2367.0,14441.0,21011.0,0.0
-2414.0,14241.0,21209.0,0.0
-3512.0,20039.0,30552.0,0.0
-3577.0,19739.0,30816.0,0.0
-3616.0,19298.0,30858.0,0.0
-3989.0,20590.0,33734.0,0.0
-4019.0,20062.0,33685.0,0.0
-4044.0,19519.0,33597.0,0.0
-3363.0,15695.0,27703.0,0.0
-3459.0,15609.0,28263.0,0.0
-3435.0,14986.0,27844.0,0.0
-3440.0,14508.0,27675.0,0.0
-3459.0,14094.0,27612.0,0.0
-3479.0,13695.0,27570.0,0.0
-3497.0,13296.0,27514.0,0.0
-3506.0,12868.0,27387.0,0.0
-3525.0,12491.0,27356.0,0.0
-3448.0,11787.0,26576.0,0.0
-3548.0,11694.0,27164.0,0.0
-4123.0,13102.0,31375.0,0.0
-4229.0,12945.0,31978.0,0.0
-4293.0,12657.0,32273.0,0.0
-4319.0,12252.0,32275.0,0.0
-3065.0,8359.0,22769.0,0.0
-3139.0,8226.0,23187.0,0.0
-3153.0,7934.0,23165.0,0.0
-3164.0,7634.0,23112.0,0.0
-3173.0,7338.0,23062.0,0.0
-3168.0,7013.0,22903.0,0.0
-3171.0,6710.0,22807.0,0.0
-3242.0,6551.0,23201.0,0.0
-3230.0,6223.0,23004.0,0.0
