//X,Y,Z,Classification
51.0,38.0,90.0,0.0
52.0,40.0,91.0,0.0
51.0,41.0,90.0,0.0
49.0,39.0,85.0,0.0
52.0,45.0,92.0,0.0
51.0,44.0,90.0,0.0
49.0,44.0,86.0,0.0
56.0,51.0,98.0,0.0
50.0,47.0,88.0,0.0
52.0,51.0,92.0,0.0
57.0,56.0,99.0,0.0
57.0,58.0,100.0,0.0
58.0,61.0,101.0,0.0
58.0,62.0,100.0,0.0
59.0,66.0,104.0,0.0
61.0,70.0,107.0,0.0
59.0,68.0,102.0,0.0
60.0,72.0,105.0,0.0
62.0,75.0,107.0,0.0
60.0,76.0,105.0,0.0
60.0,78.0,105.0,0.0
63.0,83.0,111.0,0.0
65.0,88.0,113.0,0.0
64.0,88.0,110.0,0.0
65.0,92.0,113.0,0.0
65.0,93.0,112.0,0.0
68.0,99.0,117.0,0.0
70.0,104.0,120.0,0.0
68.0,105.0,117.0,0.0
69.0,108.0,119.0,0.0
70.0,112.0,120.0,0.0
69.0,112.0,119.0,0.0
70.0,117.0,121.0,0.0
71.0,121.0,121.0,0.0
72.0,126.0,123.0,0.0
71.0,126.0,121.0,0.0
72.0,131.0,123.0,0.0
76.0,142.0,131.0,0.0
76.0,142.0,128.0,0.0
76.0,146.0,129.0,0.0
74.0,145.0,125.0,0.0
79.0,158.0,132.0,0.0
77.0,157.0,130.0,0.0
75.0,156.0,126.0,0.0
75.0,159.0,125.0,0.0
110.0,-307.0,64.0,0.0
103.0,-281.0,61.0,0.0
102.0,-276.0,64.0,0.0
102.0,-272.0,66.0,0.0
100.0,-262.0,66.0,0.0
101.0,-261.0,69.0,0.0
98.0,-252.0,70.0,0.0
100.0,-253.0,74.0,0.0
101.0,-252.0,76.0,0.0
103.0,-254.0,79.0,0.0
102.0,-248.0,81.0,0.0
102.0,-245.0,82.0,0.0
104.0,-247.0,87.0,0.0
105.0,-244.0,88.0,0.0
104.0,-240.0,89.0,0.0
106.0,-241.0,94.0,0.0
111.0,-248.0,98.0,0.0
110.0,-243.0,101.0,0.0
114.0,-248.0,106.0,0.0
114.0,-245.0,108.0,0.0
110.0,-233.0,105.0,0.0
115.0,-241.0,113.0,0.0
117.0,-240.0,115.0,0.0
113.0,-230.0,114.0,0.0
116.0,-234.0,119.0,0.0
118.0,-233.0,122.0,0.0
119.0,-231.0,124.0,0.0
126.0,-245.0,135.0,0.0
133.0,-252.0,143.0,0.0
132.0,-246.0,144.0,0.0
127.0,-234.0,140.0,0.0
126.0,-229.0,141.0,0.0
123.0,-221.0,139.0,0.0
111.0,-197.0,128.0,0.0
114.0,-199.0,132.0,0.0
107.0,-184.0,125.0,0.0
102.0,-172.0,120.0,0.0
93.0,-154.0,110.0,0.0
99.0,-162.0,120.0,0.0
88.0,-143.0,108.0,0.0
84.0,-134.0,103.0,0.0
73.0,-115.0,91.0,0.0
75.0,-114.0,93.0,0.0
72.0,-110.0,91.0,0.0
65.0,-98.0,83.0,0.0
72.0,-106.0,93.0,0.0
14524.0,-20980.0,18684.0,0.0
14829.0,-21076.0,19224.0,0.0
15193.0,-21245.0,19848.0,0.0
15910.0,-21883.0,20939.0,1.0
1089.0,-1474.0,1445.0,0.0
4789.0,-6370.0,6394.0,0.0
4807.0,-6286.0,6464.0,0.0
4881.0,-6274.0,6609.0,0.0
1100.0,-1390.0,1500.0,0.0
15972.0,-19814.0,21908.0,1.0
4821.0,-5874.0,6655.0,0.0
4813.0,-5758.0,6685.0,0.0
4808.0,-5647.0,6720.0,0.0
4811.0,-5546.0,6764.0,0.0
4808.0,-5438.0,6800.0,0.0
4820.0,-5347.0,6856.0,0.0
4807.0,-5229.0,6875.0,0.0
4812.0,-5130.0,6921.0,0.0
4800.0,-5015.0,6941.0,0.0
6791.0,-6951.0,9873.0,0.0
6829.0,-6844.0,9980.0,0.0
6849.0,-6719.0,10059.0,0.0
4821.0,-4627.0,7116.0,0.0
4827.0,-4530.0,7159.0,0.0
6811.0,-6250.0,10151.0,0.0
6834.0,-6128.0,10232.0,0.0
6854.0,-6001.0,10308.0,0.0
1121.0,-958.0,1695.0,0.0
15724.0,-13113.0,23862.0,1.0
15686.0,-12754.0,23907.0,1.0
15689.0,-12430.0,24012.0,1.0
15744.0,-12148.0,24197.0,1.0
15752.0,-11827.0,24307.0,1.0
7236.0,-5283.0,11211.0,0.0
15759.0,-11181.0,24512.0,1.0
15736.0,-10841.0,24572.0,1.0
15708.0,-10497.0,24619.0,1.0
15692.0,-10163.0,24685.0,1.0
15727.0,-9863.0,24831.0,1.0
15687.0,-9515.0,24856.0,1.0
15689.0,-9194.0,24945.0,1.0
15645.0,-8847.0,24961.0,1.0
15672.0,-8540.0,25089.0,1.0
15593.0,-8177.0,25044.0,1.0
15697.0,-7908.0,25292.0,1.0
15683.0,-7580.0,25350.0,1.0
15766.0,-7295.0,25562.0,1.0
15801.0,-6987.0,25698.0,1.0
15834.0,-6677.0,25828.0,1.0
15856.0,-6360.0,25940.0,1.0
15849.0,-6031.0,26004.0,1.0
1133.0,-408.0,1864.0,0.0
15796.0,-5361.0,26060.0,1.0
15820.0,-5042.0,26171.0,1.0
15776.0,-4702.0,26167.0,1.0
15745.0,-4367.0,26183.0,1.0
15742.0,-4040.0,26243.0,1.0
15675.0,-3699.0,26198.0,1.0
15662.0,-3370.0,26239.0,1.0
15669.0,-3045.0,26313.0,1.0
15602.0,-2706.0,26263.0,1.0
15627.0,-2385.0,26366.0,1.0
15622.0,-2056.0,26414.0,1.0
15631.0,-1730.0,26487.0,1.0
15642.0,-1401.0,26564.0,1.0
15674.0,-1074.0,26672.0,1.0
14061.0,-666.0,23978.0,1.0
17.0,0.0,31.0,0.0
11.0,0.0,19.0,0.0
11.0,0.0,19.0,0.0
21.0,0.0,37.0,0.0
24.0,0.0,42.0,0.0
24.0,1.0,43.0,0.0
24.0,2.0,43.0,0.0
25.0,2.0,44.0,0.0
20.0,3.0,36.0,0.0
30.0,4.0,54.0,0.0
28.0,4.0,48.0,0.0
24.0,4.0,43.0,0.0
30.0,6.0,52.0,0.0
31.0,8.0,55.0,0.0
31.0,8.0,55.0,0.0
37.0,10.0,66.0,0.0
35.0,11.0,63.0,0.0
35.0,11.0,61.0,0.0
41.0,15.0,73.0,0.0
41.0,15.0,72.0,0.0
43.0,17.0,76.0,0.0
57.0,24.0,101.0,0.0
51.0,23.0,91.0,0.0
50.0,24.0,89.0,0.0
44.0,22.0,79.0,0.0
51.0,26.0,91.0,0.0
42.0,23.0,75.0,0.0
53.0,30.0,93.0,0.0
49.0,30.0,89.0,0.0
52.0,33.0,94.0,0.0
53.0,35.0,95.0,0.0
46.0,31.0,83.0,0.0
50.0,35.0,90.0,0.0
44.0,32.0,79.0,0.0
54.0,40.0,97.0,0.0
50.0,40.0,91.0,0.0
48.0,38.0,86.0,0.0
48.0,41.0,87.0,0.0
48.0,42.0,87.0,0.0
48.0,42.0,87.0,0.0
53.0,47.0,94.0,0.0
53.0,49.0,94.0,0.0
53.0,52.0,96.0,0.0
54.0,53.0,96.0,0.0
56.0,56.0,99.0,0.0
55.0,57.0,99.0,0.0
55.0,58.0,99.0,0.0
55.0,61.0,100.0,0.0
55.0,63.0,100.0,0.0
58.0,67.0,103.0,0.0
57.0,69.0,103.0,0.0
57.0,70.0,102.0,0.0
55.0,69.0,99.0,0.0
59.0,75.0,106.0,0.0
61.0,80.0,109.0,0.0
62.0,83.0,111.0,0.0
63.0,86.0,113.0,0.0
62.0,88.0,112.0,0.0
62.0,89.0,110.0,0.0
63.0,92.0,112.0,0.0
61.0,93.0,110.0,0.0
68.0,104.0,120.0,0.0
65.0,102.0,115.0,0.0
67.0,108.0,120.0,0.0
67.0,110.0,119.0,0.0
68.0,113.0,120.0,0.0
69.0,117.0,121.0,0.0
71.0,125.0,126.0,0.0
74.0,131.0,129.0,0.0
72.0,130.0,126.0,0.0
73.0,134.0,127.0,0.0
73.0,138.0,129.0,0.0
74.0,141.0,128.0,0.0
75.0,147.0,130.0,0.0
75.0,150.0,130.0,0.0
74.0,152.0,129.0,0.0
77.0,160.0,133.0,0.0
74.0,157.0,127.0,0.0
76.0,164.0,130.0,0.0
103.0,-293.0,62.0,0.0
100.0,-283.0,63.0,0.0
99.0,-273.0,64.0,0.0
98.0,-268.0,66.0,0.0
96.0,-258.0,66.0,0.0
96.0,-256.0,69.0,0.0
97.0,-254.0,71.0,0.0
98.0,-255.0,74.0,0.0
94.0,-241.0,74.0,0.0
100.0,-251.0,80.0,0.0
97.0,-243.0,80.0,0.0
101.0,-247.0,84.0,0.0
100.0,-243.0,86.0,0.0
104.0,-248.0,91.0,0.0
104.0,-246.0,93.0,0.0
102.0,-237.0,92.0,0.0
105.0,-239.0,97.0,0.0
108.0,-244.0,102.0,0.0
107.0,-240.0,103.0,0.0
111.0,-245.0,109.0,0.0
110.0,-238.0,108.0,0.0
110.0,-237.0,111.0,0.0
114.0,-243.0,118.0,0.0
110.0,-230.0,114.0,0.0
112.0,-229.0,118.0,0.0
119.0,-242.0,128.0,0.0
119.0,-237.0,128.0,0.0
125.0,-246.0,137.0,0.0
125.0,-242.0,138.0,0.0
131.0,-249.0,147.0,0.0
130.0,-245.0,148.0,0.0
125.0,-231.0,144.0,0.0
119.0,-218.0,139.0,0.0
111.0,-200.0,130.0,0.0
108.0,-192.0,128.0,0.0
102.0,-179.0,123.0,0.0
97.0,-168.0,119.0,0.0
96.0,-164.0,118.0,0.0
86.0,-145.0,107.0,0.0
85.0,-140.0,106.0,0.0
83.0,-136.0,105.0,0.0
79.0,-127.0,101.0,0.0
76.0,-119.0,97.0,0.0
74.0,-115.0,96.0,0.0
13614.0,-20756.0,17728.0,0.0
13899.0,-20858.0,18245.0,0.0
14231.0,-21016.0,18828.0,0.0
14537.0,-21123.0,19381.0,0.0
1076.0,-1539.0,1446.0,0.0
15602.0,-21938.0,21112.0,1.0
15632.0,-21616.0,21304.0,1.0
4743.0,-6448.0,6509.0,0.0
4753.0,-6353.0,6569.0,0.0
4829.0,-6343.0,6718.0,0.0
1065.0,-1375.0,1492.0,0.0
15663.0,-19861.0,22073.0,1.0
4699.0,-5852.0,6664.0,0.0
4765.0,-5829.0,6800.0,0.0
4862.0,-5838.0,6980.0,0.0
7344.0,-8653.0,10606.0,0.0
6744.0,-7797.0,9795.0,0.0
6658.0,-7550.0,9727.0,0.0
6641.0,-7385.0,9755.0,0.0
4759.0,-5187.0,7028.0,0.0
6564.0,-7011.0,9745.0,0.0
5449.0,-5700.0,8132.0,0.0
6698.0,-6863.0,10048.0,0.0
5631.0,-5647.0,8489.0,0.0
4743.0,-4654.0,7186.0,0.0
4761.0,-4569.0,7248.0,0.0
4860.0,-4559.0,7434.0,0.0
6661.0,-6106.0,10234.0,0.0
6699.0,-5998.0,10341.0,0.0
6720.0,-5873.0,10418.0,0.0
6747.0,-5753.0,10507.0,0.0
6759.0,-5620.0,10570.0,0.0
6792.0,-5503.0,10667.0,0.0
15212.0,-12003.0,23986.0,1.0
15315.0,-11761.0,24246.0,1.0
7044.0,-5259.0,11195.0,0.0
7391.0,-5364.0,11793.0,0.0
15350.0,-10816.0,24584.0,1.0
15350.0,-10493.0,24676.0,1.0
15383.0,-10193.0,24820.0,1.0
15401.0,-9881.0,24939.0,1.0
15431.0,-9576.0,25077.0,1.0
15399.0,-9234.0,25112.0,1.0
15394.0,-8908.0,25187.0,1.0
15340.0,-8555.0,25183.0,1.0
15325.0,-8226.0,25240.0,1.0
15333.0,-7910.0,25335.0,1.0
15308.0,-7576.0,25372.0,1.0
15388.0,-7293.0,25583.0,1.0
15434.0,-6991.0,25738.0,1.0
15492.0,-6693.0,25912.0,1.0
15579.0,-6403.0,26132.0,1.0
15533.0,-6059.0,26130.0,1.0
15484.0,-5716.0,26120.0,1.0
15509.0,-5399.0,26234.0,1.0
15560.0,-5089.0,26390.0,1.0
15480.0,-4737.0,26326.0,1.0
15444.0,-4400.0,26332.0,1.0
15410.0,-4065.0,26341.0,1.0
15388.0,-3733.0,26367.0,1.0
15395.0,-3409.0,26444.0,1.0
15371.0,-3078.0,26464.0,1.0
15320.0,-2741.0,26439.0,1.0
15311.0,-2414.0,26485.0,1.0
1042.0,-142.0,1808.0,0.0
15347.0,-1763.0,26664.0,1.0
15359.0,-1435.0,26740.0,1.0
15384.0,-1106.0,26840.0,1.0
13783.0,-694.0,24096.0,1.0
12998.0,-374.0,22769.0,1.0
25.0,0.0,43.0,0.0
21.0,0.0,37.0,0.0
25.0,0.0,44.0,0.0
21.0,0.0,37.0,0.0
25.0,2.0,46.0,0.0
14.0,1.0,27.0,0.0
35.0,4.0,63.0,0.0
25.0,3.0,45.0,0.0
25.0,3.0,44.0,0.0
31.0,5.0,57.0,0.0
19.0,3.0,34.0,0.0
25.0,6.0,46.0,0.0
38.0,9.0,67.0,0.0
28.0,7.0,52.0,0.0
46.0,14.0,84.0,0.0
47.0,15.0,86.0,0.0
38.0,14.0,70.0,0.0
41.0,16.0,75.0,0.0
38.0,15.0,70.0,0.0
43.0,18.0,79.0,0.0
47.0,20.0,85.0,0.0
49.0,22.0,91.0,0.0
47.0,23.0,87.0,0.0
49.0,25.0,89.0,0.0
52.0,28.0,96.0,0.0
50.0,28.0,93.0,0.0
48.0,29.0,89.0,0.0
44.0,27.0,81.0,0.0
51.0,32.0,93.0,0.0
45.0,29.0,83.0,0.0
50.0,34.0,92.0,0.0
44.0,31.0,82.0,0.0
52.0,39.0,96.0,0.0
57.0,44.0,105.0,0.0
46.0,35.0,84.0,0.0
51.0,41.0,93.0,0.0
49.0,41.0,90.0,0.0
49.0,43.0,91.0,0.0
47.0,42.0,88.0,0.0
48.0,44.0,89.0,0.0
50.0,48.0,94.0,0.0
48.0,47.0,89.0,0.0
52.0,53.0,97.0,0.0
52.0,54.0,96.0,0.0
51.0,55.0,95.0,0.0
53.0,59.0,98.0,0.0
53.0,59.0,97.0,0.0
54.0,62.0,100.0,0.0
56.0,66.0,103.0,0.0
55.0,67.0,102.0,0.0
54.0,67.0,100.0,0.0
56.0,72.0,103.0,0.0
57.0,75.0,106.0,0.0
59.0,79.0,109.0,0.0
60.0,83.0,110.0,0.0
60.0,84.0,110.0,0.0
58.0,84.0,108.0,0.0
62.0,91.0,114.0,0.0
61.0,92.0,111.0,0.0
62.0,95.0,114.0,0.0
62.0,97.0,113.0,0.0
64.0,102.0,117.0,0.0
62.0,101.0,113.0,0.0
65.0,109.0,119.0,0.0
66.0,113.0,121.0,0.0
67.0,117.0,121.0,0.0
67.0,121.0,123.0,0.0
67.0,123.0,123.0,0.0
68.0,128.0,124.0,0.0
66.0,126.0,120.0,0.0
69.0,134.0,126.0,0.0
70.0,138.0,126.0,0.0
70.0,142.0,127.0,0.0
71.0,146.0,127.0,0.0
73.0,153.0,131.0,0.0
74.0,157.0,132.0,0.0
73.0,160.0,131.0,0.0
73.0,161.0,128.0,0.0
97.0,-281.0,61.0,0.0
93.0,-269.0,61.0,0.0
93.0,-266.0,63.0,0.0
94.0,-264.0,66.0,0.0
90.0,-250.0,66.0,0.0
92.0,-251.0,69.0,0.0
91.0,-246.0,70.0,0.0
93.0,-246.0,73.0,0.0
95.0,-249.0,77.0,0.0
94.0,-242.0,78.0,0.0
94.0,-239.0,79.0,0.0
99.0,-248.0,86.0,0.0
96.0,-238.0,86.0,0.0
99.0,-242.0,89.0,0.0
99.0,-238.0,91.0,0.0
100.0,-239.0,95.0,0.0
100.0,-236.0,97.0,0.0
102.0,-236.0,99.0,0.0
104.0,-238.0,104.0,0.0
107.0,-242.0,108.0,0.0
101.0,-224.0,104.0,0.0
107.0,-235.0,112.0,0.0
106.0,-230.0,113.0,0.0
108.0,-231.0,117.0,0.0
110.0,-231.0,119.0,0.0
112.0,-233.0,124.0,0.0
113.0,-231.0,127.0,0.0
124.0,-249.0,140.0,0.0
122.0,-242.0,140.0,0.0
123.0,-242.0,144.0,0.0
120.0,-233.0,143.0,0.0
115.0,-218.0,136.0,0.0
106.0,-199.0,127.0,0.0
112.0,-206.0,135.0,0.0
96.0,-175.0,118.0,0.0
104.0,-187.0,129.0,0.0
95.0,-168.0,118.0,0.0
92.0,-161.0,118.0,0.0
92.0,-158.0,117.0,0.0
85.0,-144.0,110.0,0.0
79.0,-133.0,104.0,0.0
66.0,-109.0,87.0,0.0
72.0,-116.0,95.0,0.0
69.0,-110.0,94.0,0.0
13322.0,-20775.0,17851.0,0.0
65.0,-101.0,88.0,0.0
13933.0,-21047.0,18965.0,0.0
14247.0,-21173.0,19538.0,0.0
1045.0,-1528.0,1444.0,0.0
15268.0,-21956.0,21247.0,1.0
1057.0,-1495.0,1482.0,0.0
4712.0,-6552.0,6650.0,0.0
4685.0,-6404.0,6656.0,0.0
4788.0,-6432.0,6848.0,0.0
15345.0,-20257.0,22087.0,1.0
15342.0,-19896.0,22223.0,1.0
15349.0,-19549.0,22370.0,1.0
4672.0,-5844.0,6851.0,0.0
4696.0,-5766.0,6927.0,0.0
4810.0,-5795.0,7136.0,0.0
6568.0,-7766.0,9802.0,0.0
6654.0,-7716.0,9983.0,0.0
5439.0,-6184.0,8206.0,0.0
4689.0,-5227.0,7114.0,0.0
6553.0,-7158.0,9992.0,0.0
6474.0,-6926.0,9921.0,0.0
6502.0,-6811.0,10015.0,0.0
6497.0,-6663.0,10058.0,0.0
6507.0,-6530.0,10122.0,0.0
4705.0,-4618.0,7353.0,0.0
4728.0,-4537.0,7424.0,0.0
6503.0,-6097.0,10257.0,0.0
6514.0,-5964.0,10321.0,0.0
6676.0,-5968.0,10624.0,0.0
6818.0,-5946.0,10896.0,0.0
6588.0,-5604.0,10574.0,0.0
6599.0,-5470.0,10636.0,0.0
6628.0,-5349.0,10725.0,0.0
6666.0,-5236.0,10830.0,0.0
6857.0,-5238.0,11183.0,0.0
7099.0,-5271.0,11624.0,0.0
14924.0,-10761.0,24527.0,1.0
14893.0,-10418.0,24565.0,1.0
14956.0,-10142.0,24760.0,1.0
14956.0,-9821.0,24849.0,1.0
15052.0,-9561.0,25094.0,1.0
15100.0,-9269.0,25260.0,1.0
15118.0,-8957.0,25376.0,1.0
15125.0,-8638.0,25472.0,1.0
15059.0,-8278.0,25444.0,1.0
14996.0,-7922.0,25415.0,1.0
15004.0,-7607.0,25510.0,1.0
15049.0,-7307.0,25664.0,1.0
15097.0,-7008.0,25823.0,1.0
15188.0,-6726.0,26055.0,1.0
1103.0,-464.0,1899.0,0.0
15250.0,-6100.0,26312.0,1.0
15228.0,-5766.0,26346.0,1.0
15243.0,-5444.0,26444.0,1.0
15185.0,-5098.0,26414.0,1.0
15154.0,-4761.0,26431.0,1.0
15128.0,-4428.0,26453.0,1.0
15142.0,-4106.0,26544.0,1.0
15127.0,-3775.0,26584.0,1.0
15136.0,-3451.0,26664.0,1.0
15065.0,-3108.0,26600.0,1.0
15014.0,-2772.0,26575.0,1.0
15047.0,-2451.0,26691.0,1.0
15042.0,-2123.0,26744.0,1.0
15022.0,-1792.0,26766.0,1.0
1059.0,-103.0,1892.0,0.0
15057.0,-1136.0,26942.0,1.0
13513.0,-722.0,24229.0,1.0
12.0,-1.0,23.0,0.0
17.0,0.0,31.0,0.0
18.0,0.0,34.0,0.0
14.0,0.0,25.0,0.0
20.0,0.0,38.0,0.0
21.0,1.0,38.0,0.0
23.0,1.0,42.0,0.0
26.0,2.0,48.0,0.0
17.0,2.0,32.0,0.0
29.0,4.0,54.0,0.0
23.0,4.0,44.0,0.0
19.0,4.0,35.0,0.0
23.0,4.0,43.0,0.0
25.0,6.0,46.0,0.0
33.0,9.0,62.0,0.0
37.0,12.0,70.0,0.0
33.0,10.0,62.0,0.0
38.0,13.0,71.0,0.0
25.0,9.0,49.0,0.0
36.0,14.0,67.0,0.0
35.0,15.0,65.0,0.0
31.0,13.0,59.0,0.0
40.0,19.0,75.0,0.0
44.0,22.0,83.0,0.0
44.0,23.0,84.0,0.0
42.0,22.0,78.0,0.0
46.0,26.0,88.0,0.0
44.0,26.0,83.0,0.0
46.0,28.0,86.0,0.0
45.0,30.0,86.0,0.0
41.0,27.0,78.0,0.0
51.0,36.0,98.0,0.0
42.0,30.0,79.0,0.0
43.0,33.0,82.0,0.0
45.0,35.0,87.0,0.0
48.0,39.0,90.0,0.0
48.0,41.0,92.0,0.0
41.0,36.0,80.0,0.0
46.0,41.0,87.0,0.0
43.0,40.0,82.0,0.0
44.0,42.0,85.0,0.0
44.0,43.0,85.0,0.0
44.0,45.0,85.0,0.0
47.0,48.0,88.0,0.0
49.0,52.0,93.0,0.0
49.0,53.0,92.0,0.0
50.0,56.0,96.0,0.0
49.0,56.0,94.0,0.0
52.0,61.0,98.0,0.0
50.0,60.0,95.0,0.0
54.0,67.0,103.0,0.0
52.0,66.0,98.0,0.0
53.0,69.0,101.0,0.0
53.0,70.0,99.0,0.0
53.0,73.0,102.0,0.0
55.0,77.0,104.0,0.0
54.0,77.0,101.0,0.0
56.0,81.0,105.0,0.0
54.0,81.0,102.0,0.0
57.0,87.0,108.0,0.0
57.0,90.0,109.0,0.0
58.0,93.0,110.0,0.0
60.0,97.0,113.0,0.0
60.0,101.0,112.0,0.0
61.0,104.0,113.0,0.0
63.0,110.0,118.0,0.0
62.0,110.0,116.0,0.0
62.0,114.0,117.0,0.0
63.0,119.0,119.0,0.0
64.0,122.0,120.0,0.0
66.0,126.0,122.0,0.0
67.0,134.0,126.0,0.0
69.0,138.0,128.0,0.0
67.0,138.0,124.0,0.0
66.0,139.0,121.0,0.0
68.0,145.0,125.0,0.0
70.0,152.0,128.0,0.0
68.0,152.0,126.0,0.0
66.0,152.0,122.0,0.0
92.0,-278.0,62.0,0.0
93.0,-277.0,64.0,0.0
90.0,-265.0,64.0,0.0
89.0,-256.0,66.0,0.0
90.0,-255.0,69.0,0.0
90.0,-255.0,71.0,0.0
89.0,-245.0,70.0,0.0
93.0,-253.0,77.0,0.0
90.0,-242.0,76.0,0.0
92.0,-243.0,79.0,0.0
94.0,-249.0,84.0,0.0
95.0,-245.0,85.0,0.0
96.0,-244.0,88.0,0.0
96.0,-242.0,91.0,0.0
96.0,-239.0,93.0,0.0
98.0,-241.0,96.0,0.0
101.0,-242.0,100.0,0.0
98.0,-232.0,99.0,0.0
103.0,-243.0,107.0,0.0
104.0,-240.0,109.0,0.0
104.0,-235.0,110.0,0.0
107.0,-240.0,116.0,0.0
110.0,-245.0,121.0,0.0
107.0,-232.0,118.0,0.0
108.0,-233.0,122.0,0.0
108.0,-230.0,123.0,0.0
114.0,-239.0,131.0,0.0
118.0,-243.0,138.0,0.0
120.0,-245.0,143.0,0.0
116.0,-233.0,139.0,0.0
116.0,-230.0,141.0,0.0
112.0,-217.0,137.0,0.0
112.0,-215.0,139.0,0.0
96.0,-183.0,121.0,0.0
95.0,-178.0,121.0,0.0
92.0,-169.0,118.0,0.0
88.0,-161.0,114.0,0.0
80.0,-144.0,105.0,0.0
83.0,-146.0,110.0,0.0
77.0,-133.0,102.0,0.0
62.0,-107.0,84.0,0.0
72.0,-122.0,98.0,0.0
13794.0,-22718.0,18723.0,0.0
70.0,-114.0,96.0,0.0
13034.0,-20801.0,17978.0,0.0
13338.0,-20950.0,18542.0,0.0
13615.0,-21045.0,19072.0,0.0
13904.0,-21145.0,19622.0,0.0
14961.0,-22383.0,21268.0,1.0
14977.0,-22039.0,21442.0,1.0
14976.0,-21672.0,21590.0,1.0
4607.0,-6554.0,6687.0,0.0
4640.0,-6490.0,6780.0,0.0
4727.0,-6498.0,6953.0,0.0
15059.0,-20338.0,22288.0,1.0
15049.0,-19967.0,22412.0,1.0
15049.0,-19612.0,22549.0,1.0
6488.0,-8302.0,9780.0,0.0
4635.0,-5822.0,7028.0,0.0
4652.0,-5735.0,7093.0,0.0
4721.0,-5711.0,7241.0,0.0
4768.0,-5657.0,7351.0,0.0
4651.0,-5412.0,7212.0,0.0
6310.0,-7197.0,9834.0,0.0
6326.0,-7069.0,9909.0,0.0
6327.0,-6926.0,9963.0,0.0
6329.0,-6785.0,10015.0,0.0
6336.0,-6649.0,10076.0,0.0
6328.0,-6497.0,10110.0,0.0
4638.0,-4657.0,7445.0,0.0
4652.0,-4566.0,7500.0,0.0
4735.0,-4542.0,7669.0,0.0
6362.0,-5961.0,10351.0,0.0
6839.0,-6256.0,11175.0,0.0
6818.0,-6085.0,11188.0,0.0
6760.0,-5883.0,11138.0,0.0
6446.0,-5467.0,10664.0,0.0
6473.0,-5347.0,10753.0,0.0
6501.0,-5227.0,10843.0,0.0
6575.0,-5141.0,11007.0,0.0
6862.0,-5215.0,11532.0,0.0
14681.0,-10835.0,24762.0,1.0
14717.0,-10539.0,24914.0,1.0
14686.0,-10195.0,24952.0,1.0
14627.0,-9834.0,24939.0,1.0
14638.0,-9522.0,25044.0,1.0
14633.0,-9198.0,25120.0,1.0
14619.0,-8869.0,25179.0,1.0
14695.0,-8595.0,25395.0,1.0
14772.0,-8318.0,25609.0,1.0
14776.0,-7999.0,25698.0,1.0
14721.0,-7647.0,25682.0,1.0
14706.0,-7318.0,25732.0,1.0
14784.0,-7035.0,25946.0,1.0
14829.0,-6732.0,26103.0,1.0
14852.0,-6419.0,26219.0,1.0
14920.0,-6121.0,26411.0,1.0
14934.0,-5802.0,26510.0,1.0
14897.0,-5461.0,26515.0,1.0
14894.0,-5134.0,26581.0,1.0
14844.0,-4791.0,26561.0,1.0
14840.0,-4464.0,26621.0,1.0
14830.0,-4135.0,26671.0,1.0
14811.0,-3804.0,26703.0,1.0
14784.0,-3471.0,26720.0,1.0
14793.0,-3146.0,26798.0,1.0
14742.0,-2809.0,26769.0,1.0
14774.0,-2487.0,26887.0,1.0
14729.0,-2152.0,26865.0,1.0
14758.0,-1827.0,26978.0,1.0
14742.0,-1496.0,27006.0,1.0
12.0,-1.0,23.0,0.0
1048.0,-59.0,1928.0,0.0
12501.0,-426.0,23042.0,1.0
12201.0,-140.0,22533.0,1.0
12.0,0.0,24.0,0.0
14.0,0.0,27.0,0.0
16.0,0.0,30.0,0.0
18.0,0.0,33.0,0.0
24.0,1.0,46.0,0.0
24.0,2.0,46.0,0.0
22.0,2.0,42.0,0.0
26.0,4.0,49.0,0.0
18.0,3.0,34.0,0.0
27.0,5.0,51.0,0.0
30.0,6.0,56.0,0.0
26.0,6.0,52.0,0.0
38.0,10.0,73.0,0.0
24.0,7.0,46.0,0.0
28.0,9.0,55.0,0.0
39.0,14.0,74.0,0.0
39.0,15.0,75.0,0.0
47.0,18.0,90.0,0.0
36.0,16.0,70.0,0.0
39.0,17.0,76.0,0.0
41.0,20.0,79.0,0.0
41.0,20.0,81.0,0.0
39.0,21.0,76.0,0.0
45.0,24.0,87.0,0.0
40.0,23.0,77.0,0.0
46.0,28.0,89.0,0.0
44.0,28.0,86.0,0.0
44.0,29.0,86.0,0.0
42.0,29.0,82.0,0.0
44.0,32.0,86.0,0.0
42.0,31.0,83.0,0.0
46.0,35.0,89.0,0.0
44.0,35.0,85.0,0.0
42.0,35.0,83.0,0.0
42.0,36.0,82.0,0.0
42.0,37.0,82.0,0.0
49.0,45.0,96.0,0.0
45.0,42.0,87.0,0.0
45.0,43.0,87.0,0.0
44.0,44.0,86.0,0.0
46.0,47.0,89.0,0.0
43.0,46.0,86.0,0.0
45.0,49.0,87.0,0.0
45.0,50.0,87.0,0.0
50.0,57.0,97.0,0.0
48.0,56.0,94.0,0.0
45.0,55.0,88.0,0.0
49.0,60.0,96.0,0.0
51.0,65.0,101.0,0.0
49.0,63.0,95.0,0.0
51.0,68.0,100.0,0.0
54.0,74.0,105.0,0.0
54.0,75.0,104.0,0.0
54.0,77.0,106.0,0.0
53.0,77.0,103.0,0.0
55.0,81.0,106.0,0.0
55.0,84.0,107.0,0.0
53.0,81.0,102.0,0.0
56.0,89.0,108.0,0.0
55.0,90.0,107.0,0.0
56.0,94.0,109.0,0.0
58.0,98.0,112.0,0.0
59.0,103.0,114.0,0.0
62.0,110.0,118.0,0.0
60.0,110.0,116.0,0.0
61.0,115.0,118.0,0.0
63.0,118.0,120.0,0.0
61.0,120.0,118.0,0.0
62.0,124.0,119.0,0.0
65.0,131.0,124.0,0.0
67.0,138.0,128.0,0.0
64.0,134.0,122.0,0.0
66.0,143.0,126.0,0.0
68.0,150.0,129.0,0.0
67.0,150.0,127.0,0.0
65.0,148.0,124.0,0.0
66.0,153.0,124.0,0.0
86.0,-266.0,60.0,0.0
88.0,-271.0,63.0,0.0
86.0,-260.0,64.0,0.0
84.0,-250.0,65.0,0.0
85.0,-249.0,67.0,0.0
87.0,-249.0,70.0,0.0
85.0,-243.0,70.0,0.0
85.0,-239.0,74.0,0.0
83.0,-231.0,74.0,0.0
89.0,-241.0,79.0,0.0
89.0,-239.0,81.0,0.0
91.0,-241.0,85.0,0.0
92.0,-242.0,89.0,0.0
89.0,-230.0,87.0,0.0
93.0,-236.0,92.0,0.0
99.0,-247.0,100.0,0.0
96.0,-238.0,99.0,0.0
96.0,-235.0,101.0,0.0
102.0,-246.0,109.0,0.0
99.0,-234.0,108.0,0.0
99.0,-233.0,109.0,0.0
101.0,-232.0,113.0,0.0
104.0,-237.0,119.0,0.0
104.0,-234.0,120.0,0.0
104.0,-229.0,121.0,0.0
103.0,-224.0,121.0,0.0
115.0,-247.0,138.0,0.0
117.0,-246.0,141.0,0.0
119.0,-248.0,146.0,0.0
112.0,-230.0,139.0,0.0
105.0,-214.0,132.0,0.0
107.0,-214.0,136.0,0.0
100.0,-197.0,128.0,0.0
98.0,-191.0,127.0,0.0
93.0,-179.0,123.0,0.0
88.0,-164.0,116.0,0.0
84.0,-155.0,111.0,0.0
73.0,-134.0,99.0,0.0
75.0,-137.0,103.0,0.0
66.0,-118.0,92.0,0.0
66.0,-116.0,92.0,0.0
62.0,-106.0,86.0,0.0
62.0,-105.0,87.0,0.0
12581.0,-20887.0,17732.0,0.0
12744.0,-20826.0,18103.0,0.0
13036.0,-20965.0,18659.0,0.0
13298.0,-21044.0,19176.0,0.0
13605.0,-21183.0,19764.0,0.0
1008.0,-1544.0,1476.0,0.0
14571.0,-21948.0,21467.0,1.0
988.0,-1463.0,1466.0,0.0
4552.0,-6629.0,6798.0,0.0
4576.0,-6552.0,6879.0,0.0
4628.0,-6511.0,7001.0,0.0
14755.0,-20398.0,22461.0,1.0
14750.0,-20032.0,22591.0,1.0
14780.0,-19714.0,22774.0,1.0
6269.0,-8211.0,9718.0,0.0
6270.0,-8062.0,9775.0,0.0
4568.0,-5763.0,7161.0,0.0
4586.0,-5678.0,7231.0,0.0
4687.0,-5693.0,7430.0,0.0
4585.0,-5459.0,7307.0,0.0
4679.0,-5461.0,7495.0,0.0
6138.0,-7021.0,9882.0,0.0
6157.0,-6898.0,9962.0,0.0
5459.0,-5990.0,8877.0,0.0
6141.0,-6595.0,10032.0,0.0
5588.0,-5872.0,9172.0,0.0
4705.0,-4837.0,7760.0,0.0
4586.0,-4608.0,7597.0,0.0
4634.0,-4550.0,7712.0,0.0
6184.0,-5930.0,10333.0,0.0
6754.0,-6324.0,11336.0,0.0
6754.0,-6171.0,11382.0,0.0
6284.0,-5599.0,10635.0,0.0
6276.0,-5450.0,10665.0,0.0
6312.0,-5338.0,10768.0,0.0
6350.0,-5227.0,10874.0,0.0
6401.0,-5125.0,11005.0,0.0
14572.0,-11340.0,25145.0,1.0
14560.0,-11005.0,25217.0,1.0
14491.0,-10628.0,25188.0,1.0
14491.0,-10304.0,25279.0,1.0
14422.0,-9932.0,25246.0,1.0
14356.0,-9566.0,25217.0,1.0
14326.0,-9226.0,25248.0,1.0
14270.0,-8871.0,25232.0,1.0
14303.0,-8572.0,25372.0,1.0
14350.0,-8281.0,25537.0,1.0
14431.0,-8006.0,25761.0,1.0
14496.0,-7720.0,25958.0,1.0
14383.0,-7339.0,25833.0,1.0
14420.0,-7037.0,25978.0,1.0
14426.0,-6717.0,26062.0,1.0
14423.0,-6395.0,26131.0,1.0
14499.0,-6105.0,26344.0,1.0
14570.0,-5810.0,26545.0,1.0
14628.0,-5506.0,26722.0,1.0
14624.0,-5177.0,26785.0,1.0
14601.0,-4843.0,26815.0,1.0
14581.0,-4509.0,26846.0,1.0
14535.0,-4168.0,26827.0,1.0
14513.0,-3836.0,26854.0,1.0
14518.0,-3510.0,26927.0,1.0
14551.0,-3190.0,27051.0,1.0
14464.0,-2843.0,26953.0,1.0
14464.0,-2516.0,27014.0,1.0
14488.0,-2191.0,27120.0,1.0
14463.0,-1858.0,27132.0,1.0
18.0,-2.0,34.0,0.0
14425.0,-1195.0,27177.0,1.0
12.0,0.0,22.0,0.0
4.0,0.0,7.0,0.0
4.0,0.0,7.0,0.0
10.0,0.0,21.0,0.0
17.0,0.0,34.0,0.0
17.0,0.0,33.0,0.0
17.0,0.0,33.0,0.0
19.0,1.0,37.0,0.0
21.0,2.0,41.0,0.0
30.0,4.0,59.0,0.0
25.0,4.0,50.0,0.0
22.0,3.0,43.0,0.0
22.0,4.0,44.0,0.0
31.0,7.0,60.0,0.0
29.0,7.0,58.0,0.0
29.0,8.0,57.0,0.0
31.0,9.0,61.0,0.0
23.0,7.0,47.0,0.0
25.0,9.0,50.0,0.0
34.0,13.0,68.0,0.0
28.0,12.0,56.0,0.0
32.0,14.0,64.0,0.0
32.0,15.0,65.0,0.0
34.0,16.0,67.0,0.0
34.0,17.0,68.0,0.0
39.0,21.0,78.0,0.0
38.0,22.0,75.0,0.0
36.0,21.0,71.0,0.0
43.0,27.0,86.0,0.0
39.0,25.0,78.0,0.0
46.0,30.0,91.0,0.0
45.0,32.0,90.0,0.0
45.0,33.0,90.0,0.0
41.0,30.0,82.0,0.0
43.0,34.0,85.0,0.0
41.0,33.0,82.0,0.0
37.0,31.0,75.0,0.0
39.0,34.0,77.0,0.0
43.0,38.0,85.0,0.0
41.0,38.0,81.0,0.0
39.0,37.0,79.0,0.0
39.0,38.0,79.0,0.0
40.0,40.0,80.0,0.0
41.0,43.0,84.0,0.0
44.0,47.0,87.0,0.0
42.0,47.0,86.0,0.0
44.0,50.0,89.0,0.0
44.0,51.0,89.0,0.0
42.0,51.0,86.0,0.0
42.0,52.0,85.0,0.0
44.0,56.0,89.0,0.0
47.0,60.0,93.0,0.0
46.0,61.0,92.0,0.0
44.0,60.0,88.0,0.0
49.0,69.0,99.0,0.0
49.0,71.0,99.0,0.0
50.0,74.0,102.0,0.0
49.0,75.0,100.0,0.0
49.0,75.0,99.0,0.0
50.0,79.0,100.0,0.0
51.0,82.0,103.0,0.0
52.0,85.0,104.0,0.0
54.0,90.0,108.0,0.0
55.0,95.0,110.0,0.0
53.0,94.0,107.0,0.0
57.0,102.0,114.0,0.0
58.0,106.0,116.0,0.0
56.0,104.0,111.0,0.0
58.0,110.0,115.0,0.0
57.0,111.0,113.0,0.0
57.0,115.0,115.0,0.0
59.0,121.0,118.0,0.0
63.0,130.0,124.0,0.0
62.0,132.0,123.0,0.0
61.0,131.0,120.0,0.0
62.0,139.0,124.0,0.0
63.0,142.0,125.0,0.0
63.0,145.0,124.0,0.0
63.0,149.0,124.0,0.0
64.0,152.0,125.0,0.0
86.0,-276.0,63.0,0.0
86.0,-270.0,64.0,0.0
86.0,-267.0,67.0,0.0
83.0,-255.0,67.0,0.0
81.0,-244.0,67.0,0.0
84.0,-250.0,71.0,0.0
86.0,-249.0,74.0,0.0
88.0,-256.0,78.0,0.0
87.0,-245.0,78.0,0.0
87.0,-245.0,81.0,0.0
88.0,-242.0,84.0,0.0
90.0,-246.0,88.0,0.0
94.0,-253.0,93.0,0.0
94.0,-250.0,95.0,0.0
92.0,-241.0,96.0,0.0
97.0,-251.0,103.0,0.0
98.0,-247.0,104.0,0.0
101.0,-252.0,110.0,0.0
99.0,-244.0,110.0,0.0
102.0,-248.0,115.0,0.0
102.0,-244.0,116.0,0.0
106.0,-250.0,122.0,0.0
107.0,-250.0,126.0,0.0
106.0,-244.0,126.0,0.0
107.0,-241.0,129.0,0.0
107.0,-238.0,130.0,0.0
115.0,-253.0,142.0,0.0
120.0,-261.0,150.0,0.0
111.0,-239.0,141.0,0.0
113.0,-241.0,146.0,0.0
108.0,-226.0,141.0,0.0
104.0,-214.0,136.0,0.0
99.0,-202.0,132.0,0.0
93.0,-185.0,125.0,0.0
90.0,-177.0,122.0,0.0
86.0,-167.0,118.0,0.0
77.0,-147.0,106.0,0.0
77.0,-144.0,106.0,0.0
77.0,-144.0,109.0,0.0
71.0,-130.0,101.0,0.0
70.0,-126.0,101.0,0.0
60.0,-107.0,87.0,0.0
56.0,-97.0,81.0,0.0
12220.0,-20784.0,17744.0,0.0
12458.0,-20854.0,18229.0,0.0
12744.0,-20995.0,18789.0,0.0
13007.0,-21086.0,19318.0,0.0
974.0,-1555.0,1458.0,0.0
14089.0,-22104.0,21225.0,1.0
14184.0,-21887.0,21516.0,1.0
955.0,-1450.0,1460.0,0.0
4368.0,-6517.0,6716.0,0.0
4370.0,-6407.0,6761.0,0.0
4371.0,-6299.0,6806.0,0.0
4483.0,-6347.0,7022.0,0.0
14452.0,-20100.0,22775.0,1.0
5890.0,-8047.0,9338.0,0.0
5854.0,-7851.0,9334.0,0.0
5828.0,-7674.0,9346.0,0.0
5828.0,-7531.0,9399.0,0.0
6301.0,-7988.0,10216.0,0.0
5833.0,-7254.0,9507.0,0.0
5747.0,-7007.0,9417.0,0.0
5754.0,-6877.0,9476.0,0.0
4348.0,-5092.0,7197.0,0.0
4359.0,-5001.0,7250.0,0.0
4362.0,-4901.0,7291.0,0.0
4365.0,-4801.0,7331.0,0.0
4365.0,-4697.0,7365.0,0.0
4357.0,-4586.0,7384.0,0.0
4348.0,-4475.0,7404.0,0.0
4351.0,-4376.0,7439.0,0.0
4401.0,-4323.0,7559.0,0.0
4482.0,-4299.0,7730.0,0.0
5864.0,-5488.0,10155.0,0.0
6033.0,-5505.0,10490.0,0.0
5864.0,-5215.0,10237.0,0.0
5902.0,-5112.0,10343.0,0.0
5946.0,-5014.0,10462.0,0.0
5971.0,-4898.0,10545.0,0.0
6238.0,-4973.0,11058.0,0.0
14237.0,-11025.0,25328.0,1.0
14208.0,-10676.0,25365.0,1.0
14217.0,-10358.0,25471.0,1.0
14236.0,-10046.0,25595.0,1.0
14224.0,-9713.0,25659.0,1.0
14153.0,-9341.0,25616.0,1.0
14039.0,-8947.0,25493.0,1.0
13950.0,-8573.0,25415.0,1.0
13985.0,-8275.0,25559.0,1.0
14010.0,-7971.0,25683.0,1.0
14059.0,-7678.0,25850.0,1.0
14150.0,-7405.0,26095.0,1.0
1030.0,-515.0,1906.0,0.0
14061.0,-6718.0,26083.0,1.0
14075.0,-6405.0,26184.0,1.0
14095.0,-6092.0,26294.0,1.0
14131.0,-5786.0,26433.0,1.0
14212.0,-5495.0,26657.0,1.0
1037.0,-377.0,1951.0,0.0
14290.0,-4872.0,26944.0,1.0
14271.0,-4539.0,26976.0,1.0
14267.0,-4210.0,27038.0,1.0
14188.0,-3860.0,26951.0,1.0
14221.0,-3542.0,27081.0,1.0
14230.0,-3217.0,27163.0,1.0
14197.0,-2881.0,27162.0,1.0
1025.0,-184.0,1967.0,0.0
14179.0,-2220.0,27249.0,1.0
14167.0,-1889.0,27287.0,1.0
14167.0,-1559.0,27345.0,1.0
14100.0,-1222.0,27272.0,1.0
7.0,-1.0,15.0,0.0
34.0,-1.0,66.0,0.0
13.0,0.0,26.0,0.0
13.0,0.0,27.0,0.0
15.0,0.0,32.0,0.0
15.0,0.0,30.0,0.0
26.0,1.0,53.0,0.0
17.0,1.0,34.0,0.0
16.0,1.0,32.0,0.0
30.0,3.0,61.0,0.0
23.0,3.0,48.0,0.0
21.0,3.0,42.0,0.0
23.0,4.0,47.0,0.0
32.0,8.0,65.0,0.0
23.0,6.0,45.0,0.0
36.0,10.0,72.0,0.0
38.0,12.0,78.0,0.0
33.0,10.0,66.0,0.0
37.0,14.0,75.0,0.0
35.0,14.0,70.0,0.0
41.0,17.0,83.0,0.0
36.0,16.0,74.0,0.0
37.0,18.0,75.0,0.0
42.0,21.0,87.0,0.0
45.0,23.0,92.0,0.0
50.0,27.0,102.0,0.0
45.0,26.0,92.0,0.0
45.0,26.0,91.0,0.0
41.0,26.0,86.0,0.0
43.0,28.0,87.0,0.0
44.0,31.0,90.0,0.0
47.0,34.0,96.0,0.0
44.0,33.0,91.0,0.0
43.0,33.0,88.0,0.0
47.0,37.0,98.0,0.0
45.0,37.0,94.0,0.0
42.0,36.0,86.0,0.0
44.0,39.0,90.0,0.0
42.0,38.0,88.0,0.0
44.0,41.0,90.0,0.0
42.0,41.0,86.0,0.0
42.0,43.0,87.0,0.0
40.0,41.0,84.0,0.0
41.0,44.0,86.0,0.0
41.0,45.0,85.0,0.0
43.0,50.0,91.0,0.0
43.0,49.0,89.0,0.0
44.0,53.0,91.0,0.0
43.0,53.0,91.0,0.0
45.0,56.0,94.0,0.0
42.0,55.0,88.0,0.0
46.0,62.0,97.0,0.0
48.0,65.0,99.0,0.0
46.0,65.0,97.0,0.0
48.0,68.0,100.0,0.0
47.0,69.0,97.0,0.0
49.0,72.0,101.0,0.0
49.0,76.0,103.0,0.0
49.0,77.0,102.0,0.0
50.0,80.0,103.0,0.0
50.0,82.0,103.0,0.0
52.0,87.0,107.0,0.0
53.0,90.0,109.0,0.0
55.0,97.0,114.0,0.0
52.0,93.0,107.0,0.0
56.0,101.0,114.0,0.0
56.0,105.0,115.0,0.0
57.0,109.0,117.0,0.0
57.0,113.0,119.0,0.0
59.0,117.0,121.0,0.0
56.0,114.0,114.0,0.0
58.0,121.0,120.0,0.0
61.0,130.0,125.0,0.0
61.0,133.0,126.0,0.0
60.0,134.0,123.0,0.0
62.0,141.0,127.0,0.0
61.0,141.0,124.0,0.0
63.0,149.0,129.0,0.0
64.0,152.0,128.0,0.0
62.0,151.0,125.0,0.0
79.0,-259.0,60.0,0.0
80.0,-258.0,63.0,0.0
79.0,-251.0,64.0,0.0
80.0,-251.0,67.0,0.0
78.0,-243.0,67.0,0.0
81.0,-246.0,71.0,0.0
81.0,-243.0,73.0,0.0
78.0,-232.0,73.0,0.0
82.0,-242.0,79.0,0.0
84.0,-243.0,81.0,0.0
85.0,-240.0,84.0,0.0
89.0,-248.0,90.0,0.0
88.0,-243.0,91.0,0.0
88.0,-241.0,93.0,0.0
91.0,-243.0,98.0,0.0
92.0,-243.0,100.0,0.0
94.0,-245.0,105.0,0.0
96.0,-247.0,108.0,0.0
94.0,-236.0,107.0,0.0
96.0,-242.0,112.0,0.0
97.0,-238.0,114.0,0.0
97.0,-237.0,117.0,0.0
103.0,-246.0,124.0,0.0
102.0,-239.0,125.0,0.0
102.0,-237.0,127.0,0.0
101.0,-233.0,128.0,0.0
107.0,-243.0,137.0,0.0
108.0,-241.0,140.0,0.0
104.0,-227.0,136.0,0.0
102.0,-221.0,135.0,0.0
105.0,-224.0,140.0,0.0
95.0,-201.0,129.0,0.0
90.0,-188.0,124.0,0.0
87.0,-179.0,120.0,0.0
84.0,-169.0,117.0,0.0
82.0,-162.0,116.0,0.0
75.0,-146.0,106.0,0.0
81.0,-158.0,117.0,0.0
61.0,-115.0,88.0,0.0
61.0,-116.0,90.0,0.0
59.0,-109.0,88.0,0.0
53.0,-97.0,80.0,0.0
11894.0,-21066.0,17664.0,0.0
11901.0,-20749.0,17812.0,0.0
12164.0,-20873.0,18344.0,0.0
12447.0,-21017.0,18909.0,0.0
12722.0,-21137.0,19468.0,0.0
13541.0,-22134.0,20869.0,1.0
13669.0,-21976.0,21210.0,1.0
13799.0,-21819.0,21558.0,1.0
13867.0,-21560.0,21807.0,1.0
4288.0,-6554.0,6788.0,0.0
4304.0,-6467.0,6857.0,0.0
4299.0,-6346.0,6889.0,0.0
4349.0,-6310.0,7014.0,0.0
4417.0,-6296.0,7167.0,0.0
5727.0,-8015.0,9344.0,0.0
5683.0,-7809.0,9325.0,0.0
5662.0,-7637.0,9342.0,0.0
5953.0,-7881.0,9877.0,0.0
6178.0,-8025.0,10306.0,0.0
5592.0,-7123.0,9376.0,0.0
5595.0,-6990.0,9431.0,0.0
5598.0,-6855.0,9483.0,0.0
5582.0,-6698.0,9502.0,0.0
5603.0,-6586.0,9585.0,0.0
5532.0,-6368.0,9508.0,0.0
5605.0,-6315.0,9678.0,0.0
5609.0,-6185.0,9730.0,0.0
4366.0,-4709.0,7608.0,0.0
4331.0,-4567.0,7582.0,0.0
4332.0,-4464.0,7616.0,0.0
4333.0,-4361.0,7649.0,0.0
4349.0,-4274.0,7710.0,0.0
13857.0,-13286.0,24664.0,1.0
6211.0,-5809.0,11101.0,0.0
5729.0,-5222.0,10280.0,0.0
5749.0,-5104.0,10356.0,0.0
5772.0,-4988.0,10438.0,0.0
5803.0,-4878.0,10531.0,0.0
6146.0,-5022.0,11196.0,0.0
1004.0,-797.0,1837.0,0.0
13935.0,-10734.0,25564.0,1.0
13904.0,-10385.0,25595.0,1.0
13922.0,-10073.0,25718.0,1.0
13882.0,-9720.0,25728.0,1.0
13813.0,-9349.0,25687.0,1.0
995.0,-650.0,1857.0,0.0
13765.0,-8674.0,25762.0,1.0
13604.0,-8257.0,25540.0,1.0
13663.0,-7974.0,25730.0,1.0
13624.0,-7634.0,25735.0,1.0
13664.0,-7339.0,25886.0,1.0
13794.0,-7087.0,26209.0,1.0
13804.0,-6770.0,26303.0,1.0
13765.0,-6431.0,26302.0,1.0
13765.0,-6110.0,26375.0,1.0
13798.0,-5805.0,26512.0,1.0
13862.0,-5507.0,26704.0,1.0
13882.0,-5191.0,26814.0,1.0
13968.0,-4896.0,27051.0,1.0
13986.0,-4575.0,27154.0,1.0
13924.0,-4229.0,27101.0,1.0
13889.0,-3892.0,27098.0,1.0
13938.0,-3578.0,27261.0,1.0
13926.0,-3247.0,27301.0,1.0
13929.0,-2918.0,27372.0,1.0
13922.0,-2588.0,27420.0,1.0
13888.0,-2253.0,27414.0,1.0
13860.0,-1919.0,27419.0,1.0
13817.0,-1583.0,27392.0,1.0
13737.0,-1246.0,27292.0,1.0
7.0,-1.0,14.0,0.0
9.0,0.0,21.0,0.0
9.0,0.0,20.0,0.0
26.0,0.0,55.0,0.0
22.0,0.0,44.0,0.0
2.0,0.0,4.0,0.0
19.0,1.0,39.0,0.0
15.0,1.0,31.0,0.0
15.0,1.0,33.0,0.0
24.0,3.0,52.0,0.0
14.0,2.0,30.0,0.0
21.0,4.0,44.0,0.0
28.0,5.0,57.0,0.0
15.0,3.0,30.0,0.0
24.0,7.0,51.0,0.0
20.0,5.0,42.0,0.0
32.0,9.0,66.0,0.0
28.0,9.0,58.0,0.0
34.0,13.0,70.0,0.0
26.0,11.0,56.0,0.0
29.0,13.0,61.0,0.0
26.0,12.0,54.0,0.0
34.0,16.0,73.0,0.0
34.0,17.0,72.0,0.0
34.0,18.0,73.0,0.0
34.0,19.0,71.0,0.0
38.0,22.0,79.0,0.0
35.0,21.0,74.0,0.0
36.0,24.0,78.0,0.0
38.0,25.0,79.0,0.0
40.0,28.0,84.0,0.0
42.0,30.0,88.0,0.0
38.0,29.0,81.0,0.0
38.0,30.0,80.0,0.0
48.0,39.0,101.0,0.0
39.0,33.0,82.0,0.0
35.0,31.0,76.0,0.0
35.0,32.0,74.0,0.0
35.0,32.0,74.0,0.0
33.0,32.0,70.0,0.0
35.0,36.0,76.0,0.0
37.0,38.0,79.0,0.0
39.0,41.0,84.0,0.0
39.0,42.0,83.0,0.0
37.0,42.0,80.0,0.0
36.0,42.0,78.0,0.0
38.0,45.0,81.0,0.0
42.0,52.0,91.0,0.0
40.0,49.0,84.0,0.0
40.0,52.0,86.0,0.0
40.0,53.0,86.0,0.0
42.0,56.0,90.0,0.0
41.0,57.0,87.0,0.0
41.0,57.0,86.0,0.0
43.0,63.0,92.0,0.0
44.0,67.0,94.0,0.0
43.0,67.0,94.0,0.0
45.0,70.0,96.0,0.0
44.0,72.0,94.0,0.0
46.0,74.0,97.0,0.0
46.0,78.0,98.0,0.0
47.0,81.0,101.0,0.0
47.0,82.0,99.0,0.0
50.0,91.0,106.0,0.0
49.0,91.0,105.0,0.0
50.0,94.0,107.0,0.0
51.0,98.0,109.0,0.0
50.0,99.0,107.0,0.0
53.0,107.0,112.0,0.0
54.0,111.0,115.0,0.0
53.0,111.0,112.0,0.0
56.0,119.0,118.0,0.0
56.0,122.0,118.0,0.0
57.0,126.0,119.0,0.0
57.0,130.0,120.0,0.0
57.0,133.0,120.0,0.0
58.0,137.0,121.0,0.0
58.0,140.0,122.0,0.0
59.0,144.0,122.0,0.0
58.0,148.0,122.0,0.0
80.0,-271.0,64.0,0.0
81.0,-269.0,66.0,0.0
80.0,-261.0,68.0,0.0
78.0,-253.0,68.0,0.0
79.0,-253.0,71.0,0.0
83.0,-261.0,77.0,0.0
81.0,-250.0,76.0,0.0
83.0,-254.0,80.0,0.0
83.0,-250.0,82.0,0.0
86.0,-254.0,87.0,0.0
86.0,-252.0,89.0,0.0
88.0,-254.0,93.0,0.0
90.0,-255.0,96.0,0.0
92.0,-257.0,100.0,0.0
93.0,-258.0,104.0,0.0
93.0,-254.0,106.0,0.0
96.0,-256.0,110.0,0.0
95.0,-251.0,112.0,0.0
97.0,-252.0,115.0,0.0
97.0,-251.0,118.0,0.0
100.0,-252.0,122.0,0.0
100.0,-248.0,124.0,0.0
99.0,-243.0,124.0,0.0
101.0,-245.0,128.0,0.0
104.0,-248.0,134.0,0.0
104.0,-246.0,136.0,0.0
112.0,-262.0,149.0,0.0
111.0,-255.0,149.0,0.0
107.0,-240.0,144.0,0.0
106.0,-235.0,145.0,0.0
100.0,-220.0,138.0,0.0
96.0,-205.0,133.0,0.0
88.0,-188.0,125.0,0.0
89.0,-186.0,127.0,0.0
80.0,-165.0,115.0,0.0
79.0,-162.0,115.0,0.0
70.0,-141.0,103.0,0.0
64.0,-127.0,95.0,0.0
72.0,-140.0,109.0,0.0
64.0,-123.0,96.0,0.0
12347.0,-23144.0,18616.0,0.0
12325.0,-22745.0,18731.0,0.0
11573.0,-21025.0,17725.0,0.0
11625.0,-20788.0,17941.0,0.0
11881.0,-20910.0,18474.0,0.0
12137.0,-21019.0,19009.0,0.0
12417.0,-21159.0,19587.0,0.0
13223.0,-22166.0,21004.0,1.0
13326.0,-21971.0,21309.0,1.0
13428.0,-21771.0,21615.0,1.0
13521.0,-21555.0,21906.0,1.0
4258.0,-6674.0,6944.0,0.0
4296.0,-6619.0,7050.0,0.0
13726.0,-20780.0,22658.0,1.0
4251.0,-6324.0,7061.0,0.0
4295.0,-6277.0,7176.0,0.0
4377.0,-6281.0,7354.0,0.0
4367.0,-6154.0,7379.0,0.0
4372.0,-6047.0,7428.0,0.0
4354.0,-5908.0,7436.0,0.0
4374.0,-5824.0,7509.0,0.0
4365.0,-5701.0,7534.0,0.0
4365.0,-5590.0,7572.0,0.0
4357.0,-5470.0,7596.0,0.0
4362.0,-5366.0,7642.0,0.0
4376.0,-5273.0,7702.0,0.0
4371.0,-5157.0,7729.0,0.0
4375.0,-5053.0,7772.0,0.0
4420.0,-4996.0,7889.0,0.0
4292.0,-4746.0,7694.0,0.0
5466.0,-5908.0,9842.0,0.0
5475.0,-5784.0,9899.0,0.0
4281.0,-4417.0,7773.0,0.0
4276.0,-4307.0,7796.0,0.0
4358.0,-4284.0,7978.0,0.0
5550.0,-5321.0,10200.0,0.0
5562.0,-5197.0,10261.0,0.0
5590.0,-5088.0,10354.0,0.0
5622.0,-4982.0,10452.0,0.0
5673.0,-4891.0,10585.0,0.0
5958.0,-4993.0,11159.0,0.0
13634.0,-11097.0,25621.0,1.0
13637.0,-10773.0,25717.0,1.0
13623.0,-10434.0,25777.0,1.0
13585.0,-10082.0,25793.0,1.0
13578.0,-9752.0,25868.0,1.0
13552.0,-9409.0,25900.0,1.0
13515.0,-9062.0,25914.0,1.0
13464.0,-8707.0,25897.0,1.0
13439.0,-8370.0,25930.0,1.0
13317.0,-7977.0,25773.0,1.0
13302.0,-7651.0,25821.0,1.0
999.0,-550.0,1945.0,0.0
13330.0,-7033.0,26029.0,1.0
13410.0,-6755.0,26259.0,1.0
13495.0,-6476.0,26498.0,1.0
13436.0,-6128.0,26457.0,1.0
13455.0,-5817.0,26565.0,1.0
13502.0,-5514.0,26728.0,1.0
13528.0,-5202.0,26850.0,1.0
13599.0,-4905.0,27063.0,1.0
13658.0,-4598.0,27249.0,1.0
13706.0,-4286.0,27413.0,1.0
13665.0,-3945.0,27397.0,1.0
13619.0,-3603.0,27371.0,1.0
13609.0,-3273.0,27415.0,1.0
13601.0,-2943.0,27463.0,1.0
13613.0,-2617.0,27550.0,1.0
13623.0,-2288.0,27632.0,1.0
13573.0,-1950.0,27592.0,1.0
13482.0,-1609.0,27466.0,1.0
11.0,-1.0,22.0,0.0
13304.0,-936.0,27217.0,1.0
16.0,-1.0,34.0,0.0
12.0,0.0,26.0,0.0
9.0,0.0,19.0,0.0
14.0,0.0,32.0,0.0
16.0,0.0,36.0,0.0
22.0,1.0,46.0,0.0
21.0,2.0,45.0,0.0
27.0,3.0,58.0,0.0
17.0,2.0,36.0,0.0
28.0,5.0,60.0,0.0
25.0,5.0,54.0,0.0
31.0,6.0,66.0,0.0
29.0,7.0,62.0,0.0
29.0,8.0,63.0,0.0
35.0,11.0,75.0,0.0
33.0,10.0,71.0,0.0
33.0,11.0,69.0,0.0
29.0,10.0,62.0,0.0
36.0,15.0,79.0,0.0
38.0,16.0,83.0,0.0
40.0,18.0,86.0,0.0
42.0,21.0,92.0,0.0
38.0,19.0,82.0,0.0
34.0,19.0,74.0,0.0
39.0,23.0,85.0,0.0
39.0,23.0,83.0,0.0
36.0,23.0,78.0,0.0
46.0,30.0,99.0,0.0
46.0,31.0,101.0,0.0
43.0,31.0,94.0,0.0
39.0,29.0,84.0,0.0
43.0,34.0,95.0,0.0
45.0,35.0,97.0,0.0
45.0,37.0,97.0,0.0
45.0,38.0,96.0,0.0
41.0,37.0,91.0,0.0
38.0,35.0,84.0,0.0
38.0,37.0,85.0,0.0
47.0,46.0,103.0,0.0
40.0,41.0,87.0,0.0
37.0,40.0,82.0,0.0
42.0,46.0,91.0,0.0
38.0,42.0,83.0,0.0
37.0,42.0,81.0,0.0
37.0,44.0,82.0,0.0
41.0,49.0,89.0,0.0
40.0,50.0,89.0,0.0
39.0,50.0,86.0,0.0
39.0,52.0,87.0,0.0
41.0,55.0,91.0,0.0
44.0,61.0,96.0,0.0
41.0,59.0,91.0,0.0
42.0,63.0,94.0,0.0
42.0,63.0,93.0,0.0
40.0,62.0,90.0,0.0
44.0,70.0,98.0,0.0
45.0,73.0,100.0,0.0
43.0,71.0,96.0,0.0
46.0,77.0,102.0,0.0
47.0,80.0,103.0,0.0
48.0,85.0,106.0,0.0
48.0,87.0,106.0,0.0
49.0,91.0,108.0,0.0
50.0,94.0,109.0,0.0
49.0,94.0,108.0,0.0
51.0,101.0,113.0,0.0
53.0,108.0,118.0,0.0
54.0,111.0,118.0,0.0
54.0,114.0,119.0,0.0
53.0,113.0,116.0,0.0
55.0,122.0,121.0,0.0
55.0,122.0,120.0,0.0
57.0,130.0,124.0,0.0
56.0,130.0,121.0,0.0
57.0,137.0,124.0,0.0
56.0,136.0,122.0,0.0
56.0,140.0,122.0,0.0
57.0,144.0,123.0,0.0
58.0,152.0,127.0,0.0
75.0,-264.0,63.0,0.0
72.0,-251.0,63.0,0.0
73.0,-246.0,65.0,0.0
75.0,-250.0,68.0,0.0
77.0,-252.0,72.0,0.0
78.0,-250.0,74.0,0.0
79.0,-252.0,78.0,0.0
77.0,-244.0,79.0,0.0
78.0,-241.0,81.0,0.0
81.0,-247.0,86.0,0.0
86.0,-260.0,92.0,0.0
85.0,-252.0,93.0,0.0
83.0,-244.0,93.0,0.0
86.0,-249.0,98.0,0.0
86.0,-246.0,100.0,0.0
91.0,-255.0,107.0,0.0
88.0,-244.0,105.0,0.0
89.0,-243.0,109.0,0.0
90.0,-240.0,110.0,0.0
92.0,-244.0,116.0,0.0
92.0,-240.0,117.0,0.0
93.0,-237.0,119.0,0.0
97.0,-245.0,126.0,0.0
95.0,-237.0,125.0,0.0
94.0,-232.0,126.0,0.0
99.0,-241.0,135.0,0.0
106.0,-252.0,145.0,0.0
103.0,-243.0,143.0,0.0
99.0,-230.0,138.0,0.0
100.0,-229.0,142.0,0.0
88.0,-198.0,125.0,0.0
84.0,-187.0,121.0,0.0
84.0,-183.0,123.0,0.0
74.0,-160.0,109.0,0.0
77.0,-163.0,114.0,0.0
75.0,-157.0,113.0,0.0
67.0,-139.0,102.0,0.0
65.0,-131.0,99.0,0.0
63.0,-127.0,98.0,0.0
54.0,-106.0,85.0,0.0
11928.0,-22950.0,18561.0,0.0
57.0,-109.0,90.0,0.0
11212.0,-20906.0,17719.0,0.0
11335.0,-20803.0,18049.0,0.0
11583.0,-20921.0,18578.0,0.0
11847.0,-21054.0,19136.0,0.0
12106.0,-21167.0,19692.0,0.0
12807.0,-22028.0,20975.0,1.0
12925.0,-21865.0,21309.0,1.0
13025.0,-21669.0,21615.0,1.0
13126.0,-21470.0,21922.0,1.0
4177.0,-6718.0,7020.0,0.0
4218.0,-6668.0,7134.0,0.0
13242.0,-20565.0,22524.0,1.0
13312.0,-20313.0,22777.0,1.0
4194.0,-6286.0,7217.0,0.0
4232.0,-6230.0,7324.0,0.0
4196.0,-6064.0,7303.0,0.0
4188.0,-5942.0,7328.0,0.0
4191.0,-5835.0,7372.0,0.0
4200.0,-5737.0,7427.0,0.0
4206.0,-5634.0,7475.0,0.0
4215.0,-5536.0,7528.0,0.0
4204.0,-5412.0,7545.0,0.0
4206.0,-5306.0,7584.0,0.0
4213.0,-5207.0,7634.0,0.0
4204.0,-5088.0,7652.0,0.0
4208.0,-4985.0,7695.0,0.0
4209.0,-4880.0,7730.0,0.0
4200.0,-4762.0,7747.0,0.0
5319.0,-5897.0,9854.0,0.0
5314.0,-5757.0,9885.0,0.0
5332.0,-5644.0,9962.0,0.0
4224.0,-4365.0,7924.0,0.0
4280.0,-4316.0,8062.0,0.0
5408.0,-5318.0,10224.0,0.0
5423.0,-5199.0,10293.0,0.0
5447.0,-5087.0,10377.0,0.0
5471.0,-4973.0,10461.0,0.0
5493.0,-4858.0,10542.0,0.0
5785.0,-4973.0,11140.0,0.0
13315.0,-11119.0,25732.0,1.0
13334.0,-10809.0,25861.0,1.0
13303.0,-10457.0,25889.0,1.0
13278.0,-10112.0,25925.0,1.0
13225.0,-9747.0,25907.0,1.0
13203.0,-9409.0,25948.0,1.0
13172.0,-9065.0,25970.0,1.0
13139.0,-8722.0,25985.0,1.0
13115.0,-8386.0,26018.0,1.0
13092.0,-8053.0,26052.0,1.0
12997.0,-7677.0,25939.0,1.0
12981.0,-7352.0,25984.0,1.0
13014.0,-7053.0,26127.0,1.0
961.0,-497.0,1937.0,0.0
13143.0,-6482.0,26535.0,1.0
13144.0,-6161.0,26608.0,1.0
13094.0,-5820.0,26578.0,1.0
13130.0,-5515.0,26721.0,1.0
13177.0,-5212.0,26888.0,1.0
13220.0,-4906.0,27046.0,1.0
13307.0,-4612.0,27291.0,1.0
13383.0,-4311.0,27516.0,1.0
13335.0,-3967.0,27485.0,1.0
13340.0,-3640.0,27559.0,1.0
13382.0,-3322.0,27714.0,1.0
13371.0,-2989.0,27754.0,1.0
13396.0,-2663.0,27870.0,1.0
13281.0,-2311.0,27693.0,1.0
13195.0,-1967.0,27575.0,1.0
13139.0,-1632.0,27517.0,1.0
13063.0,-1296.0,27417.0,1.0
12.0,-1.0,25.0,0.0
9.0,0.0,21.0,0.0
12.0,0.0,26.0,0.0
11.0,0.0,24.0,0.0
7.0,0.0,14.0,0.0
16.0,0.0,35.0,0.0
11.0,0.0,25.0,0.0
20.0,1.0,44.0,0.0
17.0,1.0,39.0,0.0
20.0,2.0,44.0,0.0
14.0,2.0,33.0,0.0
23.0,4.0,50.0,0.0
19.0,3.0,42.0,0.0
23.0,5.0,52.0,0.0
25.0,7.0,55.0,0.0
33.0,10.0,72.0,0.0
32.0,10.0,71.0,0.0
32.0,12.0,70.0,0.0
34.0,13.0,75.0,0.0
30.0,12.0,66.0,0.0
27.0,12.0,59.0,0.0
27.0,12.0,61.0,0.0
32.0,15.0,71.0,0.0
35.0,18.0,78.0,0.0
39.0,21.0,87.0,0.0
36.0,21.0,80.0,0.0
37.0,23.0,83.0,0.0
41.0,26.0,93.0,0.0
40.0,27.0,90.0,0.0
39.0,27.0,87.0,0.0
38.0,28.0,86.0,0.0
43.0,33.0,98.0,0.0
38.0,29.0,84.0,0.0
38.0,31.0,85.0,0.0
44.0,37.0,98.0,0.0
37.0,32.0,83.0,0.0
39.0,35.0,88.0,0.0
37.0,35.0,82.0,0.0
37.0,35.0,83.0,0.0
37.0,37.0,83.0,0.0
35.0,37.0,80.0,0.0
33.0,36.0,76.0,0.0
35.0,39.0,80.0,0.0
33.0,38.0,75.0,0.0
35.0,41.0,80.0,0.0
34.0,41.0,79.0,0.0
34.0,43.0,78.0,0.0
36.0,46.0,81.0,0.0
36.0,48.0,84.0,0.0
34.0,46.0,79.0,0.0
38.0,53.0,87.0,0.0
38.0,54.0,86.0,0.0
39.0,57.0,88.0,0.0
40.0,59.0,91.0,0.0
41.0,64.0,93.0,0.0
39.0,61.0,88.0,0.0
39.0,63.0,91.0,0.0
45.0,74.0,102.0,0.0
40.0,68.0,91.0,0.0
43.0,74.0,97.0,0.0
42.0,74.0,94.0,0.0
43.0,78.0,98.0,0.0
42.0,79.0,98.0,0.0
44.0,84.0,100.0,0.0
46.0,90.0,105.0,0.0
49.0,98.0,111.0,0.0
47.0,96.0,106.0,0.0
47.0,98.0,108.0,0.0
48.0,102.0,109.0,0.0
51.0,110.0,116.0,0.0
52.0,115.0,118.0,0.0
51.0,115.0,116.0,0.0
51.0,119.0,117.0,0.0
53.0,123.0,118.0,0.0
53.0,128.0,119.0,0.0
54.0,134.0,123.0,0.0
55.0,137.0,123.0,0.0
53.0,137.0,120.0,0.0
53.0,141.0,121.0,0.0
51.0,137.0,115.0,0.0
73.0,-262.0,63.0,0.0
76.0,-268.0,68.0,0.0
75.0,-260.0,69.0,0.0
75.0,-257.0,71.0,0.0
76.0,-257.0,74.0,0.0
80.0,-266.0,81.0,0.0
78.0,-257.0,80.0,0.0
81.0,-261.0,85.0,0.0
82.0,-261.0,88.0,0.0
80.0,-254.0,88.0,0.0
82.0,-255.0,92.0,0.0
84.0,-257.0,96.0,0.0
84.0,-255.0,98.0,0.0
84.0,-250.0,100.0,0.0
87.0,-255.0,105.0,0.0
90.0,-259.0,110.0,0.0
89.0,-253.0,110.0,0.0
92.0,-258.0,116.0,0.0
93.0,-259.0,120.0,0.0
95.0,-257.0,123.0,0.0
95.0,-255.0,126.0,0.0
96.0,-255.0,128.0,0.0
96.0,-249.0,130.0,0.0
95.0,-244.0,130.0,0.0
98.0,-247.0,135.0,0.0
102.0,-254.0,143.0,0.0
103.0,-253.0,146.0,0.0
102.0,-247.0,147.0,0.0
99.0,-237.0,144.0,0.0
95.0,-224.0,140.0,0.0
92.0,-213.0,136.0,0.0
88.0,-202.0,132.0,0.0
82.0,-184.0,124.0,0.0
75.0,-167.0,115.0,0.0
75.0,-162.0,115.0,0.0
68.0,-146.0,105.0,0.0
65.0,-139.0,102.0,0.0
62.0,-129.0,97.0,0.0
64.0,-132.0,102.0,0.0
60.0,-121.0,97.0,0.0
11630.0,-22986.0,18690.0,0.0
11587.0,-22543.0,18763.0,0.0
10872.0,-20822.0,17739.0,0.0
11041.0,-20810.0,18146.0,0.0
11295.0,-20948.0,18695.0,0.0
11548.0,-21075.0,19250.0,0.0
11805.0,-21194.0,19812.0,0.0
12463.0,-22010.0,21058.0,1.0
12579.0,-21850.0,21394.0,1.0
12650.0,-21605.0,21651.0,1.0
12680.0,-21293.0,21840.0,1.0
4119.0,-6799.0,7138.0,0.0
4182.0,-6786.0,7292.0,0.0
869.0,-1385.0,1523.0,0.0
887.0,-1389.0,1564.0,0.0
12960.0,-19939.0,22988.0,1.0
4123.0,-6228.0,7354.0,0.0
4151.0,-6158.0,7446.0,0.0
4221.0,-6147.0,7611.0,0.0
5306.0,-7580.0,9615.0,0.0
5268.0,-7384.0,9596.0,0.0
5234.0,-7196.0,9582.0,0.0
5219.0,-7035.0,9600.0,0.0
5223.0,-6902.0,9655.0,0.0
5210.0,-6746.0,9676.0,0.0
5224.0,-6626.0,9747.0,0.0
5228.0,-6493.0,9799.0,0.0
4226.0,-5139.0,7957.0,0.0
4150.0,-4938.0,7850.0,0.0
5230.0,-6087.0,9934.0,0.0
5222.0,-5942.0,9959.0,0.0
5239.0,-5825.0,10034.0,0.0
5269.0,-5723.0,10132.0,0.0
4157.0,-4409.0,8026.0,0.0
4170.0,-4316.0,8084.0,0.0
5334.0,-5384.0,10380.0,0.0
5376.0,-5289.0,10500.0,0.0
5400.0,-5175.0,10587.0,0.0
5508.0,-5140.0,10839.0,0.0
5496.0,-4989.0,10854.0,0.0
5689.0,-5021.0,11274.0,0.0
13041.0,-11180.0,25934.0,1.0
13038.0,-10850.0,26018.0,1.0
13020.0,-10508.0,26069.0,1.0
12973.0,-10145.0,26063.0,1.0
941.0,-712.0,1896.0,0.0
12912.0,-9450.0,26107.0,1.0
12858.0,-9088.0,26079.0,1.0
12821.0,-8742.0,26088.0,1.0
12826.0,-8425.0,26177.0,1.0
12757.0,-8062.0,26114.0,1.0
12730.0,-7726.0,26135.0,1.0
12668.0,-7372.0,26084.0,1.0
12646.0,-7045.0,26115.0,1.0
12640.0,-6726.0,26175.0,1.0
12739.0,-6460.0,26452.0,1.0
12808.0,-6175.0,26669.0,1.0
12760.0,-5834.0,26642.0,1.0
12744.0,-5508.0,26678.0,1.0
12772.0,-5201.0,26806.0,1.0
12832.0,-4902.0,27000.0,1.0
12913.0,-4610.0,27240.0,1.0
12993.0,-4312.0,27475.0,1.0
12974.0,-3979.0,27503.0,1.0
12976.0,-3653.0,27573.0,1.0
13046.0,-3344.0,27789.0,1.0
13045.0,-3014.0,27851.0,1.0
935.0,-192.0,2002.0,0.0
12924.0,-2330.0,27718.0,1.0
12839.0,-1988.0,27597.0,1.0
14.0,-2.0,31.0,0.0
10.0,-2.0,23.0,0.0
13.0,-1.0,29.0,0.0
22.0,-1.0,49.0,0.0
23.0,-1.0,52.0,0.0
19.0,0.0,42.0,0.0
24.0,0.0,53.0,0.0
20.0,0.0,46.0,0.0
19.0,1.0,43.0,0.0
17.0,1.0,38.0,0.0
22.0,2.0,50.0,0.0
20.0,2.0,46.0,0.0
22.0,3.0,51.0,0.0
17.0,3.0,40.0,0.0
19.0,3.0,42.0,0.0
25.0,5.0,56.0,0.0
31.0,8.0,71.0,0.0
29.0,9.0,67.0,0.0
36.0,12.0,81.0,0.0
28.0,10.0,63.0,0.0
31.0,12.0,71.0,0.0
35.0,15.0,79.0,0.0
34.0,15.0,77.0,0.0
34.0,17.0,79.0,0.0
36.0,18.0,83.0,0.0
38.0,20.0,87.0,0.0
35.0,19.0,81.0,0.0
38.0,23.0,88.0,0.0
40.0,24.0,90.0,0.0
40.0,25.0,91.0,0.0
40.0,28.0,94.0,0.0
38.0,27.0,88.0,0.0
37.0,28.0,87.0,0.0
39.0,30.0,90.0,0.0
43.0,35.0,99.0,0.0
43.0,36.0,99.0,0.0
41.0,36.0,95.0,0.0
44.0,40.0,103.0,0.0
39.0,37.0,92.0,0.0
36.0,35.0,83.0,0.0
41.0,42.0,96.0,0.0
34.0,35.0,80.0,0.0
34.0,37.0,81.0,0.0
38.0,42.0,87.0,0.0
33.0,38.0,77.0,0.0
34.0,40.0,81.0,0.0
34.0,41.0,80.0,0.0
38.0,46.0,88.0,0.0
35.0,44.0,81.0,0.0
36.0,47.0,85.0,0.0
33.0,45.0,79.0,0.0
35.0,49.0,83.0,0.0
37.0,52.0,86.0,0.0
38.0,55.0,89.0,0.0
39.0,59.0,93.0,0.0
37.0,58.0,89.0,0.0
41.0,65.0,98.0,0.0
40.0,65.0,95.0,0.0
41.0,69.0,98.0,0.0
42.0,70.0,98.0,0.0
42.0,74.0,101.0,0.0
42.0,74.0,98.0,0.0
44.0,80.0,103.0,0.0
42.0,79.0,100.0,0.0
43.0,82.0,101.0,0.0
44.0,86.0,104.0,0.0
45.0,89.0,104.0,0.0
47.0,97.0,113.0,0.0
47.0,98.0,110.0,0.0
50.0,106.0,116.0,0.0
46.0,102.0,110.0,0.0
50.0,110.0,116.0,0.0
50.0,114.0,118.0,0.0
49.0,115.0,116.0,0.0
51.0,122.0,121.0,0.0
52.0,126.0,121.0,0.0
52.0,129.0,122.0,0.0
52.0,134.0,124.0,0.0
52.0,133.0,121.0,0.0
51.0,137.0,121.0,0.0
53.0,144.0,125.0,0.0
52.0,144.0,122.0,0.0
67.0,-251.0,61.0,0.0
69.0,-250.0,64.0,0.0
70.0,-253.0,68.0,0.0
70.0,-252.0,70.0,0.0
71.0,-249.0,73.0,0.0
71.0,-248.0,75.0,0.0
73.0,-250.0,78.0,0.0
74.0,-246.0,80.0,0.0
77.0,-253.0,86.0,0.0
77.0,-252.0,89.0,0.0
77.0,-248.0,90.0,0.0
78.0,-245.0,92.0,0.0
79.0,-246.0,96.0,0.0
81.0,-247.0,99.0,0.0
83.0,-250.0,103.0,0.0
82.0,-244.0,104.0,0.0
86.0,-251.0,111.0,0.0
85.0,-247.0,112.0,0.0
83.0,-237.0,111.0,0.0
88.0,-247.0,119.0,0.0
86.0,-239.0,118.0,0.0
89.0,-243.0,124.0,0.0
90.0,-243.0,127.0,0.0
88.0,-233.0,126.0,0.0
95.0,-247.0,136.0,0.0
93.0,-238.0,135.0,0.0
96.0,-244.0,142.0,0.0
93.0,-233.0,138.0,0.0
92.0,-225.0,137.0,0.0
88.0,-215.0,134.0,0.0
82.0,-196.0,126.0,0.0
80.0,-189.0,125.0,0.0
78.0,-181.0,122.0,0.0
71.0,-164.0,113.0,0.0
69.0,-156.0,111.0,0.0
64.0,-143.0,104.0,0.0
66.0,-144.0,107.0,0.0
56.0,-121.0,93.0,0.0
58.0,-122.0,94.0,0.0
52.0,-108.0,86.0,0.0
49.0,-100.0,81.0,0.0
10532.0,-21062.0,17621.0,0.0
10548.0,-20759.0,17776.0,0.0
10758.0,-20838.0,18260.0,0.0
11019.0,-21002.0,18835.0,0.0
46.0,-88.0,82.0,0.0
864.0,-1596.0,1499.0,0.0
12141.0,-22030.0,21174.0,1.0
866.0,-1545.0,1521.0,0.0
12243.0,-21482.0,21625.0,1.0
858.0,-1481.0,1525.0,0.0
4056.0,-6880.0,7254.0,0.0
4124.0,-6872.0,7417.0,0.0
12635.0,-20690.0,22855.0,1.0
862.0,-1388.0,1570.0,0.0
895.0,-1414.0,1638.0,0.0
5253.0,-8152.0,9662.0,0.0
4051.0,-6172.0,7491.0,0.0
4075.0,-6094.0,7574.0,0.0
4160.0,-6105.0,7773.0,0.0
5291.0,-7617.0,9936.0,0.0
5253.0,-7416.0,9912.0,0.0
5214.0,-7218.0,9887.0,0.0
5215.0,-7076.0,9935.0,0.0
5222.0,-6943.0,9994.0,0.0
5206.0,-6780.0,10009.0,0.0
5222.0,-6660.0,10085.0,0.0
4078.0,-5092.0,7911.0,0.0
5222.0,-6379.0,10173.0,0.0
5221.0,-6239.0,10214.0,0.0
5219.0,-6098.0,10253.0,0.0
5230.0,-5972.0,10318.0,0.0
5256.0,-5862.0,10410.0,0.0
4085.0,-4449.0,8124.0,0.0
4098.0,-4356.0,8181.0,0.0
4185.0,-4337.0,8386.0,0.0
5364.0,-5419.0,10787.0,0.0
5403.0,-5319.0,10906.0,0.0
5471.0,-5243.0,11085.0,0.0
5384.0,-5020.0,10947.0,0.0
12777.0,-11582.0,26067.0,1.0
12706.0,-11190.0,26014.0,1.0
12736.0,-10887.0,26164.0,1.0
12684.0,-10516.0,26144.0,1.0
12693.0,-10197.0,26248.0,1.0
12659.0,-9844.0,26262.0,1.0
12592.0,-9469.0,26208.0,1.0
12571.0,-9131.0,26244.0,1.0
12522.0,-8774.0,26224.0,1.0
12491.0,-8433.0,26238.0,1.0
12435.0,-8077.0,26196.0,1.0
12390.0,-7731.0,26179.0,1.0
12345.0,-7387.0,26161.0,1.0
12306.0,-7049.0,26153.0,1.0
12326.0,-6745.0,26268.0,1.0
12354.0,-6445.0,26401.0,1.0
904.0,-447.0,1938.0,0.0
12482.0,-5873.0,26818.0,1.0
12419.0,-5525.0,26753.0,1.0
910.0,-382.0,1967.0,0.0
12439.0,-4895.0,26934.0,1.0
12495.0,-4597.0,27124.0,1.0
12627.0,-4320.0,27479.0,1.0
12579.0,-3980.0,27440.0,1.0
12589.0,-3658.0,27530.0,1.0
12640.0,-3346.0,27706.0,1.0
12717.0,-3036.0,27939.0,1.0
12640.0,-2691.0,27834.0,1.0
12551.0,-2344.0,27699.0,1.0
12494.0,-2009.0,27636.0,1.0
3.0,0.0,7.0,0.0
1.0,-1.0,4.0,0.0
13.0,-1.0,30.0,0.0
13.0,-1.0,33.0,0.0
8.0,0.0,19.0,0.0
3.0,0.0,9.0,0.0
13.0,0.0,30.0,0.0
10.0,0.0,22.0,0.0
15.0,1.0,36.0,0.0
13.0,1.0,30.0,0.0
12.0,1.0,29.0,0.0
20.0,3.0,46.0,0.0
23.0,4.0,53.0,0.0
15.0,2.0,37.0,0.0
18.0,4.0,44.0,0.0
18.0,4.0,43.0,0.0
21.0,6.0,49.0,0.0
24.0,8.0,56.0,0.0
27.0,9.0,64.0,0.0
31.0,11.0,73.0,0.0
30.0,12.0,69.0,0.0
29.0,12.0,68.0,0.0
32.0,15.0,77.0,0.0
27.0,13.0,65.0,0.0
33.0,17.0,78.0,0.0
28.0,15.0,66.0,0.0
35.0,20.0,83.0,0.0
