//X,Y,Z,Classification
29,31,85,0.0
30,32,87,0.0
28,32,84,0.0
31,36,90,0.0
37,45,109,0.0
34,42,99,0.0
34,45,103,0.0
37,50,112,0.0
40,56,120,0.0
36,52,107,0.0
37,55,112,0.0
42,64,125,0.0
39,61,117,0.0
36,58,107,0.0
38,62,113,0.0
38,64,113,0.0
41,72,124,0.0
42,76,128,0.0
38,70,115,0.0
38,72,115,0.0
40,77,119,0.0
38,75,115,0.0
38,78,117,0.0
36,75,108,0.0
39,83,116,0.0
34,75,103,0.0
36,79,107,0.0
35,80,106,0.0
35,83,107,0.0
34,83,104,0.0
33,83,102,0.0
32,81,98,0.0
34,89,104,0.0
31,83,95,0.0
32,91,102,0.0
34,96,106,0.0
31,89,95,0.0
32,94,100,0.0
33,101,103,0.0
35,108,109,0.0
33,106,105,0.0
33,106,102,0.0
34,112,105,0.0
35,117,108,0.0
34,119,108,0.0
34,120,107,0.0
56,-277,74,0.0
56,-269,76,0.0
58,-273,80,0.0
57,-263,79,0.0
61,-277,87,0.0
60,-269,88,0.0
61,-270,91,0.0
63,-275,96,0.0
64,-271,99,0.0
64,-269,100,0.0
67,-274,106,0.0
67,-273,109,0.0
67,-268,110,0.0
69,-272,115,0.0
70,-271,119,0.0
72,-274,123,0.0
72,-270,125,0.0
73,-266,127,0.0
74,-269,133,0.0
74,-265,133,0.0
75,-263,137,0.0
75,-258,138,0.0
88,-297,163,0.0
83,-277,156,0.0
83,-272,157,0.0
78,-254,151,0.0
75,-242,147,0.0
71,-222,138,0.0
67,-207,132,0.0
64,-195,127,0.0
667,-1977,1322,0.0
657,-1916,1313,0.0
0,0,0,0.0
0,0,0,0.0
0,0,0,0.0
0,0,0,0.0
0,0,0,0.0
8777,-23245,18323,0.0
8761,-22830,18415,0.0
8740,-22410,18494,0.0
8726,-22011,18585,0.0
8705,-21600,18659,0.0
8691,-21214,18746,0.0
8675,-20825,18823,0.0
8664,-20454,18912,0.0
8637,-20049,18962,0.0
8621,-19678,19037,0.0
8622,-19347,19145,0.0
8610,-18991,19223,0.0
8578,-18595,19253,0.0
8579,-18273,19354,0.0
8561,-17918,19414,0.0
8556,-17592,19501,0.0
8534,-17236,19549,0.0
8522,-16901,19616,0.0
8522,-16595,19710,0.0
8523,-16291,19803,0.0
8595,-16126,20064,0.0
8847,-16286,20744,0.0
8954,-16171,21089,0.0
9235,-16359,21845,0.0
9487,-16477,22536,0.0
0,0,0,0.0
11431,-19072,27380,1.0
0,0,0,0.0
11676,-18693,28193,1.0
0,0,0,0.0
0,0,0,0.0
0,0,0,0.0
12067,-17717,29588,1.0
0,0,0,0.0
0,0,0,0.0
0,0,0,0.0
0,0,0,0.0
0,0,0,0.0
0,0,0,0.0
12576,-15615,31606,1.0
0,0,0,0.0
0,0,0,0.0
0,0,0,0.0
0,0,0,0.0
0,0,0,0.0
12543,-13195,32139,1.0
0,0,0,0.0
12350,-12218,31839,1.0
0,0,0,0.0
0,0,0,0.0
0,0,0,0.0
0,0,0,0.0
0,0,0,0.0
0,0,0,0.0
0,0,0,0.0
0,0,0,0.0
0,0,0,0.0
12532,-8503,33234,1.0
0,0,0,0.0
0,0,0,0.0
0,0,0,0.0
0,0,0,0.0
0,0,0,0.0
12356,-6088,33281,1.0
0,0,0,0.0
0,0,0,0.0
0,0,0,0.0
0,0,0,0.0
12173,-4101,33191,1.0
0,0,0,0.0
12074,-3311,33077,1.0
0,0,0,0.0
0,0,0,0.0
9281,-1667,25603,0.0
8729,-1291,24135,0.0
8360,-971,23169,0.0
8335,-702,23149,0.0
8336,-435,23204,0.0
8352,-167,23300,0.0
8348,101,23339,0.0
8356,371,23412,0.0
8354,643,23458,0.0
8343,915,23474,0.0
8385,1194,23643,0.0
8383,1470,23685,0.0
8386,1748,23742,0.0
8390,2029,23804,0.0
8379,2306,23823,0.0
8368,2584,23839,0.0
8388,2875,23943,0.0
8417,3172,24076,0.0
8429,3465,24158,0.0
8434,3758,24218,0.0
8436,4052,24274,0.0
8445,4351,24345,0.0
8447,4649,24396,0.0
8451,4952,24458,0.0
8456,5255,24516,0.0
8469,5568,24601,0.0
8468,5875,24646,0.0
8488,6199,24750,0.0
8495,6518,24819,0.0
19,16,59,0.0
16,14,51,0.0
22,19,68,0.0
19,17,57,0.0
26,24,76,0.0
27,27,83,0.0
26,26,77,0.0
29,31,87,0.0
29,31,87,0.0
29,33,86,0.0
31,38,96,0.0
33,42,102,0.0
33,43,101,0.0
33,44,100,0.0
34,48,107,0.0
35,50,107,0.0
39,57,119,0.0
40,61,125,0.0
35,54,108,0.0
43,70,135,0.0
44,73,136,0.0
38,65,119,0.0
38,66,118,0.0
42,77,132,0.0
42,77,129,0.0
44,82,135,0.0
41,80,128,0.0
40,80,124,0.0
40,82,124,0.0
38,81,119,0.0
40,86,124,0.0
38,85,120,0.0
39,89,123,0.0
37,87,118,0.0
36,86,114,0.0
36,88,113,0.0
33,82,104,0.0
33,85,105,0.0
33,89,107,0.0
34,93,109,0.0
35,96,111,0.0
32,93,105,0.0
31,92,101,0.0
32,96,104,0.0
33,100,106,0.0
33,105,108,0.0
33,108,108,0.0
32,104,103,0.0
33,114,111,0.0
32,110,104,0.0
32,113,106,0.0
32,116,105,0.0
34,125,110,0.0
38,-267,76,0.0
37,-256,76,0.0
39,-264,82,0.0
39,-258,83,0.0
42,-272,91,0.0
41,-261,90,0.0
42,-263,94,0.0
44,-269,99,0.0
44,-266,101,0.0
45,-265,104,0.0
46,-264,107,0.0
47,-268,113,0.0
47,-263,114,0.0
48,-260,115,0.0
50,-266,122,0.0
51,-267,126,0.0
51,-263,127,0.0
51,-261,130,0.0
52,-257,132,0.0
51,-251,132,0.0
52,-251,135,0.0
60,-282,156,0.0
62,-285,162,0.0
57,-258,150,0.0
55,-246,147,0.0
53,-233,142,0.0
52,-226,142,0.0
48,-204,131,0.0
46,-190,125,0.0
45,-184,123,0.0
42,-172,119,0.0
45,-177,125,0.0
39,-152,110,0.0
42,-161,120,0.0
492,-1818,1376,0.0
6470,-23454,18165,0.0
6492,-23127,18323,0.0
6481,-22689,18388,0.0
6483,-22305,18489,0.0
6472,-21882,18550,0.0
6484,-21543,18676,0.0
6481,-21157,18756,0.0
6477,-20775,18834,0.0
6470,-20389,18900,0.0
6464,-20011,18967,0.0
6459,-19644,19038,0.0
6461,-19302,19128,0.0
6460,-18955,19206,0.0
6457,-18603,19274,0.0
6443,-18231,19315,0.0
6452,-17925,19419,0.0
6443,-17573,19471,0.0
6443,-17249,19547,0.0
6436,-16910,19598,0.0
6424,-16567,19640,0.0
6438,-16289,19755,0.0
6470,-16059,19927,0.0
6637,-16159,20516,0.0
6745,-16105,20926,0.0
6959,-16290,21664,0.0
7158,-16424,22360,0.0
0,0,0,0.0
0,0,0,0.0
0,0,0,0.0
0,0,0,0.0
0,0,0,0.0
0,0,0,0.0
0,0,0,0.0
0,0,0,0.0
0,0,0,0.0
0,0,0,0.0
0,0,0,0.0
0,0,0,0.0
0,0,0,0.0
0,0,0,0.0
9690,-15913,31739,1.0
0,0,0,0.0
0,0,0,0.0
0,0,0,0.0
0,0,0,0.0
0,0,0,0.0
0,0,0,0.0
0,0,0,0.0
0,0,0,0.0
0,0,0,0.0
0,0,0,0.0
0,0,0,0.0
0,0,0,0.0
0,0,0,0.0
0,0,0,0.0
0,0,0,0.0
0,0,0,0.0
0,0,0,0.0
0,0,0,0.0
0,0,0,0.0
0,0,0,0.0
0,0,0,0.0
0,0,0,0.0
9829,-7102,34248,1.0
0,0,0,0.0
0,0,0,0.0
9836,-5945,34529,1.0
0,0,0,0.0
0,0,0,0.0
0,0,0,0.0
0,0,0,0.0
0,0,0,0.0
0,0,0,0.0
0,0,0,0.0
0,0,0,0.0
7271,-1793,26100,0.0
6768,-1397,24358,0.0
6617,-1098,23873,0.0
6412,-804,23192,0.0
6195,-525,22464,0.0
6409,-281,23292,0.0
6388,-18,23277,0.0
6399,245,23373,0.0
6398,510,23429,0.0
6405,778,23511,0.0
6417,1048,23615,0.0
6413,1317,23661,0.0
6411,1588,23708,0.0
6414,1862,23781,0.0
6413,2138,23837,0.0
6414,2414,23903,0.0
6410,2692,23945,0.0
6421,2977,24045,0.0
6426,3262,24124,0.0
6432,3551,24211,0.0
6416,3830,24211,0.0
6415,4119,24273,0.0
6422,4417,24363,0.0
6414,4705,24391,0.0
6430,5015,24520,0.0
6422,5309,24551,0.0
6426,5616,24630,0.0
6434,5930,24728,0.0
7,6,29,0.0
10,10,43,0.0
9,10,39,0.0
13,15,55,0.0
12,15,51,0.0
16,20,65,0.0
14,18,58,0.0
15,21,65,0.0
20,29,84,0.0
24,34,97,0.0
20,31,84,0.0
20,31,83,0.0
21,35,88,0.0
25,42,103,0.0
24,42,100,0.0
26,46,107,0.0
26,48,106,0.0
28,54,117,0.0
29,58,121,0.0
29,59,120,0.0
27,57,113,0.0
28,61,117,0.0
28,63,117,0.0
29,66,121,0.0
28,66,119,0.0
31,75,131,0.0
28,70,118,0.0
28,72,119,0.0
30,80,128,0.0
29,79,125,0.0
28,78,120,0.0
26,76,115,0.0
24,72,106,0.0
26,81,115,0.0
23,74,103,0.0
23,76,103,0.0
24,79,105,0.0
22,74,97,0.0
23,82,104,0.0
25,90,111,0.0
22,83,101,0.0
22,84,100,0.0
23,88,103,0.0
23,94,106,0.0
20,83,93,0.0
22,91,100,0.0
20,86,93,0.0
21,94,99,0.0
20,91,93,0.0
20,94,94,0.0
20,98,96,0.0
21,108,103,0.0
20,105,98,0.0
21,114,105,0.0
35,-276,80,0.0
36,-274,83,0.0
37,-281,88,0.0
37,-270,88,0.0
38,-275,92,0.0
39,-276,96,0.0
39,-273,98,0.0
41,-279,103,0.0
42,-276,106,0.0
42,-277,110,0.0
42,-274,112,0.0
44,-280,118,0.0
45,-275,120,0.0
45,-273,123,0.0
45,-268,124,0.0
47,-271,129,0.0
47,-268,132,0.0
49,-274,137,0.0
49,-268,139,0.0
48,-259,138,0.0
54,-284,154,0.0
56,-289,161,0.0
55,-276,159,0.0
50,-249,147,0.0
49,-239,144,0.0
50,-235,145,0.0
48,-226,142,0.0
46,-210,136,0.0
43,-195,130,0.0
42,-188,127,0.0
42,-185,128,0.0
40,-170,122,0.0
39,-164,120,0.0
35,-143,106,0.0
37,-152,116,0.0
5870,-23458,18295,0.0
5863,-23007,18355,0.0
5855,-22571,18418,0.0
5862,-22194,18520,0.0
5863,-21803,18606,0.0
5861,-21406,18679,0.0
5863,-21031,18766,0.0
5875,-20696,18880,0.0
5865,-20292,18928,0.0
5873,-19951,19026,0.0
5868,-19573,19084,0.0
5866,-19212,19152,0.0
5873,-18885,19248,0.0
5876,-18547,19328,0.0
5865,-18173,19362,0.0
5869,-17849,19447,0.0
5863,-17501,19497,0.0
5863,-17171,19563,0.0
5872,-16877,19665,0.0
5870,-16548,19722,0.0
5869,-16229,19785,0.0
5949,-16135,20122,0.0
6120,-16274,20766,0.0
6195,-16152,21090,0.0
6379,-16303,21786,0.0
6580,-16481,22544,0.0
0,0,0,0.0
0,0,0,0.0
8070,-19000,27905,1.0
0,0,0,0.0
0,0,0,0.0
8381,-18505,29241,1.0
0,0,0,0.0
0,0,0,0.0
0,0,0,0.0
0,0,0,0.0
8767,-17286,31033,1.0
0,0,0,0.0
0,0,0,0.0
0,0,0,0.0
0,0,0,0.0
0,0,0,0.0
0,0,0,0.0
0,0,0,0.0
0,0,0,0.0
0,0,0,0.0
0,0,0,0.0
0,0,0,0.0
0,0,0,0.0
0,0,0,0.0
0,0,0,0.0
0,0,0,0.0
0,0,0,0.0
0,0,0,0.0
0,0,0,0.0
0,0,0,0.0
0,0,0,0.0
0,0,0,0.0
0,0,0,0.0
0,0,0,0.0
0,0,0,0.0
0,0,0,0.0
0,0,0,0.0
0,0,0,0.0
0,0,0,0.0
0,0,0,0.0
0,0,0,0.0
0,0,0,0.0
0,0,0,0.0
0,0,0,0.0
0,0,0,0.0
0,0,0,0.0
0,0,0,0.0
0,0,0,0.0
8563,-2707,33462,1.0
6694,-1825,26224,0.0
6278,-1437,24656,0.0
6110,-1132,24058,0.0
5872,-829,23180,0.0
5692,-552,22530,0.0
5855,-308,23233,0.0
5870,-47,23352,0.0
5876,214,23438,0.0
5867,478,23462,0.0
5867,743,23522,0.0
5867,1011,23587,0.0
5872,1281,23671,0.0
5865,1549,23704,0.0
5864,1820,23762,0.0
5866,2094,23832,0.0
5878,2375,23946,0.0
5878,2653,24014,0.0
5870,2930,24046,0.0
5873,3214,24127,0.0
5868,3495,24171,0.0
5869,3783,24242,0.0
5869,4073,24314,0.0
5863,4359,24354,0.0
5864,4654,24427,0.0
5864,4952,24502,0.0
5861,5249,24556,0.0
5861,5553,24629,0.0
5,5,24,0.0
7,7,28,0.0
9,9,36,0.0
11,12,48,0.0
15,17,62,0.0
16,19,67,0.0
19,24,80,0.0
21,29,90,0.0
19,27,81,0.0
21,31,91,0.0
22,34,95,0.0
23,36,101,0.0
24,41,106,0.0
22,38,97,0.0
24,43,107,0.0
26,47,113,0.0
24,45,105,0.0
28,55,124,0.0
28,58,125,0.0
28,60,126,0.0
30,64,133,0.0
28,64,127,0.0
29,68,132,0.0
27,66,124,0.0
30,75,137,0.0
29,73,131,0.0
32,83,145,0.0
28,77,131,0.0
28,78,130,0.0
28,81,131,0.0
27,80,126,0.0
27,83,128,0.0
28,86,130,0.0
25,79,117,0.0
25,83,120,0.0
24,83,115,0.0
25,86,118,0.0
24,86,116,0.0
25,92,120,0.0
23,90,115,0.0
25,97,122,0.0
23,92,113,0.0
22,92,110,0.0
21,90,106,0.0
20,89,102,0.0
21,96,107,0.0
22,103,113,0.0
21,100,108,0.0
21,104,110,0.0
21,105,108,0.0
19,100,101,0.0
21,110,109,0.0
20,110,106,0.0
20,114,107,0.0
20,116,108,0.0
27,-275,81,0.0
27,-272,83,0.0
29,-279,89,0.0
29,-275,91,0.0
30,-273,94,0.0
30,-271,95,0.0
32,-282,103,0.0
33,-280,106,0.0
33,-274,108,0.0
34,-276,111,0.0
34,-273,114,0.0
36,-277,119,0.0
37,-274,122,0.0
37,-272,123,0.0
37,-267,125,0.0
39,-272,131,0.0
39,-269,133,0.0
40,-273,139,0.0
41,-267,140,0.0
42,-276,147,0.0
45,-290,159,0.0
44,-273,154,0.0
44,-270,156,0.0
41,-247,146,0.0
39,-227,138,0.0
39,-222,138,0.0
37,-206,131,0.0
36,-196,128,0.0
34,-187,125,0.0
34,-179,122,0.0
34,-180,127,0.0
30,-158,113,0.0
33,-166,122,0.0
0,0,0,0.0
0,0,0,0.0
23,-107,85,0.0
4939,-22879,18427,0.0
4943,-22469,18506,0.0
4948,-22069,18588,0.0
4954,-21677,18668,0.0
4949,-21248,18708,0.0
4956,-20878,18794,0.0
4979,-20580,18939,0.0
4967,-20145,18952,0.0
4975,-19794,19037,0.0
4977,-19429,19101,0.0
4992,-19118,19214,0.0
4989,-18743,19258,0.0
4998,-18417,19346,0.0
5006,-18097,19433,0.0
5008,-17757,19496,0.0
5007,-17409,19543,0.0
5009,-17079,19605,0.0
5010,-16753,19665,0.0
5014,-16440,19735,0.0
5025,-16153,19832,0.0
5130,-16162,20300,0.0
5261,-16245,20872,0.0
5355,-16203,21301,0.0
5518,-16357,22006,0.0
5695,-16536,22770,0.0
0,0,0,0.0
6881,-19160,27651,1.0
7003,-19089,28212,1.0
0,0,0,0.0
0,0,0,0.0
0,0,0,0.0
0,0,0,0.0
0,0,0,0.0
0,0,0,0.0
0,0,0,0.0
0,0,0,0.0
0,0,0,0.0
7662,-16621,31639,1.0
0,0,0,0.0
0,0,0,0.0
0,0,0,0.0
0,0,0,0.0
0,0,0,0.0
7947,-14743,33294,1.0
0,0,0,0.0
7880,-13814,33176,1.0
0,0,0,0.0
0,0,0,0.0
0,0,0,0.0
8158,-12656,34681,1.0
0,0,0,0.0
0,0,0,0.0
0,0,0,0.0
8325,-11263,35743,1.0
0,0,0,0.0
0,0,0,0.0
0,0,0,0.0
0,0,0,0.0
0,0,0,0.0
0,0,0,0.0
0,0,0,0.0
0,0,0,0.0
0,0,0,0.0
0,0,0,0.0
0,0,0,0.0
0,0,0,0.0
0,0,0,0.0
0,0,0,0.0
0,0,0,0.0
0,0,0,0.0
0,0,0,0.0
7541,-3543,33883,1.0
0,0,0,0.0
0,0,0,0.0
5780,-1854,26182,0.0
5470,-1481,24842,0.0
5294,-1167,24109,0.0
5064,-862,23127,0.0
5074,-606,23236,0.0
5065,-347,23260,0.0
5066,-88,23331,0.0
5060,171,23372,0.0
5057,433,23420,0.0
5053,694,23468,0.0
5055,960,23552,0.0
5064,1228,23662,0.0
5057,1495,23700,0.0
5053,1764,23753,0.0
5049,2034,23807,0.0
5053,2309,23899,0.0
5046,2583,23941,0.0
5046,2861,24016,0.0
5051,3145,24114,0.0
5045,3424,24165,0.0
5043,3709,24234,0.0
5034,3992,24272,0.0
5037,4284,24361,0.0
5023,4566,24383,0.0
5019,4859,24442,0.0
5024,5164,24552,0.0
3,3,15,0.0
5,5,24,0.0
6,6,29,0.0
8,10,38,0.0
5,5,24,0.0
12,17,60,0.0
14,21,71,0.0
15,22,74,0.0
16,24,78,0.0
17,29,89,0.0
18,31,92,0.0
19,33,96,0.0
20,36,100,0.0
19,37,98,0.0
18,35,93,0.0
21,44,110,0.0
21,46,110,0.0
21,49,114,0.0
21,49,111,0.0
23,55,120,0.0
24,58,124,0.0
24,63,131,0.0
24,65,132,0.0
25,69,137,0.0
23,67,129,0.0
24,71,134,0.0
25,76,138,0.0
26,81,143,0.0
26,82,141,0.0
24,79,133,0.0
24,83,136,0.0
24,84,135,0.0
24,86,135,0.0
22,80,121,0.0
23,89,132,0.0
21,83,119,0.0
20,82,116,0.0
20,87,121,0.0
21,88,119,0.0
20,91,120,0.0
20,90,116,0.0
19,91,115,0.0
19,92,114,0.0
19,92,112,0.0
19,97,115,0.0
19,99,115,0.0
17,91,104,0.0
17,96,106,0.0
16,97,105,0.0
16,97,104,0.0
16,102,106,0.0
16,104,106,0.0
16,108,107,0.0
16,114,111,0.0
16,114,109,0.0
16,113,106,0.0
19,-264,80,0.0
20,-266,83,0.0
20,-264,86,0.0
21,-261,88,0.0
21,-268,93,0.0
23,-271,97,0.0
24,-271,100,0.0
23,-269,104,0.0
24,-270,107,0.0
24,-266,109,0.0
26,-271,115,0.0
26,-268,116,0.0
27,-264,118,0.0
27,-261,121,0.0
29,-266,126,0.0
29,-261,127,0.0
30,-267,134,0.0
30,-261,134,0.0
31,-265,140,0.0
35,-289,157,0.0
35,-282,156,0.0
34,-268,153,0.0
32,-244,142,0.0
31,-234,140,0.0
30,-220,135,0.0
30,-213,134,0.0
28,-203,130,0.0
27,-190,126,0.0
29,-192,130,0.0
25,-166,115,0.0
27,-173,123,0.0
27,-165,120,0.0
24,-149,110,0.0
23,-137,104,0.0
20,-118,92,0.0
16,-94,74,0.0
18,-103,83,0.0
4028,-22309,18531,0.0
4036,-21900,18599,0.0
4049,-21526,18689,0.0
4058,-21136,18760,0.0
4065,-20745,18822,0.0
4083,-20418,18938,0.0
4090,-20043,19002,0.0
4097,-19672,19063,0.0
4109,-19332,19149,0.0
4121,-18998,19236,0.0
4130,-18660,19312,0.0
4136,-18310,19371,0.0
4141,-17963,19427,0.0
4153,-17657,19521,0.0
4162,-17335,19593,0.0
4172,-17023,19673,0.0
4137,-16535,19539,0.0
4179,-16365,19774,0.0
4188,-16065,19852,0.0
4283,-16090,20337,0.0
4398,-16180,20920,0.0
4507,-16239,21479,0.0
4632,-16336,22111,0.0
4783,-16513,22873,0.0
0,0,0,0.0
5754,-19026,27617,1.0
0,0,0,0.0
5918,-18728,28511,1.0
0,0,0,0.0
0,0,0,0.0
0,0,0,0.0
0,0,0,0.0
0,0,0,0.0
0,0,0,0.0
0,0,0,0.0
0,0,0,0.0
6419,-16450,31458,1.0
0,0,0,0.0
6537,-15924,32165,1.0
6530,-15499,32199,1.0
0,0,0,0.0
0,0,0,0.0
0,0,0,0.0
0,0,0,0.0
0,0,0,0.0
6594,-13236,32928,1.0
0,0,0,0.0
0,0,0,0.0
0,0,0,0.0
0,0,0,0.0
0,0,0,0.0
0,0,0,0.0
0,0,0,0.0
7034,-10807,35753,1.0
0,0,0,0.0
0,0,0,0.0
6731,-9177,34457,1.0
0,0,0,0.0
6517,-8135,33523,1.0
0,0,0,0.0
0,0,0,0.0
0,0,0,0.0
6767,-6899,35160,1.0
0,0,0,0.0
0,0,0,0.0
0,0,0,0.0
0,0,0,0.0
6532,-4787,34390,1.0
6489,-4381,34256,1.0
0,0,0,0.0
6384,-3573,33891,1.0
0,0,0,0.0
6281,-2786,33538,1.0
0,0,0,0.0
4671,-1525,25086,0.0
4495,-1203,24212,0.0
4289,-895,23175,0.0
4281,-638,23199,0.0
4274,-381,23230,0.0
4283,-125,23354,0.0
4277,133,23398,0.0
4267,392,23419,0.0
4262,652,23471,0.0
4268,916,23578,0.0
4265,1181,23637,0.0
4263,1447,23710,0.0
4255,1712,23748,0.0
4250,1981,23804,0.0
4245,2252,23868,0.0
4243,2526,23938,0.0
4248,2807,24053,0.0
4241,3083,24106,0.0
4236,3362,24169,0.0
4227,3641,24211,0.0
4216,3920,24242,0.0
4211,4205,24307,0.0
4209,4499,24400,0.0
4206,4793,24479,0.0
0,0,2,0.0
2,1,8,0.0
0,0,0,0.0
4,4,21,0.0
5,6,28,0.0
6,8,34,0.0
7,11,43,0.0
13,23,79,0.0
11,20,66,0.0
13,23,74,0.0
14,27,84,0.0
16,32,97,0.0
12,26,74,0.0
14,32,89,0.0
16,36,97,0.0
16,37,98,0.0
17,42,105,0.0
17,44,107,0.0
18,47,110,0.0
18,51,116,0.0
17,51,113,0.0
16,48,104,0.0
18,59,124,0.0
20,67,136,0.0
19,62,121,0.0
21,69,134,0.0
20,70,133,0.0
18,68,125,0.0
18,70,126,0.0
20,76,132,0.0
20,78,132,0.0
17,71,119,0.0
17,76,124,0.0
16,76,120,0.0
17,81,124,0.0
15,74,111,0.0
17,84,123,0.0
16,82,118,0.0
15,84,118,0.0
16,88,121,0.0
15,88,118,0.0
15,90,118,0.0
15,88,113,0.0
14,93,116,0.0
14,91,111,0.0
13,90,108,0.0
13,86,100,0.0
12,83,95,0.0
12,86,96,0.0
12,93,103,0.0
13,101,108,0.0
12,98,104,0.0
12,102,105,0.0
12,105,105,0.0
12,111,110,0.0
11,108,104,0.0
11,111,105,0.0
16,-268,81,0.0
18,-279,88,0.0
19,-283,93,0.0
20,-281,95,0.0
20,-279,97,0.0
20,-278,101,0.0
21,-282,105,0.0
23,-284,110,0.0
22,-276,110,0.0
23,-281,116,0.0
24,-278,118,0.0
25,-284,124,0.0
25,-278,126,0.0
25,-274,127,0.0
28,-280,133,0.0
28,-275,134,0.0
28,-274,138,0.0
29,-277,142,0.0
31,-280,148,0.0
32,-293,159,0.0
33,-289,162,0.0
31,-267,153,0.0
30,-255,150,0.0
30,-246,148,0.0
28,-225,138,0.0
27,-212,134,0.0
27,-209,135,0.0
28,-206,136,0.0
26,-195,132,0.0
27,-189,131,0.0
24,-171,121,0.0
26,-175,127,0.0
23,-158,117,0.0
21,-136,103,0.0
18,-116,91,0.0
3701,-23076,18381,0.0
3713,-22659,18456,0.0
3724,-22243,18524,0.0
3740,-21870,18621,0.0
3751,-21477,18693,0.0
3765,-21112,18784,0.0
3777,-20735,18859,0.0
3790,-20380,18947,0.0
3792,-19967,18974,0.0
3809,-19645,19082,0.0
3820,-19295,19156,0.0
3836,-18978,19258,0.0
3844,-18627,19321,0.0
3854,-18291,19393,0.0
3862,-17952,19456,0.0
3872,-17626,19529,0.0
3881,-17303,19598,0.0
3890,-16988,19673,0.0
3892,-16645,19708,0.0
3900,-16330,19772,0.0
3910,-16035,19854,0.0
4012,-16106,20396,0.0
4112,-16159,20933,0.0
4223,-16244,21528,0.0
4361,-16418,22264,0.0
4481,-16512,22913,0.0
5296,-19092,27117,1.0
0,0,0,0.0
0,0,0,0.0
0,0,0,0.0
5578,-18401,28745,1.0
5638,-18177,29097,1.0
0,0,0,0.0
0,0,0,0.0
0,0,0,0.0
5869,-17229,30492,1.0
5916,-16953,30791,1.0
5967,-16685,31110,1.0
6006,-16382,31371,1.0
0,0,0,0.0
0,0,0,0.0
0,0,0,0.0
0,0,0,0.0
0,0,0,0.0
0,0,0,0.0
0,0,0,0.0
0,0,0,0.0
0,0,0,0.0
6339,-13123,33755,1.0
0,0,0,0.0
0,0,0,0.0
0,0,0,0.0
0,0,0,0.0
0,0,0,0.0
0,0,0,0.0
0,0,0,0.0
0,0,0,0.0
0,0,0,0.0
6254,-9065,34054,1.0
0,0,0,0.0
6131,-8139,33541,1.0
6121,-7755,33573,1.0
0,0,0,0.0
0,0,0,0.0
0,0,0,0.0
0,0,0,0.0
0,0,0,0.0
6225,-5617,34670,1.0
0,0,0,0.0
0,0,0,0.0
0,0,0,0.0
0,0,0,0.0
6004,-3584,33910,1.0
0,0,0,0.0
0,0,0,0.0
0,0,0,0.0
4401,-1539,25150,0.0
4220,-1211,24194,0.0
4037,-905,23213,0.0
4031,-650,23252,0.0
4012,-392,23218,0.0
4013,-136,23302,0.0
4010,121,23363,0.0
4018,380,23484,0.0
4011,641,23529,0.0
4007,903,23589,0.0
4003,1167,23644,0.0
3996,1431,23691,0.0
3993,1698,23762,0.0
3991,1967,23831,0.0
3989,2240,23913,0.0
3988,2515,24001,0.0
3976,2785,24021,0.0
3970,3062,24082,0.0
3968,3342,24166,0.0
3955,3619,24194,0.0
3947,3899,24245,0.0
3945,4189,24334,0.0
3936,4473,24382,0.0
3929,4766,24454,0.0
1,2,11,0.0
3,3,16,0.0
5,5,28,0.0
4,5,25,0.0
4,6,25,0.0
7,10,40,0.0
10,17,61,0.0
12,22,79,0.0
12,23,79,0.0
13,26,84,0.0
14,29,91,0.0
14,31,94,0.0
15,35,100,0.0
15,35,98,0.0
17,43,115,0.0
15,38,101,0.0
16,44,112,0.0
17,47,117,0.0
16,46,109,0.0
18,54,126,0.0
17,54,121,0.0
19,60,130,0.0
19,64,137,0.0
19,65,134,0.0
18,65,129,0.0
18,68,131,0.0
18,70,132,0.0
21,83,153,0.0
20,82,148,0.0
17,75,131,0.0
18,78,133,0.0
20,89,147,0.0
18,88,142,0.0
17,83,132,0.0
18,96,147,0.0
17,86,131,0.0
18,98,146,0.0
16,91,131,0.0
15,91,128,0.0
16,95,132,0.0
15,96,129,0.0
16,104,138,0.0
14,94,122,0.0
15,101,127,0.0
14,99,123,0.0
14,98,118,0.0
13,100,117,0.0
12,93,107,0.0
12,100,113,0.0
12,109,120,0.0
12,105,114,0.0
11,106,112,0.0
11,106,109,0.0
11,116,117,0.0
11,114,113,0.0
10,118,114,0.0
10,116,110,0.0
9,-277,85,0.0
10,-272,87,0.0
9,-265,88,0.0
11,-278,95,0.0
11,-265,94,0.0
12,-275,101,0.0
13,-270,103,0.0
13,-264,104,0.0
13,-264,106,0.0
14,-270,113,0.0
16,-273,117,0.0
15,-272,120,0.0
16,-264,120,0.0
17,-270,127,0.0
17,-267,129,0.0
18,-272,135,0.0
19,-268,136,0.0
19,-268,140,0.0
21,-279,149,0.0
23,-292,160,0.0
23,-292,165,0.0
23,-272,157,0.0
23,-266,157,0.0
22,-254,154,0.0
22,-243,152,0.0
22,-240,153,0.0
22,-226,147,0.0
22,-227,152,0.0
21,-207,142,0.0
20,-192,135,0.0
21,-194,138,0.0
20,-179,131,0.0
17,-151,113,0.0
17,-145,111,0.0
15,-125,97,0.0
13,-113,89,0.0
11,-91,75,0.0
10,-80,68,0.0
10,-74,64,0.0
2868,-21386,18745,0.0
2885,-21001,18815,0.0
2899,-20610,18872,0.0
2914,-20241,18943,0.0
2935,-19922,19056,0.0
2946,-19537,19099,0.0
2965,-19216,19200,0.0
2974,-18844,19242,0.0
2992,-18530,19340,0.0
3003,-18177,19389,0.0
3017,-17855,19468,0.0
3026,-17512,19517,0.0
3044,-17218,19617,0.0
3052,-16879,19658,0.0
3063,-16567,19727,0.0
3070,-16231,19760,0.0
3107,-16059,19994,0.0
3187,-16108,20508,0.0
3263,-16122,20997,0.0
3367,-16266,21670,0.0
3479,-16426,22390,0.0
3584,-16540,23069,0.0
4221,-19042,27182,1.0
0,0,0,0.0
0,0,0,0.0
4383,-18441,28256,1.0
0,0,0,0.0
4481,-17984,28919,1.0
0,0,0,0.0
4577,-17510,29584,1.0
0,0,0,0.0
4683,-17059,30319,1.0
0,0,0,0.0
0,0,0,0.0
0,0,0,0.0
0,0,0,0.0
0,0,0,0.0
0,0,0,0.0
0,0,0,0.0
0,0,0,0.0
0,0,0,0.0
0,0,0,0.0
0,0,0,0.0
0,0,0,0.0
0,0,0,0.0
0,0,0,0.0
5140,-12315,33961,1.0
0,0,0,0.0
0,0,0,0.0
0,0,0,0.0
0,0,0,0.0
5158,-10376,34406,1.0
0,0,0,0.0
0,0,0,0.0
5030,-8983,33776,1.0
5052,-8645,34005,1.0
0,0,0,0.0
5050,-7886,34150,1.0
0,0,0,0.0
0,0,0,0.0
5078,-6799,34605,1.0
0,0,0,0.0
0,0,0,0.0
0,0,0,0.0
0,0,0,0.0
4963,-4798,34289,1.0
4895,-4368,33925,1.0
4875,-3984,33886,1.0
0,0,0,0.0
0,0,0,0.0
0,0,0,0.0
4675,-2410,32916,1.0
3582,-1573,25304,0.0
3409,-1236,24170,0.0
3265,-933,23234,0.0
3248,-677,23198,0.0
3244,-423,23253,0.0
3242,-168,23330,0.0
3241,87,23410,0.0
3231,344,23434,0.0
3229,603,23516,0.0
3225,864,23579,0.0
3222,1127,23659,0.0
3211,1389,23688,0.0
3210,1657,23783,0.0
3203,1923,23834,0.0
3195,2190,23885,0.0
3191,2464,23971,0.0
3180,2733,24002,0.0
3175,3010,24087,0.0
3166,3285,24142,0.0
3155,3561,24183,0.0
3145,3841,24234,0.0
3139,4127,24319,0.0
3124,4405,24339,0.0
0,0,0,0.0
2,3,18,0.0
4,7,36,0.0
1,2,11,0.0
3,5,24,0.0
3,6,25,0.0
7,13,54,0.0
7,16,60,0.0
8,19,68,0.0
8,19,64,0.0
9,23,77,0.0
10,25,79,0.0
12,32,97,0.0
10,31,90,0.0
11,31,88,0.0
12,39,108,0.0
12,39,106,0.0
13,45,116,0.0
12,44,110,0.0
14,50,119,0.0
14,55,125,0.0
13,51,115,0.0
13,54,118,0.0
13,60,128,0.0
14,66,137,0.0
13,64,129,0.0
13,66,130,0.0
14,74,142,0.0
14,75,139,0.0
14,77,140,0.0
12,73,128,0.0
12,72,125,0.0
13,78,131,0.0
13,85,139,0.0
12,83,134,0.0
12,86,133,0.0
12,84,127,0.0
11,85,127,0.0
11,87,127,0.0
11,93,132,0.0
10,89,123,0.0
10,89,122,0.0
9,87,116,0.0
9,93,120,0.0
9,94,119,0.0
8,95,118,0.0
9,99,120,0.0
8,94,111,0.0
8,92,107,0.0
8,98,111,0.0
7,97,108,0.0
7,100,109,0.0
7,104,111,0.0
7,100,104,0.0
6,103,106,0.0
6,114,114,0.0
6,111,109,0.0
6,118,113,0.0
1,-289,90,0.0
2,-285,93,0.0
2,-278,93,0.0
3,-280,98,0.0
3,-272,98,0.0
4,-278,103,0.0
4,-269,103,0.0
5,-270,107,0.0
5,-270,110,0.0
7,-273,114,0.0
7,-273,119,0.0
8,-274,122,0.0
8,-270,124,0.0
8,-267,127,0.0
9,-273,133,0.0
9,-262,131,0.0
10,-269,137,0.0
10,-263,139,0.0
12,-275,148,0.0
13,-294,162,0.0
15,-299,170,0.0
13,-268,156,0.0
15,-280,168,0.0
14,-266,164,0.0
15,-251,157,0.0
14,-245,157,0.0
15,-233,154,0.0
15,-225,151,0.0
13,-207,143,0.0
14,-197,139,0.0
13,-188,135,0.0
13,-178,132,0.0
11,-158,119,0.0
11,-140,108,0.0
9,-117,93,0.0
10,-120,97,0.0
8,-99,81,0.0
7,-80,68,0.0
1967,-21647,18675,0.0
1988,-21255,18743,0.0
2013,-20902,18837,0.0
2029,-20483,18866,0.0
2051,-20146,18964,0.0
2072,-19794,19042,0.0
2093,-19457,19128,0.0
2110,-19092,19182,0.0
2131,-18781,19283,0.0
2150,-18444,19354,0.0
2166,-18108,19420,0.0
2182,-17779,19486,0.0
2196,-17431,19528,0.0
2213,-17128,19612,0.0
2228,-16812,19679,0.0
2241,-16485,19728,0.0
2259,-16208,19830,0.0
2307,-16135,20186,0.0
2370,-16169,20685,0.0
2427,-16148,21129,0.0
2512,-16304,21821,0.0
2594,-16429,22493,0.0
3070,-18964,26567,1.0
0,0,0,0.0
0,0,0,0.0
0,0,0,0.0
3263,-18240,28063,1.0
3308,-18032,28416,1.0
0,0,0,0.0
3415,-17698,29283,1.0
3438,-17365,29451,1.0
0,0,0,0.0
3498,-16784,29941,1.0
0,0,0,0.0
0,0,0,0.0
3632,-16102,31064,1.0
0,0,0,0.0
0,0,0,0.0
3711,-15161,31752,1.0
3732,-14826,31943,1.0
0,0,0,0.0
3733,-14001,31977,1.0
0,0,0,0.0
0,0,0,0.0
0,0,0,0.0
3840,-12766,33010,1.0
0,0,0,0.0
0,0,0,0.0
0,0,0,0.0
3909,-11389,33767,1.0
0,0,0,0.0
0,0,0,0.0
0,0,0,0.0
0,0,0,0.0
0,0,0,0.0
0,0,0,0.0
0,0,0,0.0
0,0,0,0.0
0,0,0,0.0
0,0,0,0.0
0,0,0,0.0
0,0,0,0.0
3827,-6302,34007,1.0
3812,-5910,33964,1.0
0,0,0,0.0
3779,-5135,33881,1.0
3756,-4743,33785,1.0
0,0,0,0.0
0,0,0,0.0
0,0,0,0.0
0,0,0,0.0
3598,-2801,32934,1.0
0,0,0,0.0
2758,-1605,25449,0.0
2609,-1260,24174,0.0
2488,-953,23148,0.0
2484,-702,23217,0.0
2478,-449,23273,0.0
2473,-196,23330,0.0
2467,58,23387,0.0
2461,314,23442,0.0
2456,571,23515,0.0
2447,830,23557,0.0
2444,1092,23649,0.0
2430,1350,23646,0.0
2421,1612,23687,0.0
2414,1878,23762,0.0
2412,2150,23885,0.0
2406,2421,23967,0.0
2392,2687,23991,0.0
2384,2962,24066,0.0
2372,3234,24108,0.0
2361,3510,24161,0.0
2351,3790,24229,0.0
2340,4071,24295,0.0
2329,4357,24368,0.0
2316,4643,24425,0.0
0,0,3,0.0
1,3,19,0.0
2,4,17,0.0
1,2,8,0.0
3,5,24,0.0
3,9,39,0.0
4,13,47,0.0
6,21,78,0.0
5,15,55,0.0
7,24,80,0.0
8,29,94,0.0
7,28,86,0.0
7,28,82,0.0
7,32,92,0.0
8,35,98,0.0
7,36,97,0.0
9,44,113,0.0
10,50,124,0.0
8,43,104,0.0
9,51,119,0.0
8,50,114,0.0
10,59,131,0.0
9,59,127,0.0
9,61,126,0.0
9,64,130,0.0
8,62,122,0.0
9,71,138,0.0
9,72,135,0.0
9,73,133,0.0
9,78,139,0.0
9,77,134,0.0
8,81,137,0.0
8,80,132,0.0
8,87,138,0.0
7,85,134,0.0
7,85,131,0.0
7,90,136,0.0
7,88,130,0.0
6,88,126,0.0
6,95,133,0.0
6,94,128,0.0
6,99,132,0.0
5,100,130,0.0
5,99,126,0.0
5,96,120,0.0
5,103,126,0.0
4,99,119,0.0
4,97,113,0.0
3,100,115,0.0
4,110,122,0.0
3,103,114,0.0
3,107,115,0.0
3,111,117,0.0
2,113,116,0.0
2,113,114,0.0
2,121,119,0.0
1,120,116,0.0
-3,-310,97,0.0
-3,-310,101,0.0
-2,-303,102,0.0
-2,-287,100,0.0
-1,-285,103,0.0
0,-284,106,0.0
0,-274,105,0.0
0,-287,115,0.0
1,-278,114,0.0
1,-270,114,0.0
1,-275,121,0.0
1,-279,125,0.0
3,-274,127,0.0
3,-270,128,0.0
4,-270,131,0.0
4,-270,136,0.0
5,-271,140,0.0
5,-271,144,0.0
6,-306,165,0.0
7,-303,169,0.0
7,-297,170,0.0
8,-281,164,0.0
8,-271,163,0.0
8,-253,155,0.0
8,-247,156,0.0
8,-242,156,0.0
9,-231,153,0.0
10,-234,158,0.0
9,-204,142,0.0
9,-212,150,0.0
9,-200,145,0.0
9,-189,141,0.0
9,-177,134,0.0
8,-148,115,0.0
6,-111,88,0.0
6,-115,93,0.0
5,-95,79,0.0
7,-105,90,0.0
1376,-21490,18606,0.0
1408,-21197,18757,0.0
1436,-20870,18874,0.0
1458,-20467,18916,0.0
1479,-20068,18955,0.0
1504,-19739,19053,0.0
1529,-19433,19168,0.0
1548,-19055,19208,0.0
1570,-18722,19286,0.0
1590,-18389,19357,0.0
1609,-18047,19414,0.0
1628,-17721,19484,0.0
1649,-17430,19586,0.0
1667,-17112,19653,0.0
1685,-16795,19717,0.0
1695,-16420,19706,0.0
1715,-16156,19823,0.0
1761,-16126,20231,0.0
1819,-16193,20774,0.0
1864,-16144,21180,0.0
1941,-16348,21939,0.0
2008,-16459,22597,0.0
2368,-18890,26534,1.0
0,0,0,0.0
0,0,0,0.0
0,0,0,0.0
0,0,0,0.0
0,0,0,0.0
0,0,0,0.0
0,0,0,0.0
0,0,0,0.0
0,0,0,0.0
0,0,0,0.0
0,0,0,0.0
2808,-16161,30427,1.0
0,0,0,0.0
0,0,0,0.0
0,0,0,0.0
2909,-14954,31379,1.0
2907,-14517,31336,1.0
2928,-14200,31545,1.0
0,0,0,0.0
0,0,0,0.0
0,0,0,0.0
0,0,0,0.0
3030,-12610,32653,1.0
0,0,0,0.0
0,0,0,0.0
0,0,0,0.0
0,0,0,0.0
0,0,0,0.0
3120,-10572,33796,1.0
3139,-10247,34055,1.0
0,0,0,0.0
3102,-9363,33769,1.0
0,0,0,0.0
3040,-8434,33210,1.0
0,0,0,0.0
0,0,0,0.0
3030,-7316,33336,1.0
3023,-6938,33342,1.0
3031,-6595,33523,1.0
3029,-6231,33601,1.0
0,0,0,0.0
3001,-5458,33488,1.0
0,0,0,0.0
0,0,0,0.0
0,0,0,0.0
2944,-3951,33331,1.0
0,0,0,0.0
2889,-3182,32983,1.0
2858,-2802,32775,1.0
2811,-2414,32379,1.0
2212,-1629,25606,0.0
2079,-1274,24180,0.0
1997,-976,23344,0.0
1974,-716,23193,0.0
1970,-466,23274,0.0
1962,-213,23317,0.0
1958,41,23393,0.0
1951,296,23451,0.0
1942,552,23486,0.0
1935,811,23571,0.0
1928,1070,23637,0.0
1919,1330,23680,0.0
1912,1595,23774,0.0
1903,1861,23838,0.0
1890,2122,23847,0.0
1885,2396,23977,0.0
1871,2663,23999,0.0
1862,2936,24066,0.0
1851,3211,24144,0.0
1838,3484,24177,0.0
1825,3762,24240,0.0
1810,4038,24276,0.0
1800,4325,24363,0.0
1786,4610,24426,0.0
1772,4898,24488,0.0
1,2,8,0.0
3,9,43,0.0
3,10,44,0.0
1,4,17,0.0
2,7,30,0.0
2,12,45,0.0
5,20,76,0.0
5,21,76,0.0
6,27,92,0.0
6,27,88,0.0
6,28,88,0.0
6,32,97,0.0
5,33,97,0.0
6,40,109,0.0
6,40,108,0.0
7,44,116,0.0
6,44,110,0.0
7,47,116,0.0
6,52,123,0.0
7,55,127,0.0
7,61,135,0.0
6,59,125,0.0
6,63,133,0.0
6,69,139,0.0
6,72,143,0.0
6,71,138,0.0
6,77,144,0.0
6,82,151,0.0
6,78,139,0.0
6,88,152,0.0
5,92,156,0.0
5,86,143,0.0
5,92,149,0.0
5,93,147,0.0
4,90,139,0.0
4,92,140,0.0
4,95,139,0.0
4,101,146,0.0
3,100,142,0.0
3,97,133,0.0
3,104,139,0.0
3,108,142,0.0
2,107,137,0.0
2,103,129,0.0
2,107,131,0.0
1,108,129,0.0
1,112,131,0.0
1,103,119,0.0
0,108,122,0.0
0,105,115,0.0
0,109,118,0.0
0,113,119,0.0
0,117,121,0.0
0,121,122,0.0
0,119,117,0.0
-1,127,122,0.0
-26,-340,109,0.0
-25,-333,111,0.0
-24,-324,112,0.0
-23,-324,115,0.0
-23,-316,116,0.0
-22,-308,118,0.0
-21,-301,118,0.0
-20,-301,122,0.0
-18,-280,117,0.0
-18,-272,117,0.0
-17,-270,120,0.0
-17,-278,126,0.0
-17,-277,130,0.0
-17,-274,132,0.0
-16,-280,138,0.0
-15,-271,138,0.0
-15,-279,146,0.0
-15,-288,154,0.0
-16,-305,168,0.0
-15,-285,160,0.0
-14,-273,158,0.0
-13,-274,162,0.0
-12,-262,159,0.0
-10,-223,139,0.0
-11,-237,151,0.0
-9,-226,147,0.0
-7,-186,124,0.0
-8,-190,130,0.0
-6,-168,118,0.0
-7,-178,128,0.0
-75,-1900,1392,0.0
0,0,0,0.0
0,0,0,0.0
0,0,0,0.0
-65,-1862,1491,0.0
-842,-24823,20323,0.0
-815,-24938,20870,0.0
-773,-24592,21034,0.0
-729,-24128,21092,0.0
-687,-23700,21172,0.0
-645,-23255,21229,0.0
-605,-22827,21292,0.0
-567,-22451,21399,0.0
-529,-22012,21438,0.0
-494,-21663,21557,0.0
-459,-21278,21636,0.0
-424,-20879,21693,0.0
-392,-20482,21744,0.0
-359,-20105,21811,0.0
-328,-19746,21890,0.0
-298,-19387,21964,0.0
-270,-19005,22004,0.0
-241,-18636,22053,0.0
-213,-18189,22001,0.0
-187,-17966,22214,0.0
-162,-17638,22297,0.0
-138,-17294,22354,0.0
-113,-16912,22353,0.0
-89,-16305,22040,0.0
-67,-15994,22116,0.0
-45,-15537,21979,0.0
-25,-15038,21768,0.0
-6,-15098,22367,0.0
12,-15009,22760,0.0
31,-14687,22803,0.0
48,-14392,22884,0.0
65,-14016,22828,0.0
82,-13746,22940,0.0
98,-13461,23024,0.0
113,-13156,23071,0.0
128,-12843,23097,0.0
142,-12570,23191,0.0
155,-12277,23246,0.0
167,-11987,23301,0.0
179,-11674,23308,0.0
185,-11070,22712,0.0
201,-11080,23370,0.0
210,-10755,23332,0.0
218,-10408,23233,0.0
229,-10179,23397,0.0
239,-9985,23644,0.0
235,-9201,22461,0.0
241,-8910,22439,0.0
248,-8662,22519,0.0
254,-8408,22583,0.0
264,-8263,22948,0.0
273,-8127,23357,0.0
278,-7883,23472,0.0
280,-7561,23344,0.0
280,-7186,23032,0.0
284,-6933,23094,0.0
299,-6977,24186,0.0
301,-6700,24205,0.0
305,-6482,24439,0.0
307,-6225,24538,0.0
308,-5955,24580,0.0
308,-5690,24649,0.0
309,-5438,24766,0.0
308,-5169,24819,0.0
307,-4901,24875,0.0
306,-4639,24965,0.0
0,0,0,0.0
295,-4006,24491,0.0
298,-3832,25129,0.0
295,-3565,25199,0.0
292,-3302,25305,0.0
287,-3036,25399,0.0
277,-2708,24941,0.0
272,-2454,25115,0.0
264,-2172,25023,0.0
264,-1949,25668,0.0
254,-1659,25488,0.0
247,-1386,25553,0.0
241,-1122,25837,0.0
232,-846,25919,0.0
223,-569,26030,0.0
213,-288,26041,0.0
191,-7,24683,0.0
191,275,26182,0.0
178,557,26158,0.0
163,822,25625,0.0
151,1108,25837,0.0
136,1375,25592,0.0
127,1712,26517,0.0
113,2014,26720,0.0
98,2308,26767,0.0
81,2607,26847,0.0
65,2904,26885,0.0
47,3213,27014,0.0
29,3516,27076,0.0
11,3827,27171,0.0
-8,4134,27213,0.0
-28,4451,27319,0.0
-49,4763,27372,0.0
-71,5089,27487,0.0
-93,5411,27559,0.0
-116,5737,27640,0.0
-140,6064,27709,0.0
-164,6398,27802,0.0
-190,6729,27861,0.0
-258,8416,33267,0.0
0,20,81,0.0
0,21,78,0.0
0,23,80,0.0
0,22,77,0.0
0,25,83,0.0
0,26,82,0.0
0,25,77,0.0
0,31,89,0.0
-1,32,92,0.0
-1,35,97,0.0
-1,38,100,0.0
-1,34,87,0.0
-2,39,98,0.0
-2,50,119,0.0
-2,50,116,0.0
-2,52,116,0.0
-2,60,132,0.0
-3,64,135,0.0
-3,67,138,0.0
-3,65,131,0.0
-4,68,131,0.0
-4,72,138,0.0
-4,76,141,0.0
-6,90,161,0.0
-5,88,155,0.0
-6,88,151,0.0
-6,89,149,0.0
-6,88,145,0.0
-7,98,156,0.0
-7,94,147,0.0
-7,93,142,0.0
-7,104,154,0.0
-8,106,155,0.0
-8,102,145,0.0
-8,109,151,0.0
-8,109,147,0.0
-9,114,152,0.0
-9,116,150,0.0
-9,115,145,0.0
-10,113,140,0.0
-10,118,143,0.0
-9,110,130,0.0
-10,117,135,0.0
-10,116,132,0.0
-10,112,125,0.0
-11,114,124,0.0
-11,118,125,0.0
-12,121,126,0.0
-12,127,130,0.0
-12,121,121,0.0
-12,126,123,0.0
-40,-340,109,0.0
-38,-333,112,0.0
-38,-332,115,0.0
-36,-322,115,0.0
-36,-326,121,0.0
-34,-314,120,0.0
-34,-313,123,0.0
-33,-305,124,0.0
-31,-294,123,0.0
-31,-286,124,0.0
-30,-285,126,0.0
-29,-288,132,0.0
-29,-282,132,0.0
-28,-271,131,0.0
-29,-285,142,0.0
-29,-288,148,0.0
-30,-307,161,0.0
-28,-288,155,0.0
-29,-295,163,0.0
-26,-275,155,0.0
-24,-254,147,0.0
-24,-251,150,0.0
-22,-240,146,0.0
-20,-216,134,0.0
-19,-214,137,0.0
-17,-185,121,0.0
-16,-185,123,0.0
-182,-1989,1366,0.0
-184,-2017,1417,0.0
-180,-1989,1430,0.0
0,0,0,0.0
0,0,0,0.0
-161,-1829,1407,0.0
0,0,0,0.0
0,0,0,0.0
-2144,-24814,20387,0.0
-2136,-24894,20905,0.0
-2085,-24480,21009,0.0
-2034,-24052,21096,0.0
-1983,-23619,21169,0.0
-1932,-23167,21218,0.0
-1886,-22768,21308,0.0
-1836,-22318,21341,0.0
-1793,-21924,21422,0.0
-1750,-21524,21487,0.0
-1712,-21190,21614,0.0
-1669,-20773,21650,0.0
-1631,-20419,21744,0.0
-1593,-20041,21807,0.0
-1557,-19685,21888,0.0
-1521,-19319,21951,0.0
-1487,-18952,22008,0.0
-1453,-18603,22079,0.0
-1419,-18239,22125,0.0
-1389,-17899,22195,0.0
-1356,-17526,22217,0.0
-1330,-17231,22333,0.0
-1300,-16877,22368,0.0
-1272,-16544,22425,0.0
-1244,-16199,22458,0.0
-1220,-15902,22555,0.0
-1195,-15566,22590,0.0
-1171,-15249,22646,0.0
-1149,-14958,22739,0.0
-1127,-14653,22807,0.0
-1106,-14342,22859,0.0
-1084,-14018,22887,0.0
-1063,-13702,22921,0.0
-1044,-13401,22974,0.0
-1025,-13089,23005,0.0
-1010,-12819,23106,0.0
-990,-12500,23111,0.0
-977,-12241,23226,0.0
-959,-11921,23222,0.0
-948,-11665,23338,0.0
-930,-11341,23312,0.0
-918,-11069,23390,0.0
-906,-10790,23450,0.0
-896,-10521,23528,0.0
-884,-10242,23581,0.0
-875,-9977,23666,0.0
-865,-9706,23733,0.0
-855,-9425,23770,0.0
-849,-9175,23887,0.0
-840,-8881,23888,0.0
-831,-8604,23925,0.0
-807,-8153,23463,0.0
-800,-7880,23490,0.0
-795,-7618,23544,0.0
-806,-7506,24080,0.0
-807,-7281,24274,0.0
-802,-7006,24306,0.0
-800,-6750,24399,0.0
-798,-6488,24472,0.0
-796,-6216,24507,0.0
-796,-5959,24604,0.0
-797,-5699,24691,0.0
-796,-5434,24745,0.0
-797,-5173,24830,0.0
-798,-4901,24861,0.0
-800,-4638,24939,0.0
-802,-4371,24994,0.0
-806,-4106,25060,0.0
-810,-3843,25154,0.0
-814,-3578,25228,0.0
-819,-3306,25272,0.0
-825,-3040,25348,0.0
-815,-2715,24906,0.0
-822,-2452,24989,0.0
-834,-2201,25215,0.0
-855,-1961,25647,0.0
-861,-1685,25658,0.0
-872,-1413,25759,0.0
-881,-1138,25816,0.0
-892,-863,25911,0.0
-904,-585,25985,0.0
-916,-307,26053,0.0
-928,-27,26113,0.0
-942,254,26224,0.0
-947,532,26014,0.0
-945,800,25639,0.0
-959,1079,25690,0.0
-968,1350,25596,0.0
-983,1629,25625,0.0
-1036,1982,26651,0.0
-1054,2276,26713,0.0
-1075,2574,26804,0.0
-1095,2876,26899,0.0
-1114,3173,26939,0.0
-1137,3483,27059,0.0
-1157,3785,27099,0.0
-1184,4106,27255,0.0
-1207,4413,27297,0.0
-1229,4720,27328,0.0
-1257,5047,27455,0.0
-1283,5369,27539,0.0
-1310,5685,27578,0.0
-1340,6025,27711,0.0
-1367,6346,27748,0.0
-1400,6692,27879,0.0
-1394,6853,27250,0.0
-1699,8564,32571,0.0
-1698,8761,31920,0.0
-1704,8983,31402,0.0
-1726,9286,31188,0.0
-4,22,71,0.0
-3,20,67,0.0
-3,20,61,0.0
-5,32,93,0.0
-4,28,79,0.0
-4,30,83,0.0
-5,34,92,0.0
-5,35,88,0.0
-6,40,98,0.0
-6,42,102,0.0
-6,41,95,0.0
-7,49,112,0.0
-7,50,110,0.0
-8,52,110,0.0
-8,61,126,0.0
-9,58,119,0.0
-9,65,128,0.0
-10,69,131,0.0
-12,78,144,0.0
-12,77,140,0.0
-11,80,141,0.0
-11,80,138,0.0
-13,88,149,0.0
-13,90,147,0.0
-14,94,151,0.0
-14,98,154,0.0
-14,102,156,0.0
-14,96,143,0.0
-14,103,151,0.0
-16,114,163,0.0
-16,108,151,0.0
-16,112,152,0.0
-14,105,139,0.0
-16,113,147,0.0
-16,112,143,0.0
-16,114,142,0.0
-17,119,145,0.0
-16,115,138,0.0
-16,110,127,0.0
-17,118,135,0.0
-17,120,133,0.0
-18,120,131,0.0
-17,120,128,0.0
-18,123,130,0.0
-18,120,122,0.0
-19,131,132,0.0
-20,132,130,0.0
52,-265,72,0.0
52,-263,74,0.0
53,-261,76,0.0
54,-261,79,0.0
57,-271,86,0.0
57,-266,87,0.0
58,-264,90,0.0
58,-263,93,0.0
59,-260,95,0.0
61,-268,101,0.0
61,-264,103,0.0
61,-260,105,0.0
64,-266,110,0.0
64,-262,111,0.0
66,-266,117,0.0
66,-261,118,0.0
67,-259,121,0.0
68,-260,126,0.0
68,-258,127,0.0
71,-261,133,0.0
71,-259,135,0.0
73,-261,140,0.0
80,-284,156,0.0
79,-274,154,0.0
75,-258,150,0.0
67,-227,135,0.0
65,-216,132,0.0
68,-222,138,0.0
65,-208,134,0.0
62,-197,129,0.0
54,-169,114,0.0
646,-1953,1344,0.0
0,0,0,0.0
0,0,0,0.0
0,0,0,0.0
0,0,0,0.0
8404,-23441,18135,0.0
8419,-23104,18291,0.0
8411,-22705,18392,0.0
8390,-22283,18467,0.0
8385,-21905,18572,0.0
8377,-21525,18670,0.0
8364,-21137,18752,0.0
8343,-20737,18817,0.0
8319,-20332,18871,0.0
8326,-20005,18993,0.0
8319,-19651,19083,0.0
8295,-19261,19130,0.0
8287,-18912,19213,0.0
8279,-18568,19294,0.0
8261,-18206,19352,0.0
8262,-17888,19450,0.0
8259,-17566,19540,0.0
8231,-17193,19566,0.0
8229,-16878,19653,0.0
8215,-16543,19712,0.0
8202,-16213,19772,0.0
8327,-16152,20160,0.0
8552,-16279,20799,0.0
8674,-16194,21183,0.0
8938,-16368,21923,0.0
9172,-16469,22591,0.0
10853,-19101,26841,1.0
0,0,0,0.0
0,0,0,0.0
0,0,0,0.0
0,0,0,0.0
0,0,0,0.0
0,0,0,0.0
0,0,0,0.0
0,0,0,0.0
0,0,0,0.0
0,0,0,0.0
0,0,0,0.0
0,0,0,0.0
0,0,0,0.0
0,0,0,0.0
0,0,0,0.0
0,0,0,0.0
0,0,0,0.0
0,0,0,0.0
12206,-13665,32278,1.0
0,0,0,0.0
0,0,0,0.0
0,0,0,0.0
0,0,0,0.0
0,0,0,0.0
12176,-11274,32779,1.0
0,0,0,0.0
0,0,0,0.0
0,0,0,0.0
0,0,0,0.0
0,0,0,0.0
0,0,0,0.0
0,0,0,0.0
0,0,0,0.0
0,0,0,0.0
0,0,0,0.0
11958,-6867,33164,1.0
11970,-6491,33282,1.0
0,0,0,0.0
0,0,0,0.0
0,0,0,0.0
0,0,0,0.0
0,0,0,0.0
0,0,0,0.0
0,0,0,0.0
11636,-3317,32993,1.0
0,0,0,0.0
0,0,0,0.0
9021,-1692,25757,0.0
8435,-1306,24138,0.0
8088,-987,23199,0.0
8055,-718,23156,0.0
8068,-453,23247,0.0
8075,-186,23314,0.0
8073,82,23362,0.0
8079,351,23431,0.0
8072,622,23461,0.0
8089,896,23559,0.0
8095,1171,23629,0.0
8105,1447,23709,0.0
8085,1720,23702,0.0
8111,2005,23828,0.0
8102,2282,23852,0.0
8115,2568,23939,0.0
8091,2844,23920,0.0
8129,3142,24080,0.0
8138,3435,24157,0.0
8131,3720,24185,0.0
8135,4014,24246,0.0
8145,4313,24322,0.0
8153,4614,24397,0.0
8161,4917,24467,0.0
8185,5234,24593,0.0
8164,5524,24578,0.0
8159,5827,24611,0.0
8186,6155,24739,0.0
11,9,36,0.0
13,11,42,0.0
9,7,29,0.0
19,17,62,0.0
21,20,65,0.0
17,17,56,0.0
17,17,53,0.0
24,26,76,0.0
28,31,87,0.0
25,29,79,0.0
25,29,78,0.0
26,34,86,0.0
32,41,102,0.0
32,43,101,0.0
30,41,97,0.0
33,48,106,0.0
33,49,107,0.0
32,48,101,0.0
33,52,108,0.0
35,56,111,0.0
35,58,112,0.0
40,67,128,0.0
36,64,118,0.0
35,64,114,0.0
36,67,117,0.0
36,69,117,0.0
36,71,119,0.0
37,74,119,0.0
34,70,110,0.0
33,69,105,0.0
34,75,112,0.0
36,80,117,0.0
33,75,107,0.0
32,76,105,0.0
33,80,109,0.0
32,79,106,0.0
31,79,103,0.0
31,82,103,0.0
30,81,100,0.0
31,84,102,0.0
29,85,100,0.0
29,83,97,0.0
27,81,93,0.0
30,89,99,0.0
29,90,99,0.0
29,93,99,0.0
30,97,101,0.0
30,101,104,0.0
29,100,99,0.0
29,103,101,0.0
29,107,102,0.0
30,111,104,0.0
29,114,103,0.0
31,121,108,0.0
22,-280,84,0.0
22,-270,84,0.0
23,-278,90,0.0
23,-274,91,0.0
25,-280,97,0.0
24,-269,96,0.0
27,-276,103,0.0
27,-275,105,0.0
27,-268,107,0.0
29,-282,115,0.0
29,-276,117,0.0
29,-274,118,0.0
31,-277,124,0.0
31,-273,125,0.0
31,-268,126,0.0
34,-275,134,0.0
34,-271,136,0.0
34,-266,137,0.0
34,-264,139,0.0
39,-292,157,0.0
40,-294,163,0.0
38,-274,156,0.0
37,-262,153,0.0
35,-238,142,0.0
35,-235,143,0.0
35,-231,145,0.0
30,-197,127,0.0
33,-205,135,0.0
31,-196,132,0.0
30,-183,126,0.0
29,-176,124,0.0
31,-179,129,0.0
29,-164,121,0.0
25,-143,108,0.0
4279,-23463,18174,0.0
4310,-23162,18349,0.0
4307,-22686,18379,0.0
4327,-22338,18505,0.0
4322,-21871,18524,0.0
4346,-21559,18669,0.0
4355,-21173,18745,0.0
4360,-20786,18812,0.0
4379,-20466,18934,0.0
4381,-20070,18980,0.0
4391,-19724,19067,0.0
4399,-19372,19142,0.0
4405,-19019,19212,0.0
4423,-18717,19326,0.0
4418,-18330,19347,0.0
4425,-17999,19422,0.0
4433,-17671,19493,0.0
4444,-17364,19583,0.0
4444,-17020,19627,0.0
4414,-16567,19535,0.0
4465,-16421,19801,0.0
4461,-16076,19825,0.0
4565,-16116,20328,0.0
4686,-16203,20906,0.0
4788,-16218,21409,0.0
4935,-16369,22113,0.0
5082,-16506,22820,0.0
0,0,0,0.0
0,0,0,0.0
0,0,0,0.0
0,0,0,0.0
0,0,0,0.0
0,0,0,0.0
0,0,0,0.0
0,0,0,0.0
0,0,0,0.0
0,0,0,0.0
0,0,0,0.0
0,0,0,0.0
0,0,0,0.0
6892,-16244,31874,1.0
0,0,0,0.0
0,0,0,0.0
6995,-15254,32563,1.0
0,0,0,0.0
0,0,0,0.0
0,0,0,0.0
7002,-13660,32885,1.0
0,0,0,0.0
0,0,0,0.0
0,0,0,0.0
0,0,0,0.0
0,0,0,0.0
0,0,0,0.0
7438,-11605,35500,1.0
0,0,0,0.0
0,0,0,0.0
0,0,0,0.0
0,0,0,0.0
0,0,0,0.0
0,0,0,0.0
0,0,0,0.0
0,0,0,0.0
0,0,0,0.0
0,0,0,0.0
0,0,0,0.0
0,0,0,0.0
0,0,0,0.0
7062,-5643,34893,1.0
0,0,0,0.0
0,0,0,0.0
0,0,0,0.0
0,0,0,0.0
0,0,0,0.0
6715,-3167,33720,1.0
0,0,0,0.0
0,0,0,0.0
4935,-1510,24990,0.0
4756,-1190,24153,0.0
4540,-883,23122,0.0
4548,-629,23234,0.0
4533,-370,23223,0.0
4531,-113,23283,0.0
4538,145,23393,0.0
4534,405,23444,0.0
4537,668,23534,0.0
4536,931,23604,0.0
4531,1196,23652,0.0
4525,1462,23696,0.0
4522,1730,23761,0.0
4522,2001,23837,0.0
4506,2267,23839,0.0
4504,2541,23907,0.0
4515,2825,24052,0.0
4502,3098,24068,0.0
4496,3376,24121,0.0
4498,3664,24223,0.0
4489,3944,24262,0.0
4486,4233,24337,0.0
4482,4524,24411,0.0
4473,4811,24453,0.0
4469,5107,24527,0.0
4462,5404,24586,0.0
0,0,0,0.0
5,7,31,0.0
3,4,18,0.0
6,9,36,0.0
10,14,54,0.0
16,25,85,0.0
13,22,74,0.0
13,23,75,0.0
14,26,80,0.0
13,24,71,0.0
16,32,92,0.0
17,36,99,0.0
17,37,98,0.0
18,41,107,0.0
19,44,111,0.0
20,47,115,0.0
19,49,117,0.0
20,50,114,0.0
21,59,131,0.0
22,60,129,0.0
22,62,129,0.0
22,67,136,0.0
22,67,134,0.0
20,65,125,0.0
20,69,130,0.0
23,78,144,0.0
22,77,136,0.0
22,80,139,0.0
22,82,140,0.0
21,81,135,0.0
21,84,135,0.0
21,85,135,0.0
21,91,139,0.0
19,81,122,0.0
19,89,129,0.0
18,86,123,0.0
18,88,123,0.0
18,94,128,0.0
18,95,127,0.0
18,96,126,0.0
17,94,119,0.0
16,92,116,0.0
16,95,116,0.0
16,96,115,0.0
16,100,117,0.0
14,94,109,0.0
14,98,109,0.0
13,96,105,0.0
14,100,107,0.0
14,103,109,0.0
14,106,109,0.0
14,109,110,0.0
14,113,111,0.0
13,117,113,0.0
13,120,114,0.0
-12,-312,99,0.0
-11,-307,101,0.0
-11,-293,100,0.0
-10,-292,103,0.0
-9,-280,102,0.0
-9,-280,106,0.0
-8,-279,109,0.0
-7,-268,108,0.0
-7,-264,110,0.0
-7,-260,111,0.0
-6,-263,116,0.0
-5,-252,114,0.0
-5,-255,118,0.0
-4,-253,121,0.0
-4,-254,125,0.0
-3,-249,126,0.0
-3,-246,127,0.0
-3,-263,140,0.0
-2,-290,159,0.0
-2,-278,156,0.0
-1,-272,156,0.0
-1,-275,162,0.0
-1,-265,160,0.0
0,-250,154,0.0
0,-239,151,0.0
0,-221,143,0.0
0,-202,134,0.0
1,-196,134,0.0
1,-189,131,0.0
2,-179,128,0.0
2,-168,123,0.0
2,-155,115,0.0
2,-156,119,0.0
2,-136,105,0.0
2,-125,99,0.0
2,-113,93,0.0
451,-22536,18765,0.0
539,-24637,20968,0.0
573,-24125,20985,0.0
551,-21486,19101,0.0
573,-20821,18916,0.0
601,-20424,18961,0.0
627,-19991,18965,0.0
654,-19618,19019,0.0
683,-19359,19177,0.0
707,-18970,19203,0.0
733,-18639,19279,0.0
757,-18330,19375,0.0
781,-17988,19430,0.0
802,-17630,19461,0.0
823,-17322,19541,0.0
845,-17006,19608,0.0
868,-16742,19731,0.0
887,-16400,19757,0.0
907,-16113,19844,0.0
946,-16157,20345,0.0
987,-16213,20874,0.0
1023,-16193,21321,0.0
1070,-16314,21971,0.0
1107,-16282,22430,0.0
1311,-18601,26219,1.0
0,0,0,0.0
1357,-17955,26505,1.0
0,0,0,0.0
0,0,0,0.0
1461,-17479,27698,1.0
1488,-17240,27987,1.0
0,0,0,0.0
1546,-16781,28612,1.0
0,0,0,0.0
1596,-16242,29121,1.0
1625,-16015,29459,1.0
1654,-15786,29801,1.0
0,0,0,0.0
0,0,0,0.0
0,0,0,0.0
0,0,0,0.0
0,0,0,0.0
1738,-13703,30512,1.0
1754,-13389,30698,1.0
0,0,0,0.0
0,0,0,0.0
0,0,0,0.0
1843,-12315,31950,1.0
1854,-11976,32105,1.0
0,0,0,0.0
1880,-11325,32492,1.0
1886,-10961,32583,1.0
1899,-10641,32806,1.0
0,0,0,0.0
0,0,0,0.0
1934,-9662,33459,1.0
0,0,0,0.0
0,0,0,0.0
0,0,0,0.0
1850,-7801,32194,1.0
0,0,0,0.0
0,0,0,0.0
0,0,0,0.0
1851,-6408,32551,1.0
1849,-6050,32593,1.0
0,0,0,0.0
0,0,0,0.0
0,0,0,0.0
0,0,0,0.0
0,0,0,0.0
1778,-3830,32181,1.0
1760,-3461,32040,1.0
1755,-3118,32125,1.0
0,0,0,0.0
0,0,0,0.0
1364,-1636,25448,0.0
1289,-1295,24232,0.0
1248,-1007,23645,0.0
1216,-736,23203,0.0
1209,-486,23251,0.0
1203,-234,23335,0.0
1195,18,23404,0.0
1186,272,23449,0.0
1177,527,23490,0.0
1169,784,23572,0.0
1160,1044,23648,0.0
1149,1303,23682,0.0
1140,1566,23773,0.0
1128,1827,23804,0.0
1118,2095,23893,0.0
1105,2361,23946,0.0
1093,2627,23984,0.0
1079,2898,24050,0.0
1066,3169,24102,0.0
1052,3441,24144,0.0
1037,3717,24202,0.0
1023,4001,24294,0.0
1008,4283,24361,0.0
991,4565,24412,0.0
976,4858,24505,0.0
0,0,0,0.0
941,5441,24637,0.0
1,3,16,0.0
0,1,6,0.0
1,8,35,0.0
0,4,19,0.0
2,20,73,0.0
2,19,68,0.0
2,19,67,0.0
2,22,73,0.0
2,23,70,0.0
2,24,73,0.0
2,29,84,0.0
2,29,83,0.0
2,29,79,0.0
2,41,107,0.0
3,41,103,0.0
1,35,85,0.0
2,45,107,0.0
2,51,116,0.0
2,56,125,0.0
2,55,119,0.0
2,60,127,0.0
2,62,127,0.0
1,61,123,0.0
2,66,128,0.0
1,66,125,0.0
2,76,142,0.0
1,73,131,0.0
0,73,129,0.0
0,78,134,0.0
0,81,135,0.0
0,89,143,0.0
0,87,139,0.0
0,87,136,0.0
0,86,130,0.0
0,87,130,0.0
0,89,128,0.0
-1,95,134,0.0
-1,97,134,0.0
-1,98,132,0.0
-2,95,126,0.0
-1,97,125,0.0
-2,100,126,0.0
-2,100,123,0.0
-3,99,120,0.0
-3,101,119,0.0
-3,101,116,0.0
-3,99,111,0.0
-4,98,108,0.0
-4,100,109,0.0
-4,104,110,0.0
-4,108,112,0.0
-5,113,115,0.0
-4,114,113,0.0
-6,117,113,0.0
43,-275,77,0.0
43,-267,78,0.0
44,-265,80,0.0
46,-271,86,0.0
46,-267,88,0.0
47,-272,93,0.0
48,-267,95,0.0
50,-272,99,0.0
51,-272,102,0.0
49,-264,102,0.0
52,-269,108,0.0
53,-266,110,0.0
54,-269,115,0.0
54,-265,117,0.0
56,-270,122,0.0
56,-265,124,0.0
56,-262,125,0.0
58,-266,131,0.0
59,-263,133,0.0
59,-259,135,0.0
57,-248,132,0.0
64,-272,148,0.0
69,-287,162,0.0
62,-255,147,0.0
66,-264,156,0.0
61,-241,146,0.0
55,-217,135,0.0
55,-213,135,0.0
55,-210,137,0.0
51,-189,127,0.0
49,-178,122,0.0
46,-164,115,0.0
544,-1900,1363,0.0
546,-1877,1377,0.0
0,0,0,0.0
0,0,0,0.0
7131,-23256,18289,0.0
7121,-22834,18370,0.0
7123,-22455,18479,0.0
7120,-22065,18573,0.0
7112,-21666,18652,0.0
7111,-21293,18748,0.0
7102,-20905,18823,0.0
7089,-20510,18885,0.0
7082,-20135,18960,0.0
7063,-19734,19003,0.0
7074,-19421,19123,0.0
7080,-19098,19231,0.0
7049,-18677,19232,0.0
7064,-18385,19360,0.0
7051,-18025,19412,0.0
7038,-17668,19461,0.0
7053,-17386,19586,0.0
7023,-16994,19584,0.0
7018,-16670,19652,0.0
7015,-16354,19723,0.0
7031,-16085,19849,0.0
7160,-16068,20292,0.0
7337,-16149,20873,0.0
7529,-16254,21503,0.0
7738,-16377,22182,0.0
7955,-16504,22890,0.0
0,0,0,0.0
9535,-18992,27634,1.0
9684,-18892,28164,1.0
0,0,0,0.0
0,0,0,0.0
10022,-18340,29453,1.0
0,0,0,0.0
10076,-17638,29808,1.0
0,0,0,0.0
0,0,0,0.0
0,0,0,0.0
10387,-16561,31126,1.0
10427,-16223,31345,1.0
0,0,0,0.0
0,0,0,0.0
0,0,0,0.0
0,0,0,0.0
0,0,0,0.0
0,0,0,0.0
0,0,0,0.0
10399,-13036,32014,1.0
0,0,0,0.0
0,0,0,0.0
0,0,0,0.0
0,0,0,0.0
0,0,0,0.0
0,0,0,0.0
0,0,0,0.0
0,0,0,0.0
0,0,0,0.0
0,0,0,0.0
0,0,0,0.0
10505,-8531,33413,1.0
0,0,0,0.0
0,0,0,0.0
0,0,0,0.0
0,0,0,0.0
0,0,0,0.0
10356,-6141,33448,1.0
0,0,0,0.0
10363,-5386,33636,1.0
0,0,0,0.0
10264,-4581,33479,1.0
0,0,0,0.0
0,0,0,0.0
0,0,0,0.0
0,0,0,0.0
0,0,0,0.0
7882,-1767,26089,0.0
7300,-1364,24220,0.0
7108,-1062,23641,0.0
6941,-775,23137,0.0
6703,-496,22401,0.0
6961,-251,23314,0.0
6945,12,23318,0.0
6969,279,23453,0.0
6963,546,23490,0.0
6964,815,23546,0.0
6961,1085,23593,0.0
6971,1359,23684,0.0
6969,1631,23732,0.0
6970,1907,23791,0.0
6972,2183,23852,0.0
6980,2465,23938,0.0
6991,2750,24030,0.0
6966,3022,24003,0.0
6982,3313,24114,0.0
6978,3598,24156,0.0
6986,3891,24240,0.0
6995,4187,24330,0.0
6999,4484,24402,0.0
6994,4776,24438,0.0
6996,5076,24506,0.0
6995,5377,24562,0.0
7004,5688,24648,0.0
7003,5994,24707,0.0
7,6,29,0.0
9,8,33,0.0
12,12,45,0.0
10,10,39,0.0
17,18,60,0.0
14,17,55,0.0
17,20,62,0.0
19,24,72,0.0
21,27,79,0.0
22,30,85,0.0
25,35,94,0.0
22,33,84,0.0
25,37,93,0.0
27,42,102,0.0
27,43,100,0.0
28,47,106,0.0
28,49,106,0.0
29,52,112,0.0
29,54,112,0.0
33,63,126,0.0
32,62,122,0.0
33,66,126,0.0
31,63,116,0.0
33,70,128,0.0
31,68,120,0.0
32,72,123,0.0
34,78,131,0.0
33,78,127,0.0
31,75,120,0.0
28,71,111,0.0
32,81,124,0.0
30,79,117,0.0
29,78,113,0.0
30,82,117,0.0
28,80,111,0.0
27,80,108,0.0
26,81,108,0.0
26,82,107,0.0
27,86,109,0.0
24,82,101,0.0
26,88,107,0.0
24,83,98,0.0
24,86,100,0.0
23,87,98,0.0
23,88,97,0.0
24,93,100,0.0
22,89,95,0.0
23,96,100,0.0
23,96,98,0.0
22,96,95,0.0
22,99,96,0.0
25,114,108,0.0
23,106,99,0.0
24,112,102,0.0
30,-279,82,0.0
30,-268,81,0.0
31,-275,88,0.0
31,-274,90,0.0
33,-278,95,0.0
34,-278,98,0.0
34,-273,99,0.0
35,-275,104,0.0
37,-279,109,0.0
36,-271,109,0.0
38,-275,114,0.0
38,-273,117,0.0
38,-269,118,0.0
40,-275,125,0.0
41,-271,126,0.0
42,-273,131,0.0
42,-272,133,0.0
42,-269,136,0.0
43,-263,137,0.0
43,-266,142,0.0
50,-299,164,0.0
49,-281,158,0.0
45,-259,149,0.0
44,-244,144,0.0
41,-229,139,0.0
39,-211,131,0.0
41,-212,135,0.0
37,-192,126,0.0
39,-198,132,0.0
35,-175,120,0.0
35,-168,118,0.0
35,-168,120,0.0
35,-162,119,0.0
32,-146,109,0.0
0,0,0,0.0
5237,-23317,18306,0.0
5233,-22871,18365,0.0
5235,-22455,18439,0.0
5243,-22075,18537,0.0
5237,-21643,18584,0.0
5247,-21283,18685,0.0
5264,-20958,18812,0.0
5260,-20554,18863,0.0
5269,-20209,18960,0.0
5269,-19830,19021,0.0
5282,-19513,19134,0.0
5273,-19116,19163,0.0
5270,-18747,19213,0.0
5293,-18475,19356,0.0
5290,-18116,19406,0.0
5289,-17772,19464,0.0
5298,-17463,19556,0.0
5296,-17124,19609,0.0
5300,-16808,19683,0.0
5295,-16468,19722,0.0
5307,-16181,19823,0.0
5408,-16168,20260,0.0
5558,-16286,20879,0.0
5650,-16226,21286,0.0
5810,-16352,21952,0.0
5977,-16477,22641,0.0
7197,-19437,27340,1.0
0,0,0,0.0
7357,-19054,28103,1.0
7426,-18826,28444,1.0
7511,-18633,28844,1.0
