//X,Y,Z,Classification
-4.0,-41.0,78.0,0.0
-3.0,-36.0,68.0,0.0
-4.0,-44.0,78.0,0.0
-5.0,-45.0,79.0,0.0
-4.0,-43.0,73.0,0.0
-5.0,-49.0,82.0,0.0
-5.0,-53.0,87.0,0.0
-5.0,-57.0,90.0,0.0
-6.0,-70.0,109.0,0.0
-4.0,-61.0,92.0,0.0
-4.0,-58.0,87.0,0.0
-5.0,-66.0,95.0,0.0
-5.0,-63.0,89.0,0.0
-5.0,-70.0,96.0,0.0
-5.0,-72.0,97.0,0.0
-5.0,-78.0,101.0,0.0
-5.0,-83.0,106.0,0.0
-4.0,-80.0,100.0,0.0
-4.0,-81.0,100.0,0.0
-5.0,-92.0,110.0,0.0
-5.0,-87.0,101.0,0.0
-5.0,-95.0,108.0,0.0
-4.0,-91.0,102.0,0.0
-5.0,-98.0,107.0,0.0
-4.0,-97.0,104.0,0.0
-4.0,-107.0,111.0,0.0
-4.0,-103.0,106.0,0.0
-4.0,-109.0,110.0,0.0
-4.0,-109.0,108.0,0.0
-4.0,-108.0,105.0,0.0
-3.0,-105.0,98.0,0.0
-4.0,-121.0,112.0,0.0
-3.0,-115.0,104.0,0.0
-3.0,-120.0,105.0,0.0
-3.0,-131.0,113.0,0.0
-3.0,-122.0,104.0,0.0
-3.0,-141.0,116.0,0.0
-3.0,-146.0,118.0,0.0
-2.0,-142.0,113.0,0.0
-2.0,-144.0,112.0,0.0
-2.0,-158.0,119.0,0.0
-2.0,-144.0,106.0,0.0
-1.0,-149.0,107.0,0.0
-2.0,-145.0,102.0,0.0
-1.0,-167.0,115.0,0.0
0.0,-153.0,103.0,0.0
0.0,-165.0,108.0,0.0
0.0,-164.0,105.0,0.0
0.0,-167.0,104.0,0.0
0.0,-181.0,111.0,0.0
0.0,-190.0,113.0,0.0
0.0,-172.0,101.0,0.0
0.0,-177.0,100.0,0.0
1.0,-177.0,98.0,0.0
1.0,-181.0,97.0,0.0
1.0,-188.0,99.0,0.0
1.0,-185.0,95.0,0.0
1.0,-187.0,93.0,0.0
2.0,-184.0,90.0,0.0
3.0,-179.0,85.0,0.0
3.0,-188.0,87.0,0.0
3.0,-189.0,84.0,0.0
3.0,-187.0,81.0,0.0
4.0,-192.0,81.0,0.0
4.0,-188.0,76.0,0.0
4.0,-198.0,78.0,0.0
5.0,-217.0,83.0,0.0
8.0,-281.0,104.0,0.0
8.0,-296.0,106.0,0.0
10.0,-299.0,104.0,0.0
9.0,-293.0,98.0,0.0
10.0,-294.0,96.0,0.0
10.0,-298.0,93.0,0.0
720.0,16660.0,16309.0,0.0
682.0,16437.0,16436.0,0.0
0.0,0.0,0.0,0.0
1191.0,31254.0,32613.0,0.0
1123.0,30883.0,32920.0,0.0
682.0,19745.0,21503.0,0.0
627.0,19144.0,21300.0,0.0
591.0,19126.0,21744.0,0.0
526.0,18092.0,21017.0,0.0
511.0,18809.0,22328.0,0.0
461.0,18273.0,22170.0,0.0
416.0,17859.0,22146.0,0.0
432.0,20222.0,25635.0,0.0
386.0,19975.0,25887.0,0.0
340.0,19662.0,26055.0,0.0
294.0,19346.0,26216.0,0.0
249.0,19068.0,26429.0,0.0
205.0,18803.0,26661.0,0.0
161.0,18469.0,26792.0,0.0
117.0,18041.0,26785.0,0.0
74.0,17778.0,27017.0,0.0
32.0,17302.0,26919.0,0.0
-9.0,16521.0,26323.0,0.0
-49.0,16646.0,27168.0,0.0
-89.0,16270.0,27208.0,0.0
-130.0,16053.0,27513.0,0.0
-171.0,15896.0,27932.0,0.0
-209.0,15500.0,27933.0,0.0
-246.0,15084.0,27886.0,0.0
-337.0,17592.0,33380.0,0.0
-377.0,16990.0,33097.0,0.0
-417.0,16514.0,33046.0,0.0
-454.0,15973.0,32846.0,0.0
-492.0,15511.0,32791.0,0.0
-531.0,15087.0,32808.0,0.0
-564.0,14560.0,32585.0,0.0
-598.0,14096.0,32486.0,0.0
-623.0,13474.0,31995.0,0.0
-659.0,13110.0,32098.0,0.0
-695.0,12756.0,32220.0,0.0
-738.0,12532.0,32686.0,0.0
-786.0,12381.0,33368.0,0.0
-709.0,10378.0,28926.0,0.0
-748.0,10186.0,29387.0,0.0
-779.0,9891.0,29568.0,0.0
-802.0,9501.0,29460.0,0.0
-826.0,9123.0,29369.0,0.0
-847.0,8737.0,29244.0,0.0
-869.0,8372.0,29173.0,0.0
-888.0,7990.0,29021.0,0.0
-908.0,7635.0,28957.0,0.0
-927.0,7271.0,28839.0,0.0
-946.0,6920.0,28761.0,0.0
-964.0,6571.0,28668.0,0.0
-980.0,6224.0,28576.0,0.0
-997.0,5881.0,28482.0,0.0
-1013.0,5543.0,28399.0,0.0
-1028.0,5207.0,28304.0,0.0
-1042.0,4876.0,28218.0,0.0
-1055.0,4537.0,28074.0,0.0
-1069.0,4219.0,28024.0,0.0
-1084.0,3901.0,27973.0,0.0
-1079.0,3525.0,27449.0,0.0
-1074.0,3163.0,26946.0,0.0
-1086.0,2863.0,26895.0,0.0
-1097.0,2562.0,26829.0,0.0
-1107.0,2261.0,26752.0,0.0
-1118.0,1967.0,26718.0,0.0
-1128.0,1672.0,26656.0,0.0
-1137.0,1378.0,26588.0,0.0
-1145.0,1086.0,26515.0,0.0
-1154.0,797.0,26444.0,0.0
-1162.0,509.0,26426.0,0.0
-1168.0,222.0,26331.0,0.0
-1191.0,-64.0,26619.0,0.0
-1207.0,-354.0,26754.0,0.0
-1213.0,-644.0,26712.0,0.0
-1219.0,-932.0,26651.0,0.0
-1222.0,-1215.0,26527.0,0.0
-1227.0,-1501.0,26472.0,0.0
-1232.0,-1785.0,26407.0,0.0
-1234.0,-2066.0,26312.0,0.0
-1237.0,-2347.0,26244.0,0.0
-1240.0,-2627.0,26173.0,0.0
-1243.0,-2910.0,26131.0,0.0
-1245.0,-3190.0,26076.0,0.0
-1248.0,-3470.0,26016.0,0.0
-1248.0,-3747.0,25939.0,0.0
-1250.0,-4027.0,25894.0,0.0
-1251.0,-4306.0,25833.0,0.0
-1252.0,-4587.0,25792.0,0.0
-1252.0,-4864.0,25728.0,0.0
-1250.0,-5135.0,25634.0,0.0
-1249.0,-5414.0,25581.0,0.0
-1249.0,-5698.0,25553.0,0.0
-1247.0,-5972.0,25475.0,0.0
-2.0,-8.0,33.0,0.0
-2.0,-11.0,47.0,0.0
-1239.0,-6803.0,25289.0,0.0
-2.0,-10.0,39.0,0.0
-2.0,-10.0,38.0,0.0
-1.0,-8.0,29.0,0.0
-1.0,-8.0,30.0,0.0
-2.0,-14.0,43.0,0.0
-2.0,-13.0,41.0,0.0
-2.0,-11.0,31.0,0.0
-2.0,-11.0,31.0,0.0
-1191.0,-9307.0,24693.0,0.0
-1.0,-14.0,38.0,0.0
-3.0,-20.0,51.0,0.0
-3.0,-26.0,63.0,0.0
-2.0,-20.0,49.0,0.0
-3.0,-26.0,59.0,0.0
-3.0,-29.0,66.0,0.0
-2.0,-27.0,61.0,0.0
-2.0,-20.0,44.0,0.0
-2.0,-31.0,64.0,0.0
-2.0,-26.0,52.0,0.0
-3.0,-36.0,71.0,0.0
-3.0,-37.0,70.0,0.0
-3.0,-35.0,65.0,0.0
-3.0,-44.0,79.0,0.0
-3.0,-42.0,74.0,0.0
-4.0,-48.0,83.0,0.0
-4.0,-58.0,97.0,0.0
-3.0,-48.0,78.0,0.0
-3.0,-56.0,88.0,0.0
-4.0,-61.0,94.0,0.0
-4.0,-61.0,93.0,0.0
-4.0,-70.0,103.0,0.0
-4.0,-70.0,102.0,0.0
-4.0,-74.0,105.0,0.0
-4.0,-78.0,107.0,0.0
-4.0,-78.0,105.0,0.0
-3.0,-73.0,97.0,0.0
-4.0,-87.0,111.0,0.0
-3.0,-84.0,105.0,0.0
-3.0,-84.0,104.0,0.0
-4.0,-88.0,105.0,0.0
-4.0,-92.0,108.0,0.0
-3.0,-98.0,113.0,0.0
-3.0,-97.0,109.0,0.0
-4.0,-100.0,110.0,0.0
-3.0,-108.0,117.0,0.0
-2.0,-103.0,109.0,0.0
-2.0,-102.0,105.0,0.0
-3.0,-108.0,109.0,0.0
-2.0,-106.0,104.0,0.0
-2.0,-119.0,114.0,0.0
-2.0,-113.0,106.0,0.0
-2.0,-119.0,109.0,0.0
-2.0,-127.0,115.0,0.0
-2.0,-132.0,116.0,0.0
-1.0,-136.0,119.0,0.0
-1.0,-138.0,117.0,0.0
-1.0,-140.0,116.0,0.0
-1.0,-144.0,117.0,0.0
0.0,-147.0,116.0,0.0
0.0,-149.0,116.0,0.0
0.0,-162.0,123.0,0.0
0.0,-155.0,114.0,0.0
0.0,-152.0,110.0,0.0
0.0,-166.0,118.0,0.0
0.0,-161.0,111.0,0.0
0.0,-171.0,115.0,0.0
1.0,-175.0,115.0,0.0
1.0,-179.0,115.0,0.0
1.0,-178.0,112.0,0.0
1.0,-176.0,108.0,0.0
2.0,-179.0,107.0,0.0
2.0,-184.0,107.0,0.0
2.0,-183.0,105.0,0.0
3.0,-189.0,105.0,0.0
3.0,-187.0,101.0,0.0
3.0,-180.0,95.0,0.0
4.0,-192.0,99.0,0.0
4.0,-196.0,98.0,0.0
5.0,-194.0,95.0,0.0
4.0,-195.0,92.0,0.0
5.0,-203.0,93.0,0.0
6.0,-200.0,90.0,0.0
6.0,-197.0,86.0,0.0
6.0,-198.0,83.0,0.0
6.0,-194.0,80.0,0.0
7.0,-209.0,82.0,0.0
8.0,-209.0,80.0,0.0
10.0,-262.0,97.0,0.0
11.0,-291.0,104.0,0.0
12.0,-294.0,103.0,0.0
13.0,-298.0,100.0,0.0
12.0,-291.0,94.0,0.0
14.0,-302.0,95.0,0.0
931.0,16672.0,16341.0,0.0
900.0,16554.0,16574.0,0.0
865.0,16353.0,16725.0,0.0
1624.0,31639.0,33056.0,0.0
0.0,0.0,0.0,0.0
1061.0,22027.0,24018.0,0.0
1019.0,21884.0,24381.0,0.0
818.0,18185.0,20700.0,0.0
782.0,18069.0,21017.0,0.0
783.0,18796.0,22343.0,0.0
722.0,18065.0,21946.0,0.0
683.0,17831.0,22140.0,0.0
734.0,20068.0,25473.0,0.0
678.0,19459.0,25251.0,0.0
637.0,19265.0,25563.0,0.0
592.0,18931.0,25688.0,0.0
555.0,18870.0,26189.0,0.0
518.0,18764.0,26643.0,0.0
474.0,18443.0,26793.0,0.0
414.0,17414.0,25888.0,0.0
378.0,17328.0,26368.0,0.0
333.0,16814.0,26195.0,0.0
302.0,16975.0,27083.0,0.0
262.0,16676.0,27255.0,0.0
219.0,16194.0,27118.0,0.0
183.0,16088.0,27610.0,0.0
145.0,15878.0,27938.0,0.0
106.0,15492.0,27956.0,0.0
67.0,15007.0,27786.0,0.0
36.0,17483.0,33219.0,0.0
-6.0,16910.0,32990.0,0.0
-47.0,16406.0,32875.0,0.0
-88.0,15981.0,32908.0,0.0
-128.0,15504.0,32824.0,0.0
-166.0,15035.0,32742.0,0.0
-202.0,14477.0,32446.0,0.0
-239.0,14028.0,32375.0,0.0
-272.0,13499.0,32100.0,0.0
-306.0,13101.0,32123.0,0.0
-342.0,12745.0,32243.0,0.0
-380.0,12523.0,32711.0,0.0
-420.0,12346.0,33325.0,0.0
-394.0,10381.0,28977.0,0.0
-430.0,10245.0,29603.0,0.0
-457.0,9863.0,29529.0,0.0
-482.0,9479.0,29438.0,0.0
-505.0,9091.0,29316.0,0.0
-529.0,8710.0,29204.0,0.0
-552.0,8347.0,29134.0,0.0
-574.0,7976.0,29020.0,0.0
-595.0,7611.0,28917.0,0.0
-615.0,7256.0,28833.0,0.0
-634.0,6905.0,28747.0,0.0
-653.0,6553.0,28646.0,0.0
-671.0,6208.0,28557.0,0.0
-689.0,5866.0,28466.0,0.0
-706.0,5525.0,28357.0,0.0
-722.0,5186.0,28250.0,0.0
-738.0,4860.0,28190.0,0.0
-754.0,4538.0,28140.0,0.0
-768.0,4211.0,28035.0,0.0
-781.0,3884.0,27919.0,0.0
-782.0,3509.0,27395.0,0.0
-783.0,3153.0,26926.0,0.0
-797.0,2854.0,26896.0,0.0
-807.0,2552.0,26809.0,0.0
-820.0,2257.0,26784.0,0.0
-830.0,1959.0,26691.0,0.0
-840.0,1664.0,26621.0,0.0
-850.0,1371.0,26567.0,0.0
-859.0,1080.0,26493.0,0.0
-868.0,791.0,26449.0,0.0
-877.0,504.0,26410.0,0.0
-885.0,217.0,26358.0,0.0
-902.0,-69.0,26575.0,0.0
-916.0,-358.0,26711.0,0.0
-923.0,-647.0,26700.0,0.0
-929.0,-934.0,26605.0,0.0
-934.0,-1219.0,26532.0,0.0
-937.0,-1503.0,26442.0,0.0
-942.0,-1786.0,26375.0,0.0
-946.0,-2066.0,26298.0,0.0
-950.0,-2349.0,26240.0,0.0
-952.0,-2625.0,26138.0,0.0
-956.0,-2910.0,26122.0,0.0
-958.0,-3187.0,26036.0,0.0
-960.0,-3469.0,26004.0,0.0
-963.0,-3749.0,25952.0,0.0
-964.0,-4024.0,25873.0,0.0
-964.0,-4302.0,25808.0,0.0
-965.0,-4583.0,25776.0,0.0
-966.0,-4864.0,25734.0,0.0
-966.0,-5142.0,25673.0,0.0
-964.0,-5418.0,25604.0,0.0
-963.0,-5698.0,25560.0,0.0
-961.0,-5972.0,25485.0,0.0
-959.0,-6248.0,25422.0,0.0
-1.0,-5.0,22.0,0.0
-952.0,-6798.0,25285.0,0.0
-948.0,-7076.0,25224.0,0.0
-946.0,-7362.0,25190.0,0.0
-941.0,-7635.0,25109.0,0.0
-2.0,-12.0,39.0,0.0
-1.0,-9.0,30.0,0.0
-924.0,-8460.0,24884.0,0.0
-1.0,-17.0,50.0,0.0
-2.0,-21.0,60.0,0.0
-1.0,-12.0,34.0,0.0
-1.0,-17.0,45.0,0.0
-1.0,-16.0,42.0,0.0
-1.0,-11.0,30.0,0.0
-1.0,-15.0,37.0,0.0
-2.0,-22.0,51.0,0.0
-1.0,-18.0,41.0,0.0
0.0,-11.0,26.0,0.0
0.0,-10.0,22.0,0.0
-2.0,-25.0,51.0,0.0
-1.0,-28.0,57.0,0.0
-2.0,-31.0,60.0,0.0
-2.0,-33.0,64.0,0.0
-2.0,-34.0,63.0,0.0
-2.0,-39.0,70.0,0.0
-2.0,-42.0,74.0,0.0
-2.0,-41.0,69.0,0.0
-3.0,-53.0,88.0,0.0
-2.0,-48.0,78.0,0.0
-2.0,-52.0,83.0,0.0
-3.0,-60.0,93.0,0.0
-3.0,-59.0,89.0,0.0
-2.0,-58.0,86.0,0.0
-2.0,-69.0,98.0,0.0
-2.0,-63.0,89.0,0.0
-2.0,-70.0,98.0,0.0
-2.0,-74.0,100.0,0.0
-2.0,-73.0,97.0,0.0
-2.0,-80.0,103.0,0.0
-3.0,-84.0,105.0,0.0
-2.0,-86.0,106.0,0.0
-2.0,-82.0,99.0,0.0
-2.0,-83.0,97.0,0.0
-2.0,-92.0,106.0,0.0
-2.0,-88.0,100.0,0.0
-1.0,-86.0,95.0,0.0
-1.0,-98.0,106.0,0.0
-1.0,-95.0,99.0,0.0
-1.0,-93.0,96.0,0.0
-1.0,-102.0,103.0,0.0
-1.0,-113.0,112.0,0.0
-1.0,-108.0,105.0,0.0
0.0,-112.0,106.0,0.0
0.0,-113.0,105.0,0.0
0.0,-119.0,108.0,0.0
0.0,-123.0,108.0,0.0
0.0,-122.0,106.0,0.0
0.0,-129.0,109.0,0.0
0.0,-147.0,122.0,0.0
0.0,-131.0,106.0,0.0
0.0,-137.0,109.0,0.0
0.0,-139.0,107.0,0.0
1.0,-147.0,111.0,0.0
1.0,-149.0,111.0,0.0
2.0,-147.0,105.0,0.0
1.0,-158.0,112.0,0.0
2.0,-158.0,109.0,0.0
2.0,-159.0,108.0,0.0
2.0,-162.0,107.0,0.0
2.0,-160.0,103.0,0.0
3.0,-169.0,106.0,0.0
3.0,-166.0,103.0,0.0
3.0,-175.0,105.0,0.0
3.0,-172.0,100.0,0.0
4.0,-183.0,104.0,0.0
5.0,-178.0,99.0,0.0
5.0,-175.0,95.0,0.0
5.0,-184.0,97.0,0.0
5.0,-191.0,98.0,0.0
6.0,-183.0,92.0,0.0
6.0,-187.0,91.0,0.0
6.0,-184.0,87.0,0.0
7.0,-189.0,87.0,0.0
7.0,-194.0,86.0,0.0
8.0,-193.0,83.0,0.0
8.0,-188.0,79.0,0.0
9.0,-194.0,79.0,0.0
9.0,-197.0,78.0,0.0
9.0,-204.0,78.0,0.0
12.0,-260.0,96.0,0.0
13.0,-279.0,101.0,0.0
14.0,-283.0,98.0,0.0
15.0,-289.0,97.0,0.0
16.0,-289.0,93.0,0.0
16.0,-290.0,91.0,0.0
1599.0,23326.0,22891.0,0.0
1118.0,16632.0,16672.0,0.0
1085.0,16471.0,16865.0,0.0
1054.0,16343.0,17095.0,0.0
1876.0,29684.0,31720.0,0.0
1362.0,22032.0,24053.0,0.0
1324.0,21908.0,24436.0,0.0
1073.0,18183.0,20722.0,0.0
1042.0,18078.0,21053.0,0.0
1012.0,17992.0,21411.0,0.0
990.0,18076.0,21987.0,0.0
951.0,17842.0,22181.0,0.0
914.0,17625.0,22398.0,0.0
1023.0,20303.0,26378.0,0.0
988.0,20194.0,26827.0,0.0
953.0,20115.0,27328.0,0.0
905.0,19751.0,27446.0,0.0
854.0,19285.0,27414.0,0.0
812.0,19014.0,27654.0,0.0
754.0,18351.0,27316.0,0.0
703.0,17786.0,27098.0,0.0
626.0,16556.0,25827.0,0.0
597.0,16504.0,26364.0,0.0
565.0,16404.0,26842.0,0.0
555.0,16988.0,28483.0,0.0
516.0,16692.0,28684.0,0.0
485.0,16635.0,29309.0,0.0
415.0,15209.0,27481.0,0.0
447.0,17593.0,32612.0,0.0
409.0,17440.0,33181.0,0.0
364.0,16913.0,33037.0,0.0
320.0,16414.0,32935.0,0.0
277.0,15963.0,32914.0,0.0
236.0,15487.0,32832.0,0.0
196.0,14959.0,32619.0,0.0
157.0,14481.0,32499.0,0.0
119.0,14024.0,32409.0,0.0
82.0,13504.0,32157.0,0.0
46.0,13110.0,32188.0,0.0
12.0,12747.0,32290.0,0.0
-21.0,12528.0,32769.0,0.0
-47.0,10566.0,28560.0,0.0
-90.0,12183.0,34057.0,0.0
-107.0,10233.0,29612.0,0.0
-135.0,9847.0,29524.0,0.0
-162.0,9470.0,29452.0,0.0
-187.0,9084.0,29337.0,0.0
-212.0,8710.0,29247.0,0.0
-236.0,8330.0,29120.0,0.0
-260.0,7966.0,29030.0,0.0
-282.0,7600.0,28916.0,0.0
-303.0,7250.0,28850.0,0.0
-325.0,6897.0,28761.0,0.0
-345.0,6545.0,28655.0,0.0
-365.0,6201.0,28573.0,0.0
-383.0,5852.0,28449.0,0.0
-401.0,5518.0,28373.0,0.0
-419.0,5190.0,28322.0,0.0
-435.0,4851.0,28189.0,0.0
-451.0,4525.0,28114.0,0.0
-466.0,4193.0,27981.0,0.0
-479.0,3854.0,27762.0,0.0
-467.0,3353.0,26230.0,0.0
-480.0,3056.0,26162.0,0.0
-492.0,2765.0,26121.0,0.0
-506.0,2481.0,26133.0,0.0
-523.0,2213.0,26341.0,0.0
-538.0,1936.0,26473.0,0.0
-550.0,1647.0,26457.0,0.0
-562.0,1362.0,26495.0,0.0
-572.0,1073.0,26454.0,0.0
-583.0,786.0,26432.0,0.0
-592.0,498.0,26403.0,0.0
-600.0,212.0,26340.0,0.0
-615.0,-72.0,26586.0,0.0
-627.0,-363.0,26770.0,0.0
-634.0,-651.0,26701.0,0.0
-641.0,-938.0,26630.0,0.0
-647.0,-1223.0,26554.0,0.0
-651.0,-1505.0,26435.0,0.0
-656.0,-1788.0,26381.0,0.0
-660.0,-2070.0,26315.0,0.0
-663.0,-2349.0,26229.0,0.0
-667.0,-2632.0,26194.0,0.0
-671.0,-2912.0,26131.0,0.0
-673.0,-3191.0,26071.0,0.0
-675.0,-3470.0,26006.0,0.0
-676.0,-3745.0,25921.0,0.0
-677.0,-4015.0,25814.0,0.0
-679.0,-4297.0,25789.0,0.0
-680.0,-4581.0,25765.0,0.0
-679.0,-4857.0,25698.0,0.0
-678.0,-5129.0,25617.0,0.0
-678.0,-5412.0,25588.0,0.0
-677.0,-5693.0,25546.0,0.0
-675.0,-5965.0,25469.0,0.0
-672.0,-6235.0,25377.0,0.0
-670.0,-6516.0,25338.0,0.0
-666.0,-6797.0,25291.0,0.0
-662.0,-7070.0,25218.0,0.0
-659.0,-7347.0,25155.0,0.0
-1.0,-7.0,25.0,0.0
-649.0,-7899.0,25016.0,0.0
-643.0,-8175.0,24948.0,0.0
-637.0,-8458.0,24897.0,0.0
-630.0,-8738.0,24836.0,0.0
-623.0,-9010.0,24749.0,0.0
-1.0,-13.0,35.0,0.0
-1.0,-14.0,37.0,0.0
-1.0,-17.0,44.0,0.0
-1.0,-19.0,49.0,0.0
-1.0,-18.0,43.0,0.0
-1.0,-19.0,44.0,0.0
-1.0,-19.0,44.0,0.0
-1.0,-26.0,57.0,0.0
-1.0,-26.0,54.0,0.0
-1.0,-33.0,67.0,0.0
-1.0,-20.0,42.0,0.0
-1.0,-29.0,56.0,0.0
-1.0,-29.0,54.0,0.0
-2.0,-36.0,68.0,0.0
-1.0,-40.0,73.0,0.0
-2.0,-40.0,72.0,0.0
-2.0,-44.0,76.0,0.0
-1.0,-48.0,80.0,0.0
-2.0,-51.0,83.0,0.0
-1.0,-49.0,78.0,0.0
-1.0,-54.0,84.0,0.0
-1.0,-61.0,91.0,0.0
-1.0,-62.0,92.0,0.0
-1.0,-75.0,109.0,0.0
-1.0,-71.0,101.0,0.0
-2.0,-77.0,107.0,0.0
-1.0,-75.0,101.0,0.0
-1.0,-81.0,107.0,0.0
-1.0,-83.0,108.0,0.0
0.0,-83.0,105.0,0.0
0.0,-96.0,119.0,0.0
-1.0,-94.0,112.0,0.0
-1.0,-92.0,108.0,0.0
0.0,-92.0,107.0,0.0
0.0,-94.0,107.0,0.0
0.0,-99.0,108.0,0.0
0.0,-98.0,105.0,0.0
0.0,-100.0,106.0,0.0
0.0,-113.0,116.0,0.0
0.0,-107.0,108.0,0.0
0.0,-112.0,110.0,0.0
0.0,-116.0,113.0,0.0
0.0,-111.0,105.0,0.0
1.0,-119.0,110.0,0.0
1.0,-125.0,113.0,0.0
1.0,-126.0,111.0,0.0
1.0,-122.0,106.0,0.0
2.0,-133.0,112.0,0.0
2.0,-137.0,114.0,0.0
2.0,-139.0,114.0,0.0
2.0,-141.0,112.0,0.0
2.0,-148.0,115.0,0.0
3.0,-151.0,114.0,0.0
3.0,-146.0,108.0,0.0
3.0,-151.0,109.0,0.0
3.0,-155.0,109.0,0.0
4.0,-160.0,111.0,0.0
5.0,-172.0,117.0,0.0
4.0,-169.0,112.0,0.0
4.0,-158.0,101.0,0.0
5.0,-174.0,110.0,0.0
6.0,-174.0,107.0,0.0
6.0,-180.0,109.0,0.0
6.0,-171.0,99.0,0.0
6.0,-176.0,100.0,0.0
7.0,-178.0,99.0,0.0
7.0,-179.0,97.0,0.0
7.0,-181.0,96.0,0.0
8.0,-188.0,96.0,0.0
8.0,-194.0,97.0,0.0
8.0,-193.0,94.0,0.0
8.0,-196.0,92.0,0.0
9.0,-195.0,91.0,0.0
9.0,-192.0,86.0,0.0
9.0,-201.0,87.0,0.0
10.0,-195.0,82.0,0.0
11.0,-200.0,82.0,0.0
11.0,-196.0,78.0,0.0
11.0,-201.0,78.0,0.0
14.0,-245.0,91.0,0.0
17.0,-283.0,102.0,0.0
16.0,-277.0,97.0,0.0
17.0,-282.0,95.0,0.0
17.0,-282.0,92.0,0.0
19.0,-288.0,91.0,0.0
1687.0,20770.0,20404.0,0.0
1637.0,20454.0,20524.0,0.0
1305.0,16539.0,16952.0,0.0
1280.0,16458.0,17234.0,0.0
1755.0,22900.0,24496.0,0.0
1720.0,22786.0,24901.0,0.0
1423.0,19141.0,21371.0,0.0
1329.0,18173.0,20732.0,0.0
1298.0,18036.0,21024.0,0.0
1328.0,18764.0,22355.0,0.0
1368.0,19651.0,23927.0,0.0
1219.0,17826.0,22185.0,0.0
1344.0,20007.0,25451.0,0.0
1331.0,20170.0,26233.0,0.0
1305.0,20147.0,26793.0,0.0
1279.0,20139.0,27390.0,0.0
1228.0,19727.0,27441.0,0.0
1176.0,19268.0,27419.0,0.0
1137.0,19026.0,27702.0,0.0
1098.0,18772.0,27972.0,0.0
1015.0,17746.0,27068.0,0.0
964.0,17252.0,26941.0,0.0
903.0,16540.0,26451.0,0.0
868.0,16299.0,26700.0,0.0
881.0,16973.0,28490.0,0.0
843.0,16684.0,28703.0,0.0
820.0,16663.0,29389.0,0.0
786.0,16427.0,29715.0,0.0
815.0,17573.0,32612.0,0.0
781.0,17381.0,33107.0,0.0
705.0,16228.0,31737.0,0.0
690.0,16430.0,33005.0,0.0
643.0,15894.0,32811.0,0.0
600.0,15421.0,32730.0,0.0
557.0,14925.0,32584.0,0.0
516.0,14469.0,32510.0,0.0
477.0,14008.0,32412.0,0.0
436.0,13496.0,32176.0,0.0
400.0,13078.0,32150.0,0.0
366.0,12718.0,32259.0,0.0
337.0,12503.0,32746.0,0.0
264.0,10554.0,28561.0,0.0
281.0,12185.0,34107.0,0.0
214.0,10215.0,29600.0,0.0
186.0,9828.0,29507.0,0.0
158.0,9447.0,29420.0,0.0
130.0,9064.0,29314.0,0.0
104.0,8688.0,29210.0,0.0
79.0,8316.0,29109.0,0.0
53.0,7959.0,29043.0,0.0
30.0,7595.0,28940.0,0.0
7.0,7232.0,28821.0,0.0
-14.0,6874.0,28707.0,0.0
-36.0,6524.0,28609.0,0.0
-56.0,6182.0,28529.0,0.0
-76.0,5844.0,28449.0,0.0
-95.0,5506.0,28359.0,0.0
-114.0,5171.0,28269.0,0.0
-132.0,4839.0,28170.0,0.0
-149.0,4514.0,28092.0,0.0
-166.0,4194.0,28036.0,0.0
-181.0,3866.0,27898.0,0.0
-196.0,3549.0,27820.0,0.0
-210.0,3235.0,27745.0,0.0
-218.0,2849.0,26970.0,0.0
-238.0,2609.0,27538.0,0.0
-249.0,2295.0,27379.0,0.0
-262.0,1995.0,27350.0,0.0
-273.0,1690.0,27233.0,0.0
-284.0,1395.0,27226.0,0.0
-295.0,1096.0,27123.0,0.0
-302.0,796.0,26913.0,0.0
-312.0,503.0,26850.0,0.0
-319.0,212.0,26667.0,0.0
-331.0,-77.0,26865.0,0.0
-338.0,-366.0,26754.0,0.0
-345.0,-653.0,26660.0,0.0
-351.0,-939.0,26610.0,0.0
-358.0,-1225.0,26543.0,0.0
-363.0,-1506.0,26424.0,0.0
-368.0,-1789.0,26368.0,0.0
-372.0,-2069.0,26281.0,0.0
-377.0,-2353.0,26250.0,0.0
-380.0,-2630.0,26159.0,0.0
-384.0,-2911.0,26116.0,0.0
-387.0,-3188.0,26042.0,0.0
-389.0,-3462.0,25951.0,0.0
-390.0,-3739.0,25886.0,0.0
-392.0,-4019.0,25842.0,0.0
-393.0,-4290.0,25754.0,0.0
-394.0,-4580.0,25767.0,0.0
-393.0,-4845.0,25649.0,0.0
-390.0,-5095.0,25456.0,0.0
-391.0,-5387.0,25480.0,0.0
-391.0,-5688.0,25535.0,0.0
-386.0,-5914.0,25259.0,0.0
-368.0,-5922.0,24118.0,0.0
-384.0,-6515.0,25345.0,0.0
-381.0,-6795.0,25299.0,0.0
-376.0,-7059.0,25191.0,0.0
-373.0,-7352.0,25186.0,0.0
-368.0,-7618.0,25084.0,0.0
-363.0,-7906.0,25055.0,0.0
-356.0,-8176.0,24965.0,0.0
-351.0,-8452.0,24894.0,0.0
-344.0,-8738.0,24852.0,0.0
-336.0,-9014.0,24778.0,0.0
-329.0,-9292.0,24707.0,0.0
-321.0,-9578.0,24656.0,0.0
-1.0,-7.0,20.0,0.0
0.0,-10.0,25.0,0.0
0.0,-13.0,34.0,0.0
0.0,-10.0,23.0,0.0
0.0,-14.0,32.0,0.0
0.0,-20.0,44.0,0.0
0.0,-22.0,48.0,0.0
0.0,-21.0,46.0,0.0
-1.0,-25.0,51.0,0.0
0.0,-28.0,55.0,0.0
-1.0,-33.0,62.0,0.0
-1.0,-31.0,58.0,0.0
-1.0,-35.0,65.0,0.0
0.0,-38.0,67.0,0.0
0.0,-39.0,67.0,0.0
0.0,-49.0,81.0,0.0
0.0,-48.0,78.0,0.0
0.0,-46.0,73.0,0.0
0.0,-57.0,88.0,0.0
0.0,-56.0,86.0,0.0
0.0,-63.0,93.0,0.0
0.0,-56.0,81.0,0.0
0.0,-65.0,92.0,0.0
0.0,-72.0,98.0,0.0
0.0,-61.0,83.0,0.0
0.0,-73.0,96.0,0.0
0.0,-77.0,98.0,0.0
0.0,-76.0,97.0,0.0
0.0,-81.0,100.0,0.0
0.0,-80.0,96.0,0.0
0.0,-93.0,109.0,0.0
0.0,-88.0,101.0,0.0
0.0,-93.0,105.0,0.0
1.0,-92.0,102.0,0.0
1.0,-88.0,95.0,0.0
1.0,-97.0,103.0,0.0
1.0,-97.0,101.0,0.0
1.0,-106.0,107.0,0.0
1.0,-108.0,106.0,0.0
2.0,-110.0,106.0,0.0
2.0,-117.0,111.0,0.0
2.0,-116.0,108.0,0.0
2.0,-111.0,101.0,0.0
3.0,-123.0,109.0,0.0
2.0,-119.0,103.0,0.0
3.0,-121.0,104.0,0.0
4.0,-135.0,111.0,0.0
4.0,-137.0,111.0,0.0
4.0,-138.0,110.0,0.0
4.0,-148.0,115.0,0.0
4.0,-146.0,110.0,0.0
5.0,-144.0,106.0,0.0
5.0,-137.0,99.0,0.0
5.0,-152.0,108.0,0.0
6.0,-150.0,104.0,0.0
6.0,-157.0,106.0,0.0
6.0,-149.0,98.0,0.0
7.0,-173.0,112.0,0.0
7.0,-164.0,103.0,0.0
7.0,-170.0,104.0,0.0
7.0,-171.0,103.0,0.0
8.0,-170.0,100.0,0.0
8.0,-174.0,99.0,0.0
8.0,-169.0,94.0,0.0
9.0,-181.0,98.0,0.0
9.0,-182.0,96.0,0.0
9.0,-185.0,95.0,0.0
9.0,-176.0,88.0,0.0
10.0,-187.0,92.0,0.0
10.0,-189.0,89.0,0.0
11.0,-194.0,90.0,0.0
11.0,-196.0,88.0,0.0
12.0,-196.0,86.0,0.0
12.0,-194.0,82.0,0.0
12.0,-192.0,79.0,0.0
12.0,-200.0,80.0,0.0
12.0,-196.0,75.0,0.0
17.0,-243.0,91.0,0.0
18.0,-273.0,99.0,0.0
20.0,-287.0,101.0,0.0
20.0,-281.0,95.0,0.0
21.0,-281.0,92.0,0.0
20.0,-274.0,86.0,0.0
1556.0,16572.0,16295.0,0.0
1535.0,16508.0,16581.0,0.0
1513.0,16447.0,16874.0,0.0
1492.0,16383.0,17170.0,0.0
1471.0,16330.0,17484.0,0.0
1449.0,16249.0,17773.0,0.0
1426.0,16164.0,18065.0,0.0
1409.0,16152.0,18443.0,0.0
1560.0,18066.0,21081.0,0.0
1536.0,17988.0,21449.0,0.0
1508.0,17875.0,21784.0,0.0
1485.0,17799.0,22170.0,0.0
1808.0,21914.0,27905.0,0.0
1593.0,19524.0,25418.0,0.0
1722.0,21356.0,28428.0,0.0
1646.0,20661.0,28127.0,0.0
1537.0,19527.0,27189.0,0.0
1493.0,19194.0,27341.0,0.0
1588.0,20661.0,30113.0,0.0
1400.0,18445.0,27511.0,0.0
1329.0,17736.0,27078.0,0.0
1277.0,17254.0,26971.0,0.0
1218.0,16675.0,26693.0,0.0
1176.0,16306.0,26739.0,0.0
1207.0,16950.0,28479.0,0.0
1172.0,16679.0,28724.0,0.0
1155.0,16671.0,29433.0,0.0
1134.0,16602.0,30063.0,0.0
1181.0,17534.0,32574.0,0.0
1122.0,16899.0,32221.0,0.0
1069.0,16332.0,31974.0,0.0
1041.0,16133.0,32441.0,0.0
1011.0,15903.0,32864.0,0.0
965.0,15421.0,32764.0,0.0
920.0,14936.0,32643.0,0.0
876.0,14438.0,32478.0,0.0
835.0,13993.0,32414.0,0.0
791.0,13473.0,32158.0,0.0
756.0,13094.0,32223.0,0.0
722.0,12729.0,32323.0,0.0
695.0,12476.0,32711.0,0.0
577.0,10546.0,28573.0,0.0
654.0,12183.0,34139.0,0.0
537.0,10207.0,29609.0,0.0
507.0,9822.0,29525.0,0.0
478.0,9444.0,29447.0,0.0
449.0,9060.0,29335.0,0.0
420.0,8678.0,29211.0,0.0
394.0,8314.0,29135.0,0.0
335.0,7235.0,26435.0,0.0
343.0,7590.0,28957.0,0.0
319.0,7240.0,28893.0,0.0
288.0,6709.0,28056.0,0.0
270.0,6482.0,28464.0,0.0
250.0,6164.0,28486.0,0.0
230.0,5840.0,28474.0,0.0
209.0,5507.0,28408.0,0.0
189.0,5166.0,28276.0,0.0
171.0,4834.0,28183.0,0.0
152.0,4511.0,28115.0,0.0
135.0,4190.0,28051.0,0.0
118.0,3862.0,27921.0,0.0
102.0,3546.0,27846.0,0.0
87.0,3230.0,27759.0,0.0
71.0,2846.0,26993.0,0.0
58.0,2607.0,27583.0,0.0
44.0,2290.0,27382.0,0.0
31.0,1990.0,27357.0,0.0
19.0,1685.0,27216.0,0.0
8.0,1391.0,27236.0,0.0
-2.0,1092.0,27153.0,0.0
-13.0,796.0,27049.0,0.0
-22.0,501.0,26896.0,0.0
-31.0,208.0,26563.0,0.0
-40.0,-80.0,26867.0,0.0
-48.0,-368.0,26752.0,0.0
-57.0,-656.0,26715.0,0.0
-63.0,-942.0,26620.0,0.0
-70.0,-1224.0,26500.0,0.0
-76.0,-1508.0,26427.0,0.0
-82.0,-1794.0,26422.0,0.0
-86.0,-2074.0,26322.0,0.0
-91.0,-2351.0,26226.0,0.0
-95.0,-2632.0,26182.0,0.0
-98.0,-2917.0,26164.0,0.0
-101.0,-3191.0,26062.0,0.0
-104.0,-3469.0,26003.0,0.0
-106.0,-3748.0,25949.0,0.0
-107.0,-4017.0,25835.0,0.0
-108.0,-4296.0,25787.0,0.0
-109.0,-4584.0,25798.0,0.0
-107.0,-4797.0,25399.0,0.0
-107.0,-5051.0,25246.0,0.0
-106.0,-5345.0,25291.0,0.0
-106.0,-5685.0,25531.0,0.0
-104.0,-5962.0,25477.0,0.0
-102.0,-6245.0,25442.0,0.0
-98.0,-6516.0,25364.0,0.0
-94.0,-6770.0,25220.0,0.0
-86.0,-6629.0,23671.0,0.0
-82.0,-6939.0,23784.0,0.0
-78.0,-7201.0,23724.0,0.0
-72.0,-7461.0,23661.0,0.0
-67.0,-7719.0,23585.0,0.0
-61.0,-7985.0,23535.0,0.0
-54.0,-8253.0,23486.0,0.0
-47.0,-8513.0,23417.0,0.0
-39.0,-8779.0,23359.0,0.0
-31.0,-9054.0,23322.0,0.0
-22.0,-9246.0,23075.0,0.0
-14.0,-9587.0,23195.0,0.0
-5.0,-10403.0,24420.0,0.0
5.0,-10702.0,24389.0,0.0
0.0,-23.0,51.0,0.0
0.0,-31.0,67.0,0.0
0.0,-28.0,59.0,0.0
0.0,-34.0,70.0,0.0
0.0,-30.0,61.0,0.0
0.0,-32.0,62.0,0.0
0.0,-37.0,70.0,0.0
0.0,-40.0,74.0,0.0
0.0,-46.0,82.0,0.0
0.0,-49.0,86.0,0.0
0.0,-56.0,96.0,0.0
0.0,-51.0,85.0,0.0
0.0,-54.0,88.0,0.0
0.0,-62.0,99.0,0.0
0.0,-65.0,101.0,0.0
0.0,-66.0,99.0,0.0
0.0,-73.0,108.0,0.0
0.0,-75.0,108.0,0.0
1.0,-77.0,109.0,0.0
0.0,-83.0,115.0,0.0
1.0,-83.0,113.0,0.0
1.0,-78.0,102.0,0.0
2.0,-85.0,109.0,0.0
1.0,-90.0,114.0,0.0
2.0,-96.0,118.0,0.0
2.0,-95.0,114.0,0.0
2.0,-100.0,118.0,0.0
2.0,-105.0,121.0,0.0
2.0,-103.0,116.0,0.0
3.0,-115.0,126.0,0.0
2.0,-112.0,122.0,0.0
3.0,-116.0,122.0,0.0
4.0,-119.0,123.0,0.0
4.0,-118.0,119.0,0.0
3.0,-124.0,123.0,0.0
4.0,-127.0,124.0,0.0
3.0,-125.0,119.0,0.0
5.0,-135.0,125.0,0.0
5.0,-133.0,120.0,0.0
5.0,-140.0,125.0,0.0
5.0,-144.0,126.0,0.0
5.0,-145.0,124.0,0.0
6.0,-151.0,125.0,0.0
6.0,-156.0,126.0,0.0
7.0,-159.0,127.0,0.0
6.0,-152.0,118.0,0.0
7.0,-169.0,128.0,0.0
7.0,-168.0,124.0,0.0
8.0,-164.0,119.0,0.0
8.0,-174.0,123.0,0.0
9.0,-186.0,129.0,0.0
9.0,-172.0,117.0,0.0
9.0,-176.0,117.0,0.0
10.0,-191.0,124.0,0.0
9.0,-184.0,116.0,0.0
11.0,-195.0,120.0,0.0
11.0,-196.0,119.0,0.0
11.0,-190.0,112.0,0.0
11.0,-195.0,111.0,0.0
13.0,-210.0,118.0,0.0
12.0,-202.0,110.0,0.0
13.0,-209.0,110.0,0.0
13.0,-215.0,111.0,0.0
13.0,-207.0,104.0,0.0
14.0,-209.0,102.0,0.0
14.0,-214.0,102.0,0.0
14.0,-207.0,95.0,0.0
15.0,-217.0,97.0,0.0
15.0,-217.0,95.0,0.0
15.0,-218.0,93.0,0.0
16.0,-218.0,90.0,0.0
17.0,-228.0,91.0,0.0
17.0,-221.0,85.0,0.0
20.0,-256.0,96.0,0.0
22.0,-285.0,103.0,0.0
23.0,-291.0,102.0,0.0
24.0,-294.0,99.0,0.0
23.0,-286.0,94.0,0.0
24.0,-298.0,94.0,0.0
1765.0,16555.0,16290.0,0.0
1748.0,16506.0,16591.0,0.0
1729.0,16444.0,16884.0,0.0
1711.0,16388.0,17189.0,0.0
1692.0,16325.0,17492.0,0.0
1672.0,16249.0,17787.0,0.0
1652.0,16171.0,18087.0,0.0
1632.0,16092.0,18391.0,0.0
1613.0,16019.0,18707.0,0.0
1595.0,15953.0,19038.0,0.0
1575.0,15870.0,19356.0,0.0
1559.0,15812.0,19712.0,0.0
1539.0,15725.0,20039.0,0.0
1521.0,15645.0,20385.0,0.0
1503.0,15575.0,20749.0,0.0
1484.0,15482.0,21094.0,0.0
1465.0,15382.0,21436.0,0.0
1448.0,15305.0,21819.0,0.0
1755.0,18681.0,27250.0,0.0
1693.0,18143.0,27084.0,0.0
1644.0,17721.0,27079.0,0.0
1590.0,17247.0,26983.0,0.0
1521.0,16618.0,26626.0,0.0
1482.0,16284.0,26726.0,0.0
1529.0,16909.0,28435.0,0.0
1500.0,16680.0,28749.0,0.0
1492.0,16689.0,29491.0,0.0
1476.0,16600.0,30085.0,0.0
1484.0,16789.0,31219.0,0.0
1413.0,16072.0,30672.0,0.0
1429.0,16326.0,31992.0,0.0
1404.0,16116.0,32439.0,0.0
1378.0,15891.0,32868.0,0.0
1334.0,15449.0,32854.0,0.0
1277.0,14859.0,32504.0,0.0
1236.0,14425.0,32477.0,0.0
1191.0,13947.0,32336.0,0.0
1146.0,13467.0,32174.0,0.0
1110.0,13077.0,32214.0,0.0
1078.0,12724.0,32340.0,0.0
1056.0,12493.0,32790.0,0.0
890.0,10535.0,28574.0,0.0
801.0,9494.0,26629.0,0.0
858.0,10166.0,29521.0,0.0
829.0,9813.0,29527.0,0.0
798.0,9433.0,29440.0,0.0
767.0,9046.0,29318.0,0.0
738.0,8678.0,29246.0,0.0
647.0,7565.0,26543.0,0.0
623.0,7246.0,26504.0,0.0
595.0,6884.0,26291.0,0.0
580.0,6651.0,26572.0,0.0
559.0,6347.0,26572.0,0.0
538.0,6033.0,26518.0,0.0
516.0,5711.0,26422.0,0.0
497.0,5408.0,26397.0,0.0
478.0,5104.0,26358.0,0.0
458.0,4782.0,26209.0,0.0
440.0,4489.0,26203.0,0.0
421.0,4172.0,26040.0,0.0
406.0,3882.0,26029.0,0.0
390.0,3594.0,26022.0,0.0
374.0,3295.0,25912.0,0.0
355.0,2980.0,25647.0,0.0
333.0,2621.0,24895.0,0.0
320.0,2349.0,24895.0,0.0
337.0,2273.0,27227.0,0.0
326.0,1988.0,27380.0,0.0
312.0,1682.0,27243.0,0.0
301.0,1387.0,27218.0,0.0
290.0,1089.0,27150.0,0.0
278.0,792.0,27023.0,0.0
265.0,494.0,26704.0,0.0
252.0,202.0,26304.0,0.0
249.0,-82.0,26888.0,0.0
240.0,-371.0,26781.0,0.0
232.0,-658.0,26676.0,0.0
225.0,-944.0,26629.0,0.0
217.0,-1226.0,26489.0,0.0
209.0,-1495.0,26179.0,0.0
205.0,-1789.0,26334.0,0.0
189.0,-1959.0,24854.0,0.0
184.0,-2223.0,24789.0,0.0
179.0,-2484.0,24700.0,0.0
187.0,-2909.0,26093.0,0.0
184.0,-3189.0,26051.0,0.0
180.0,-3466.0,25982.0,0.0
179.0,-3748.0,25956.0,0.0
177.0,-4024.0,25882.0,0.0
176.0,-4284.0,25723.0,0.0
174.0,-4548.0,25606.0,0.0
174.0,-4821.0,25533.0,0.0
175.0,-5115.0,25575.0,0.0
177.0,-5392.0,25519.0,0.0
178.0,-5682.0,25530.0,0.0
179.0,-5903.0,25235.0,0.0
173.0,-5892.0,24015.0,0.0
176.0,-6158.0,23985.0,0.0
179.0,-6418.0,23919.0,0.0
182.0,-6662.0,23800.0,0.0
187.0,-6944.0,23811.0,0.0
193.0,-7212.0,23776.0,0.0
198.0,-7467.0,23690.0,0.0
203.0,-7722.0,23610.0,0.0
210.0,-7994.0,23577.0,0.0
216.0,-8252.0,23499.0,0.0
224.0,-8510.0,23422.0,0.0
231.0,-8773.0,23359.0,0.0
240.0,-9053.0,23335.0,0.0
249.0,-9291.0,23202.0,0.0
258.0,-9577.0,23188.0,0.0
269.0,-9856.0,23152.0,0.0
279.0,-10113.0,23062.0,0.0
306.0,-10996.0,24358.0,0.0
0.0,-22.0,50.0,0.0
0.0,-24.0,53.0,0.0
0.0,-36.0,74.0,0.0
0.0,-33.0,68.0,0.0
0.0,-28.0,54.0,0.0
1.0,-33.0,65.0,0.0
1.0,-36.0,68.0,0.0
1.0,-45.0,82.0,0.0
0.0,-44.0,77.0,0.0
0.0,-42.0,72.0,0.0
1.0,-58.0,97.0,0.0
1.0,-57.0,92.0,0.0
1.0,-62.0,99.0,0.0
2.0,-67.0,103.0,0.0
1.0,-66.0,101.0,0.0
2.0,-71.0,105.0,0.0
2.0,-75.0,110.0,0.0
2.0,-70.0,98.0,0.0
2.0,-78.0,109.0,0.0
2.0,-72.0,98.0,0.0
3.0,-89.0,117.0,0.0
2.0,-80.0,104.0,0.0
3.0,-85.0,107.0,0.0
3.0,-83.0,101.0,0.0
3.0,-94.0,114.0,0.0
3.0,-99.0,117.0,0.0
4.0,-105.0,122.0,0.0
4.0,-100.0,112.0,0.0
3.0,-101.0,111.0,0.0
5.0,-109.0,118.0,0.0
4.0,-107.0,114.0,0.0
4.0,-111.0,115.0,0.0
5.0,-115.0,116.0,0.0
5.0,-116.0,115.0,0.0
5.0,-121.0,117.0,0.0
5.0,-122.0,116.0,0.0
6.0,-130.0,120.0,0.0
6.0,-125.0,113.0,0.0
6.0,-131.0,116.0,0.0
6.0,-135.0,117.0,0.0
8.0,-141.0,120.0,0.0
8.0,-144.0,119.0,0.0
9.0,-161.0,131.0,0.0
8.0,-150.0,120.0,0.0
8.0,-157.0,121.0,0.0
9.0,-153.0,116.0,0.0
9.0,-158.0,117.0,0.0
10.0,-171.0,125.0,0.0
9.0,-163.0,116.0,0.0
11.0,-182.0,126.0,0.0
11.0,-172.0,116.0,0.0
11.0,-176.0,116.0,0.0
11.0,-181.0,117.0,0.0
12.0,-190.0,120.0,0.0
12.0,-181.0,111.0,0.0
13.0,-190.0,114.0,0.0
14.0,-197.0,116.0,0.0
13.0,-185.0,106.0,0.0
14.0,-200.0,112.0,0.0
14.0,-197.0,107.0,0.0
15.0,-206.0,110.0,0.0
15.0,-195.0,101.0,0.0
16.0,-209.0,105.0,0.0
16.0,-206.0,101.0,0.0
16.0,-205.0,97.0,0.0
17.0,-210.0,97.0,0.0
18.0,-216.0,97.0,0.0
17.0,-215.0,94.0,0.0
17.0,-212.0,90.0,0.0
18.0,-213.0,88.0,0.0
19.0,-223.0,89.0,0.0
19.0,-218.0,84.0,0.0
21.0,-244.0,92.0,0.0
24.0,-276.0,100.0,0.0
26.0,-289.0,101.0,0.0
27.0,-291.0,99.0,0.0
26.0,-284.0,93.0,0.0
27.0,-287.0,90.0,0.0
2052.0,17182.0,16919.0,0.0
2048.0,17237.0,17338.0,0.0
2051.0,17338.0,17814.0,0.0
2046.0,17383.0,18245.0,0.0
2030.0,17328.0,18579.0,0.0
1851.0,15865.0,17379.0,0.0
2024.0,17431.0,19509.0,0.0
2015.0,17437.0,19941.0,0.0
1999.0,17368.0,20295.0,0.0
1828.0,15946.0,19042.0,0.0
1813.0,15872.0,19371.0,0.0
1797.0,15796.0,19705.0,0.0
1782.0,15728.0,20057.0,0.0
1766.0,15643.0,20396.0,0.0
1753.0,15582.0,20775.0,0.0
1737.0,15496.0,21127.0,0.0
1721.0,15404.0,21480.0,0.0
1706.0,15306.0,21835.0,0.0
1692.0,15229.0,22231.0,0.0
1678.0,15138.0,22615.0,0.0
1662.0,15031.0,22986.0,0.0
1649.0,14951.0,23408.0,0.0
1636.0,14863.0,23833.0,0.0
1623.0,14770.0,24257.0,0.0
1610.0,14668.0,24685.0,0.0
1598.0,14575.0,25141.0,0.0
1586.0,14478.0,25604.0,0.0
1574.0,14367.0,26060.0,0.0
1560.0,14245.0,26508.0,0.0
1548.0,14128.0,26983.0,0.0
1540.0,14048.0,27547.0,0.0
1616.0,14728.0,29669.0,0.0
1738.0,15809.0,32724.0,0.0
1689.0,15338.0,32644.0,0.0
1640.0,14865.0,32544.0,0.0
1593.0,14390.0,32425.0,0.0
1551.0,13961.0,32396.0,0.0
1505.0,13484.0,32241.0,0.0
1462.0,13037.0,32142.0,0.0
1431.0,12693.0,32289.0,0.0
1416.0,12480.0,32779.0,0.0
1106.0,9680.0,26276.0,0.0
1074.0,9323.0,26173.0,0.0
1045.0,8991.0,26133.0,0.0
1015.0,8653.0,26058.0,0.0
986.0,8309.0,25957.0,0.0
959.0,7987.0,25911.0,0.0
933.0,7662.0,25845.0,0.0
908.0,7343.0,25786.0,0.0
882.0,7012.0,25673.0,0.0
858.0,6703.0,25627.0,0.0
834.0,6388.0,25545.0,0.0
815.0,6105.0,25585.0,0.0
799.0,5841.0,25703.0,0.0
777.0,5540.0,25654.0,0.0
842.0,5818.0,28431.0,0.0
820.0,5488.0,28371.0,0.0
798.0,5156.0,28288.0,0.0
778.0,4827.0,28209.0,0.0
696.0,4137.0,25854.0,0.0
737.0,4171.0,27994.0,0.0
719.0,3852.0,27917.0,0.0
628.0,3169.0,24951.0,0.0
625.0,2944.0,25373.0,0.0
597.0,2604.0,24774.0,0.0
587.0,2343.0,24868.0,0.0
590.0,2124.0,25491.0,0.0
578.0,1848.0,25491.0,0.0
568.0,1576.0,25567.0,0.0
557.0,1296.0,25515.0,0.0
546.0,1019.0,25465.0,0.0
535.0,742.0,25414.0,0.0
526.0,467.0,25387.0,0.0
516.0,193.0,25317.0,0.0
507.0,-79.0,25259.0,0.0
498.0,-351.0,25208.0,0.0
490.0,-621.0,25114.0,0.0
484.0,-892.0,25094.0,0.0
477.0,-1160.0,25040.0,0.0
470.0,-1427.0,24974.0,0.0
465.0,-1695.0,24933.0,0.0
460.0,-1963.0,24907.0,0.0
456.0,-2228.0,24844.0,0.0
450.0,-2488.0,24740.0,0.0
447.0,-2755.0,24716.0,0.0
443.0,-3015.0,24631.0,0.0
441.0,-3278.0,24581.0,0.0
439.0,-3542.0,24534.0,0.0
438.0,-3807.0,24494.0,0.0
437.0,-4065.0,24417.0,0.0
436.0,-4325.0,24358.0,0.0
435.0,-4585.0,24289.0,0.0
436.0,-4847.0,24242.0,0.0
437.0,-5107.0,24184.0,0.0
438.0,-5369.0,24134.0,0.0
441.0,-5633.0,24093.0,0.0
444.0,-5900.0,24060.0,0.0
446.0,-6163.0,24016.0,0.0
450.0,-6413.0,23914.0,0.0
453.0,-6673.0,23854.0,0.0
458.0,-6932.0,23786.0,0.0
462.0,-7187.0,23703.0,0.0
468.0,-7454.0,23664.0,0.0
473.0,-7709.0,23583.0,0.0
480.0,-7978.0,23542.0,0.0
488.0,-8243.0,23489.0,0.0
495.0,-8501.0,23411.0,0.0
503.0,-8769.0,23362.0,0.0
512.0,-9035.0,23304.0,0.0
521.0,-9296.0,23230.0,0.0
530.0,-9567.0,23178.0,0.0
541.0,-9838.0,23126.0,0.0
553.0,-10113.0,23079.0,0.0
563.0,-10382.0,23014.0,0.0
575.0,-10652.0,22948.0,0.0
1.0,-28.0,62.0,0.0
0.0,-25.0,54.0,0.0
1.0,-28.0,56.0,0.0
1.0,-38.0,75.0,0.0
1.0,-33.0,63.0,0.0
2.0,-48.0,89.0,0.0
2.0,-50.0,88.0,0.0
2.0,-45.0,79.0,0.0
1.0,-48.0,83.0,0.0
1.0,-47.0,79.0,0.0
2.0,-59.0,96.0,0.0
3.0,-61.0,96.0,0.0
3.0,-62.0,96.0,0.0
3.0,-69.0,105.0,0.0
4.0,-75.0,111.0,0.0
4.0,-78.0,114.0,0.0
4.0,-84.0,118.0,0.0
3.0,-83.0,114.0,0.0
4.0,-83.0,112.0,0.0
4.0,-90.0,119.0,0.0
4.0,-92.0,118.0,0.0
4.0,-93.0,117.0,0.0
4.0,-92.0,113.0,0.0
6.0,-104.0,126.0,0.0
5.0,-100.0,118.0,0.0
6.0,-105.0,121.0,0.0
6.0,-111.0,125.0,0.0
6.0,-109.0,121.0,0.0
6.0,-107.0,115.0,0.0
6.0,-110.0,116.0,0.0
6.0,-113.0,117.0,0.0
7.0,-123.0,124.0,0.0
8.0,-127.0,127.0,0.0
7.0,-120.0,117.0,0.0
8.0,-121.0,115.0,0.0
8.0,-134.0,124.0,0.0
8.0,-138.0,126.0,0.0
10.0,-148.0,131.0,0.0
9.0,-151.0,132.0,0.0
9.0,-141.0,119.0,0.0
10.0,-150.0,126.0,0.0
11.0,-157.0,128.0,0.0
10.0,-150.0,119.0,0.0
11.0,-162.0,126.0,0.0
12.0,-174.0,133.0,0.0
11.0,-167.0,124.0,0.0
12.0,-166.0,121.0,0.0
12.0,-169.0,119.0,0.0
12.0,-175.0,122.0,0.0
13.0,-173.0,117.0,0.0
13.0,-180.0,119.0,0.0
14.0,-188.0,121.0,0.0
15.0,-188.0,119.0,0.0
15.0,-192.0,118.0,0.0
15.0,-192.0,116.0,0.0
16.0,-199.0,117.0,0.0
16.0,-204.0,117.0,0.0
17.0,-205.0,115.0,0.0
17.0,-203.0,111.0,0.0
17.0,-201.0,107.0,0.0
19.0,-221.0,114.0,0.0
18.0,-209.0,105.0,0.0
19.0,-220.0,108.0,0.0
20.0,-229.0,109.0,0.0
19.0,-215.0,100.0,0.0
20.0,-222.0,100.0,0.0
20.0,-219.0,96.0,0.0
21.0,-227.0,96.0,0.0
20.0,-219.0,91.0,0.0
21.0,-219.0,88.0,0.0
22.0,-229.0,89.0,0.0
24.0,-249.0,94.0,0.0
28.0,-279.0,102.0,0.0
28.0,-283.0,100.0,0.0
29.0,-289.0,99.0,0.0
30.0,-289.0,95.0,0.0
29.0,-281.0,89.0,0.0
2271.0,17182.0,16928.0,0.0
2272.0,17236.0,17346.0,0.0
2104.0,16011.0,16459.0,0.0
2085.0,15905.0,16702.0,0.0
2085.0,15953.0,17114.0,0.0
2271.0,17411.0,19082.0,0.0
2266.0,17416.0,19502.0,0.0
2264.0,17437.0,19951.0,0.0
2250.0,17363.0,20300.0,0.0
2235.0,17285.0,20652.0,0.0
2225.0,17232.0,21044.0,0.0
2239.0,17365.0,21675.0,0.0
2215.0,17207.0,21955.0,0.0
2165.0,16842.0,21972.0,0.0
2017.0,15697.0,20939.0,0.0
2029.0,15805.0,21560.0,0.0
1992.0,15527.0,21667.0,0.0
1980.0,15430.0,22026.0,0.0
2165.0,16873.0,24644.0,0.0
2328.0,18138.0,27114.0,0.0
2278.0,17741.0,27146.0,0.0
2238.0,17411.0,27277.0,0.0
1921.0,14931.0,23955.0,0.0
1902.0,14754.0,24249.0,0.0
1896.0,14680.0,24720.0,0.0
1883.0,14548.0,25109.0,0.0
1877.0,14466.0,25599.0,0.0
1869.0,14352.0,26047.0,0.0
1861.0,14245.0,26527.0,0.0
1855.0,14141.0,27026.0,0.0
1850.0,14040.0,27551.0,0.0
1949.0,14721.0,29673.0,0.0
2115.0,15886.0,32906.0,0.0
2058.0,15365.0,32725.0,0.0
2003.0,14854.0,32541.0,0.0
1950.0,14355.0,32369.0,0.0
0.0,0.0,0.0,0.0
1857.0,13454.0,32191.0,0.0
1817.0,13032.0,32152.0,0.0
1789.0,12705.0,32342.0,0.0
1774.0,12456.0,32742.0,0.0
1394.0,9673.0,26276.0,0.0
1362.0,9325.0,26200.0,0.0
1330.0,8983.0,26125.0,0.0
1299.0,8644.0,26050.0,0.0
1270.0,8307.0,25970.0,0.0
1240.0,7972.0,25884.0,0.0
1213.0,7651.0,25826.0,0.0
1186.0,7329.0,25756.0,0.0
1159.0,7007.0,25674.0,0.0
1134.0,6692.0,25606.0,0.0
1111.0,6383.0,25545.0,0.0
1087.0,6079.0,25495.0,0.0
1064.0,5766.0,25392.0,0.0
1042.0,5464.0,25331.0,0.0
1020.0,5168.0,25277.0,0.0
999.0,4868.0,25188.0,0.0
980.0,4576.0,25132.0,0.0
961.0,4286.0,25069.0,0.0
943.0,3998.0,25003.0,0.0
925.0,3711.0,24934.0,0.0
907.0,3427.0,24866.0,0.0
891.0,3144.0,24791.0,0.0
876.0,2870.0,24756.0,0.0
860.0,2591.0,24676.0,0.0
846.0,2316.0,24615.0,0.0
832.0,2043.0,24547.0,0.0
819.0,1773.0,24499.0,0.0
807.0,1505.0,24462.0,0.0
802.0,1249.0,24610.0,0.0
876.0,1086.0,27192.0,0.0
808.0,739.0,25380.0,0.0
799.0,465.0,25349.0,0.0
788.0,191.0,25276.0,0.0
779.0,-80.0,25229.0,0.0
771.0,-352.0,25177.0,0.0
763.0,-622.0,25142.0,0.0
755.0,-891.0,25078.0,0.0
748.0,-1161.0,25042.0,0.0
741.0,-1427.0,24966.0,0.0
735.0,-1693.0,24907.0,0.0
731.0,-1961.0,24882.0,0.0
725.0,-2223.0,24790.0,0.0
722.0,-2491.0,24772.0,0.0
717.0,-2750.0,24670.0,0.0
713.0,-3011.0,24599.0,0.0
711.0,-3278.0,24584.0,0.0
710.0,-3543.0,24545.0,0.0
708.0,-3805.0,24494.0,0.0
706.0,-4066.0,24434.0,0.0
705.0,-4326.0,24368.0,0.0
706.0,-4588.0,24319.0,0.0
707.0,-4849.0,24260.0,0.0
707.0,-5106.0,24189.0,0.0
710.0,-5379.0,24186.0,0.0
711.0,-5631.0,24096.0,0.0
714.0,-5894.0,24045.0,0.0
715.0,-6146.0,23960.0,0.0
719.0,-6404.0,23893.0,0.0
722.0,-6662.0,23825.0,0.0
727.0,-6921.0,23760.0,0.0
732.0,-7179.0,23689.0,0.0
738.0,-7449.0,23661.0,0.0
744.0,-7703.0,23577.0,0.0
750.0,-7959.0,23500.0,0.0
759.0,-8244.0,23505.0,0.0
765.0,-8487.0,23388.0,0.0
773.0,-8752.0,23329.0,0.0
783.0,-9019.0,23276.0,0.0
791.0,-9278.0,23198.0,0.0
803.0,-9559.0,23172.0,0.0
813.0,-9820.0,23097.0,0.0
824.0,-10085.0,23029.0,0.0
837.0,-10370.0,23000.0,0.0
848.0,-10624.0,22902.0,0.0
1.0,-24.0,52.0,0.0
1.0,-23.0,50.0,0.0
2.0,-30.0,61.0,0.0
2.0,-28.0,56.0,0.0
1.0,-29.0,55.0,0.0
2.0,-36.0,68.0,0.0
3.0,-39.0,72.0,0.0
2.0,-47.0,84.0,0.0
3.0,-52.0,88.0,0.0
3.0,-52.0,87.0,0.0
4.0,-57.0,93.0,0.0
3.0,-54.0,87.0,0.0
4.0,-65.0,100.0,0.0
4.0,-64.0,96.0,0.0
4.0,-63.0,93.0,0.0
5.0,-71.0,103.0,0.0
4.0,-66.0,94.0,0.0
5.0,-76.0,105.0,0.0
5.0,-77.0,105.0,0.0
6.0,-86.0,113.0,0.0
6.0,-88.0,113.0,0.0
5.0,-87.0,110.0,0.0
5.0,-86.0,106.0,0.0
7.0,-98.0,119.0,0.0
7.0,-96.0,114.0,0.0
8.0,-106.0,122.0,0.0
7.0,-98.0,111.0,0.0
8.0,-109.0,122.0,0.0
8.0,-111.0,120.0,0.0
7.0,-108.0,114.0,0.0
8.0,-112.0,116.0,0.0
8.0,-114.0,115.0,0.0
9.0,-125.0,124.0,0.0
9.0,-119.0,115.0,0.0
9.0,-122.0,116.0,0.0
10.0,-134.0,124.0,0.0
10.0,-126.0,115.0,0.0
10.0,-132.0,117.0,0.0
11.0,-143.0,125.0,0.0
10.0,-138.0,117.0,0.0
11.0,-141.0,118.0,0.0
12.0,-153.0,124.0,0.0
11.0,-141.0,112.0,0.0
12.0,-150.0,117.0,0.0
14.0,-163.0,124.0,0.0
14.0,-168.0,124.0,0.0
14.0,-161.0,116.0,0.0
13.0,-161.0,114.0,0.0
14.0,-168.0,117.0,0.0
15.0,-173.0,118.0,0.0
15.0,-175.0,116.0,0.0
17.0,-185.0,120.0,0.0
15.0,-179.0,113.0,0.0
17.0,-191.0,117.0,0.0
17.0,-191.0,115.0,0.0
18.0,-195.0,114.0,0.0
18.0,-197.0,113.0,0.0
19.0,-204.0,114.0,0.0
18.0,-195.0,107.0,0.0
20.0,-209.0,111.0,0.0
20.0,-209.0,108.0,0.0
20.0,-204.0,103.0,0.0
20.0,-205.0,101.0,0.0
22.0,-219.0,105.0,0.0
20.0,-207.0,96.0,0.0
21.0,-213.0,96.0,0.0
22.0,-213.0,93.0,0.0
21.0,-212.0,91.0,0.0
22.0,-214.0,88.0,0.0
23.0,-219.0,88.0,0.0
24.0,-225.0,87.0,0.0
26.0,-238.0,89.0,0.0
30.0,-276.0,101.0,0.0
31.0,-283.0,100.0,0.0
32.0,-285.0,97.0,0.0
31.0,-278.0,91.0,0.0
31.0,-278.0,88.0,0.0
2310.0,15934.0,15704.0,0.0
2299.0,15881.0,15988.0,0.0
2313.0,15997.0,16451.0,0.0
2317.0,16042.0,16853.0,0.0
2303.0,15956.0,17124.0,0.0
2317.0,16065.0,17615.0,0.0
2325.0,16134.0,18074.0,0.0
2314.0,16063.0,18386.0,0.0
2500.0,17353.0,20297.0,0.0
2488.0,17276.0,20652.0,0.0
2482.0,17232.0,21052.0,0.0
2494.0,17311.0,21618.0,0.0
2476.0,17176.0,21927.0,0.0
2436.0,16875.0,22025.0,0.0
2280.0,15782.0,21062.0,0.0
2287.0,15805.0,21572.0,0.0
2248.0,15513.0,21656.0,0.0
2240.0,15424.0,22028.0,0.0
2455.0,16873.0,24656.0,0.0
2644.0,18120.0,27098.0,0.0
2593.0,17718.0,27124.0,0.0
2532.0,17249.0,27036.0,0.0
2235.0,15172.0,24354.0,0.0
2400.0,16225.0,26677.0,0.0
2233.0,15037.0,25336.0,0.0
2489.0,16675.0,28797.0,0.0
2233.0,14882.0,26349.0,0.0
2208.0,14634.0,26573.0,0.0
2184.0,14387.0,26803.0,0.0
2163.0,14156.0,27070.0,0.0
2507.0,16292.0,31987.0,0.0
2502.0,16132.0,32535.0,0.0
2353.0,15045.0,31181.0,0.0
2422.0,15352.0,32712.0,0.0
2366.0,14847.0,32544.0,0.0
2314.0,14372.0,32423.0,0.0
2251.0,13836.0,32146.0,0.0
2212.0,13435.0,32165.0,0.0
2175.0,13047.0,32206.0,0.0
2143.0,12685.0,32311.0,0.0
2136.0,12465.0,32783.0,0.0
1684.0,9674.0,26295.0,0.0
1647.0,9313.0,26179.0,0.0
1616.0,8977.0,26125.0,0.0
1583.0,8632.0,26030.0,0.0
1553.0,8306.0,25982.0,0.0
1522.0,7968.0,25887.0,0.0
1493.0,7641.0,25810.0,0.0
1466.0,7322.0,25749.0,0.0
1439.0,7003.0,25676.0,0.0
1413.0,6692.0,25621.0,0.0
1386.0,6371.0,25514.0,0.0
1362.0,6070.0,25472.0,0.0
1339.0,5768.0,25417.0,0.0
1315.0,5458.0,25317.0,0.0
1293.0,5163.0,25272.0,0.0
1271.0,4865.0,25193.0,0.0
1252.0,4574.0,25141.0,0.0
1232.0,4286.0,25092.0,0.0
1213.0,3999.0,25028.0,0.0
1193.0,3709.0,24939.0,0.0
1176.0,3428.0,24889.0,0.0
1158.0,3143.0,24798.0,0.0
1143.0,2869.0,24771.0,0.0
1126.0,2589.0,24678.0,0.0
1111.0,2314.0,24609.0,0.0
1097.0,2042.0,24565.0,0.0
1082.0,1770.0,24479.0,0.0
1069.0,1502.0,24434.0,0.0
1069.0,1249.0,24655.0,0.0
1165.0,1081.0,27093.0,0.0
1081.0,737.0,25352.0,0.0
1073.0,464.0,25368.0,0.0
1106.0,198.0,26328.0,0.0
1107.0,-85.0,26534.0,0.0
1106.0,-374.0,26691.0,0.0
1034.0,-623.0,25121.0,0.0
1304.0,-1132.0,31815.0,1.0
1024.0,-1165.0,25129.0,0.0
1014.0,-1428.0,24977.0,0.0
1005.0,-1691.0,24865.0,0.0
1001.0,-1959.0,24863.0,0.0
992.0,-2216.0,24715.0,0.0
991.0,-2487.0,24733.0,0.0
984.0,-2740.0,24592.0,0.0
983.0,-3009.0,24595.0,0.0
981.0,-3275.0,24565.0,0.0
977.0,-3531.0,24473.0,0.0
975.0,-3787.0,24388.0,0.0
975.0,-4054.0,24367.0,0.0
976.0,-4327.0,24385.0,0.0
975.0,-4584.0,24310.0,0.0
975.0,-4840.0,24229.0,0.0
976.0,-5101.0,24176.0,0.0
976.0,-5350.0,24071.0,0.0
982.0,-5635.0,24122.0,0.0
92.0,-558.0,2274.0,0.0
93.0,-578.0,2256.0,0.0
89.0,-582.0,2173.0,0.0
94.0,-636.0,2277.0,0.0
92.0,-640.0,2199.0,0.0
91.0,-657.0,2171.0,0.0
1227.0,-9051.0,28763.0,1.0
1254.0,-9514.0,29134.0,1.0
95.0,-745.0,2204.0,0.0
95.0,-767.0,2189.0,0.0
94.0,-776.0,2141.0,0.0
94.0,-795.0,2121.0,0.0
1344.0,-11482.0,29649.0,1.0
101.0,-888.0,2222.0,0.0
100.0,-892.0,2165.0,0.0
100.0,-918.0,2162.0,0.0
100.0,-934.0,2133.0,0.0
103.0,-971.0,2156.0,0.0
105.0,-997.0,2153.0,0.0
104.0,-1003.0,2104.0,0.0
103.0,-1016.0,2074.0,0.0
2.0,-29.0,59.0,0.0
2.0,-32.0,62.0,0.0
3.0,-37.0,70.0,0.0
4.0,-49.0,91.0,0.0
5.0,-52.0,94.0,0.0
4.0,-49.0,88.0,0.0
3.0,-43.0,73.0,0.0
4.0,-52.0,87.0,0.0
4.0,-57.0,95.0,0.0
6.0,-70.0,111.0,0.0
6.0,-67.0,105.0,0.0
5.0,-66.0,99.0,0.0
6.0,-70.0,103.0,0.0
6.0,-69.0,100.0,0.0
8.0,-84.0,118.0,0.0
7.0,-75.0,103.0,0.0
7.0,-79.0,107.0,0.0
7.0,-87.0,115.0,0.0
8.0,-92.0,120.0,0.0
8.0,-99.0,125.0,0.0
7.0,-89.0,111.0,0.0
8.0,-95.0,115.0,0.0
8.0,-97.0,115.0,0.0
8.0,-95.0,110.0,0.0
9.0,-109.0,123.0,0.0
11.0,-116.0,129.0,0.0
10.0,-115.0,124.0,0.0
10.0,-118.0,125.0,0.0
10.0,-115.0,119.0,0.0
10.0,-123.0,124.0,0.0
11.0,-120.0,119.0,0.0
12.0,-129.0,126.0,0.0
11.0,-124.0,118.0,0.0
12.0,-134.0,124.0,0.0
12.0,-132.0,120.0,0.0
13.0,-143.0,127.0,0.0
13.0,-134.0,117.0,0.0
14.0,-149.0,127.0,0.0
14.0,-150.0,126.0,0.0
14.0,-148.0,122.0,0.0
15.0,-157.0,125.0,0.0
15.0,-156.0,121.0,0.0
15.0,-158.0,121.0,0.0
16.0,-161.0,120.0,0.0
16.0,-164.0,119.0,0.0
16.0,-170.0,121.0,0.0
17.0,-174.0,121.0,0.0
17.0,-172.0,117.0,0.0
18.0,-180.0,119.0,0.0
18.0,-179.0,116.0,0.0
19.0,-190.0,121.0,0.0
20.0,-194.0,120.0,0.0
20.0,-199.0,120.0,0.0
19.0,-194.0,115.0,0.0
21.0,-205.0,118.0,0.0
21.0,-202.0,113.0,0.0
23.0,-211.0,116.0,0.0
22.0,-211.0,112.0,0.0
23.0,-214.0,111.0,0.0
24.0,-218.0,110.0,0.0
23.0,-214.0,105.0,0.0
24.0,-218.0,104.0,0.0
25.0,-222.0,104.0,0.0
25.0,-227.0,103.0,0.0
25.0,-228.0,100.0,0.0
25.0,-223.0,95.0,0.0
25.0,-216.0,89.0,0.0
26.0,-226.0,91.0,0.0
27.0,-225.0,88.0,0.0
29.0,-244.0,92.0,0.0
31.0,-263.0,96.0,0.0
34.0,-285.0,101.0,0.0
34.0,-281.0,96.0,0.0
34.0,-282.0,92.0,0.0
34.0,-285.0,90.0,0.0
2506.0,15880.0,15655.0,0.0
2496.0,15822.0,15933.0,0.0
2521.0,15974.0,16432.0,0.0
2524.0,15989.0,16802.0,0.0
2516.0,15933.0,17105.0,0.0
2536.0,16050.0,17603.0,0.0
2544.0,16088.0,18028.0,0.0
2534.0,16010.0,18332.0,0.0
2754.0,17374.0,20328.0,0.0
2745.0,17294.0,20678.0,0.0
2738.0,17220.0,21045.0,0.0
2755.0,17293.0,21601.0,0.0
2733.0,17111.0,21851.0,0.0
2697.0,16847.0,21996.0,0.0
2545.0,15855.0,21166.0,0.0
2544.0,15806.0,21581.0,0.0
2506.0,15512.0,21662.0,0.0
2501.0,15429.0,22043.0,0.0
2491.0,15306.0,22375.0,0.0
2968.0,18156.0,27164.0,0.0
2903.0,17677.0,27071.0,0.0
2541.0,15399.0,24145.0,0.0
2512.0,15140.0,24311.0,0.0
2690.0,16113.0,26504.0,0.0
2526.0,15036.0,25345.0,0.0
2533.0,14982.0,25881.0,0.0
2526.0,14833.0,26272.0,0.0
2513.0,14644.0,26602.0,0.0
2485.0,14364.0,26771.0,0.0
2469.0,14146.0,27059.0,0.0
2843.0,16141.0,31703.0,0.0
2897.0,16289.0,32864.0,0.0
2838.0,15792.0,32744.0,0.0
2788.0,15343.0,32709.0,0.0
2721.0,14801.0,32457.0,0.0
2662.0,14300.0,32275.0,0.0
2609.0,13832.0,32151.0,0.0
2579.0,13485.0,32298.0,0.0
2523.0,12995.0,32093.0,0.0
2499.0,12678.0,32307.0,0.0
2492.0,12432.0,32712.0,0.0
1969.0,9655.0,26253.0,0.0
1935.0,9309.0,26179.0,0.0
1898.0,8957.0,26079.0,0.0
1865.0,8616.0,25993.0,0.0
1834.0,8287.0,25935.0,0.0
1800.0,7943.0,25813.0,0.0
1772.0,7629.0,25779.0,0.0
1742.0,7305.0,25702.0,0.0
1717.0,6996.0,25663.0,0.0
1688.0,6676.0,25571.0,0.0
1663.0,6373.0,25534.0,0.0
1637.0,6062.0,25459.0,0.0
1612.0,5755.0,25373.0,0.0
1588.0,5453.0,25306.0,0.0
1564.0,5153.0,25233.0,0.0
1543.0,4860.0,25180.0,0.0
1522.0,4570.0,25128.0,0.0
1500.0,4274.0,25032.0,0.0
1479.0,3988.0,24976.0,0.0
1462.0,3705.0,24924.0,0.0
1443.0,3422.0,24862.0,0.0
1425.0,3139.0,24785.0,0.0
1407.0,2862.0,24723.0,0.0
1391.0,2585.0,24661.0,0.0
1375.0,2311.0,24592.0,0.0
1362.0,2041.0,24558.0,0.0
1345.0,1767.0,24461.0,0.0
1333.0,1501.0,24425.0,0.0
1338.0,1250.0,24696.0,0.0
1460.0,1082.0,27147.0,0.0
1358.0,738.0,25409.0,0.0
1347.0,463.0,25368.0,0.0
1397.0,198.0,26430.0,0.0
1405.0,-87.0,26748.0,0.0
0.0,0.0,0.0,0.0
1656.0,-788.0,31818.0,1.0
1644.0,-1129.0,31732.0,1.0
1635.0,-1467.0,31650.0,1.0
1619.0,-1798.0,31449.0,1.0
0.0,0.0,0.0,0.0
1611.0,-2478.0,31452.0,1.0
0.0,0.0,0.0,0.0
1620.0,-3191.0,31750.0,1.0
1626.0,-3554.0,31909.0,1.0
1626.0,-3904.0,31922.0,1.0
1633.0,-4272.0,32063.0,1.0
0.0,0.0,0.0,0.0
1618.0,-4925.0,31725.0,1.0
1608.0,-5234.0,31478.0,1.0
1601.0,-5552.0,31301.0,1.0
1596.0,-5866.0,31122.0,1.0
1589.0,-6171.0,30905.0,1.0
118.0,-484.0,2295.0,0.0
113.0,-490.0,2206.0,0.0
1569.0,-7053.0,30208.0,1.0
1571.0,-7370.0,30099.0,1.0
1568.0,-7663.0,29902.0,1.0
113.0,-575.0,2153.0,0.0
1577.0,-8308.0,29737.0,1.0
115.0,-628.0,2159.0,0.0
117.0,-661.0,2185.0,0.0
1596.0,-9279.0,29504.0,1.0
0.0,0.0,0.0,0.0
117.0,-725.0,2146.0,0.0
120.0,-764.0,2181.0,0.0
1657.0,-10734.0,29609.0,1.0
121.0,-804.0,2149.0,0.0
122.0,-834.0,2155.0,0.0
123.0,-855.0,2141.0,0.0
1749.0,-12383.0,30053.0,1.0
125.0,-901.0,2125.0,0.0
1802.0,-13244.0,30273.0,1.0
1828.0,-13670.0,30355.0,1.0
128.0,-977.0,2110.0,0.0
125.0,-970.0,2036.0,0.0
130.0,-1020.0,2084.0,0.0
3.0,-28.0,57.0,0.0
2.0,-26.0,51.0,0.0
2.0,-27.0,54.0,0.0
3.0,-32.0,59.0,0.0
4.0,-41.0,74.0,0.0
4.0,-40.0,70.0,0.0
5.0,-44.0,76.0,0.0
4.0,-42.0,70.0,0.0
5.0,-48.0,80.0,0.0
6.0,-58.0,92.0,0.0
6.0,-59.0,92.0,0.0
7.0,-63.0,97.0,0.0
6.0,-61.0,91.0,0.0
7.0,-66.0,96.0,0.0
8.0,-73.0,103.0,0.0
8.0,-80.0,110.0,0.0
8.0,-76.0,103.0,0.0
9.0,-84.0,110.0,0.0
8.0,-75.0,97.0,0.0
9.0,-87.0,109.0,0.0
9.0,-89.0,111.0,0.0
8.0,-80.0,97.0,0.0
9.0,-91.0,107.0,0.0
9.0,-91.0,104.0,0.0
11.0,-101.0,115.0,0.0
11.0,-103.0,114.0,0.0
11.0,-108.0,117.0,0.0
11.0,-110.0,116.0,0.0
11.0,-107.0,111.0,0.0
11.0,-113.0,115.0,0.0
12.0,-120.0,119.0,0.0
12.0,-119.0,117.0,0.0
12.0,-120.0,114.0,0.0
12.0,-124.0,116.0,0.0
14.0,-129.0,118.0,0.0
13.0,-129.0,116.0,0.0
13.0,-129.0,113.0,0.0
13.0,-133.0,114.0,0.0
15.0,-138.0,115.0,0.0
15.0,-147.0,120.0,0.0
16.0,-145.0,116.0,0.0
16.0,-145.0,114.0,0.0
15.0,-142.0,109.0,0.0
15.0,-137.0,103.0,0.0
18.0,-163.0,119.0,0.0
16.0,-148.0,105.0,0.0
17.0,-155.0,108.0,0.0
19.0,-172.0,117.0,0.0
19.0,-170.0,113.0,0.0
18.0,-163.0,105.0,0.0
19.0,-171.0,108.0,0.0
21.0,-187.0,115.0,0.0
22.0,-192.0,116.0,0.0
21.0,-182.0,108.0,0.0
23.0,-199.0,115.0,0.0
22.0,-193.0,108.0,0.0
23.0,-202.0,111.0,0.0
24.0,-202.0,108.0,0.0
24.0,-203.0,105.0,0.0
24.0,-200.0,101.0,0.0
24.0,-202.0,99.0,0.0
26.0,-213.0,102.0,0.0
24.0,-202.0,94.0,0.0
25.0,-207.0,94.0,0.0
26.0,-215.0,94.0,0.0
26.0,-213.0,91.0,0.0
26.0,-207.0,86.0,0.0
27.0,-217.0,88.0,0.0
28.0,-221.0,86.0,0.0
30.0,-237.0,89.0,0.0
32.0,-252.0,92.0,0.0
36.0,-273.0,96.0,0.0
35.0,-266.0,91.0,0.0
36.0,-273.0,90.0,0.0
36.0,-274.0,87.0,0.0
2693.0,15779.0,15559.0,0.0
2697.0,15787.0,15902.0,0.0
2726.0,15938.0,16398.0,0.0
2734.0,15964.0,16778.0,0.0
2734.0,15934.0,17108.0,0.0
2751.0,16009.0,17561.0,0.0
2767.0,16068.0,18008.0,0.0
2763.0,16008.0,18333.0,0.0
2784.0,16092.0,18831.0,0.0
2997.0,17276.0,20660.0,0.0
2969.0,17059.0,20850.0,0.0
2877.0,16478.0,20588.0,0.0
2976.0,16990.0,21700.0,0.0
2911.0,16553.0,21615.0,0.0
2781.0,15753.0,21035.0,0.0
2786.0,15712.0,21456.0,0.0
2764.0,15514.0,21669.0,0.0
2759.0,15409.0,22019.0,0.0
2763.0,15343.0,22433.0,0.0
3275.0,18087.0,27066.0,0.0
3219.0,17668.0,27063.0,0.0
2818.0,15370.0,24107.0,0.0
2799.0,15159.0,24348.0,0.0
2998.0,16121.0,26524.0,0.0
2811.0,14995.0,25282.0,0.0
3161.0,16727.0,28904.0,0.0
