//X,Y,Z,Classification
-7256,15495,23356,0.0
-7240,15072,23272,0.0
-7216,14641,23163,0.0
-9682,19140,31038,0.0
-7195,13855,23036,0.0
-7312,13710,23379,0.0
-10467,19101,33417,0.0
-10463,18576,33355,0.0
-10492,18117,33400,0.0
-10465,17567,33269,0.0
-10480,17096,33269,0.0
-10437,16537,33087,0.0
-10439,16056,33043,0.0
-10404,15527,32888,0.0
-9490,13733,29952,0.0
-9504,13328,29952,0.0
-9685,13155,30479,0.0
-9778,12854,30727,0.0
-9812,12474,30789,0.0
-10323,12682,32342,0.0
-10306,12223,32239,0.0
-10329,11818,32262,0.0
0,0,0,0.0
-10286,10917,32028,0.0
0,0,0,0.0
-10158,9959,31534,0.0
-10226,9615,31692,0.0
-10306,9281,31888,0.0
-10509,9052,32467,0.0
-10756,8844,33173,0.0
-11026,8640,33951,0.0
-9320,6946,28651,0.0
-9337,6602,28657,0.0
-9749,6526,29872,0.0
-9737,6152,29784,0.0
-9816,5836,29975,0.0
-9778,5452,29806,0.0
-9790,5098,29792,0.0
-9784,4738,29722,0.0
-9757,4370,29585,0.0
-9757,4018,29533,0.0
-8781,3302,26533,0.0
-8766,2984,26439,0.0
-8757,2670,26365,0.0
-8748,2359,26286,0.0
-8738,2049,26207,0.0
-8735,1744,26150,0.0
-8726,1439,26075,0.0
-8721,1137,26010,0.0
-8726,837,25973,0.0
-8715,537,25891,0.0
-8705,239,25810,0.0
-8694,-57,25727,0.0
-8685,-351,25649,0.0
-8689,-644,25607,0.0
-8681,-937,25532,0.0
-8675,-1227,25460,0.0
-8671,-1517,25397,0.0
-8660,-1804,25309,0.0
-8661,-2093,25257,0.0
-8655,-2379,25185,0.0
-8650,-2664,25117,0.0
-8645,-2949,25047,0.0
-8645,-3235,24991,0.0
-8645,-3520,24936,0.0
-8628,-3798,24831,0.0
-8774,-4150,25191,0.0
-9127,-4617,26145,2.0
-9166,-4938,26194,2.0
-9165,-5238,26129,2.0
-9151,-5529,26025,2.0
-9179,-5847,26040,2.0
-9202,-6164,26042,2.0
-9166,-6439,25875,2.0
-9136,-6717,25725,2.0
-9114,-6999,25597,2.0
-9153,-7329,25638,2.0
-9144,-7622,25547,2.0
-9083,-7870,25309,2.0
-9145,-8224,25410,2.0
-9111,-8493,25248,2.0
-9098,-8781,25142,2.0
-9129,-9112,25157,2.0
-9127,-9412,25079,2.0
-9105,-9691,24947,2.0
-9113,-10002,24896,2.0
-9092,-10281,24765,2.0
-9119,-10617,24767,2.0
-9085,-10880,24596,2.0
-9118,-11226,24610,2.0
-9132,-11550,24570,2.0
-9095,-11811,24393,2.0
-9147,-12189,24455,2.0
-9140,-12489,24355,2.0
-9144,-12806,24284,2.0
0,0,0,0.0
-9105,-13376,24015,2.0
-9111,-13700,23949,2.0
-9160,-14092,23993,2.0
-9217,-14499,24054,2.0
-9199,-14793,23918,2.0
-9209,-15134,23857,2.0
-9204,-15452,23753,2.0
-9146,-15680,23514,2.0
-9176,-16060,23499,2.0
-9090,-16237,23186,0.0
-9081,-16549,23069,0.0
-9669,-17975,24464,0.0
-8929,-16925,22494,0.0
-8753,-16916,21959,0.0
-8743,-17222,21839,0.0
-8752,-17566,21763,0.0
-8764,-17921,21693,0.0
-8777,-18283,21628,0.0
-8782,-18628,21538,0.0
-8785,-18974,21442,0.0
-8805,-19361,21387,0.0
-8819,-19739,21315,0.0
-8825,-20101,21220,0.0
-8835,-20479,21135,0.0
-8858,-20889,21078,0.0
-8861,-21256,20971,0.0
-8878,-21662,20896,0.0
-25,-65,62,0.0
-30,-78,72,0.0
-25,-66,60,0.0
-24,-65,58,0.0
-36,-96,83,0.0
-31,-85,72,0.0
-28,-78,65,0.0
-30,-86,70,0.0
-33,-97,77,0.0
-36,-107,83,0.0
-36,-108,81,0.0
-39,-116,85,0.0
-41,-126,91,0.0
-41,-126,89,0.0
-36,-114,78,0.0
-38,-122,81,0.0
-38,-122,80,0.0
-38,-129,82,0.0
-40,-137,84,0.0
-38,-132,80,0.0
-42,-146,85,0.0
-42,-149,86,0.0
-46,-167,93,0.0
-42,-151,82,0.0
-46,-170,90,0.0
-49,-184,96,0.0
-45,-172,87,0.0
-48,-188,92,0.0
-49,-192,91,0.0
-52,-205,96,0.0
-52,-212,95,0.0
-56,-231,101,0.0
-56,-234,99,0.0
-56,-241,99,0.0
-58,-254,101,0.0
-60,-264,102,0.0
-66,-297,111,0.0
-70,-315,114,0.0
-69,-320,111,0.0
-69,-325,110,0.0
-67,-319,105,0.0
-66,-325,102,0.0
-67,-328,99,0.0
-64,-325,94,0.0
-64,-330,92,0.0
-63,-332,88,0.0
-3292,16289,15116,0.0
-3366,16231,15388,0.0
-3438,16163,15655,0.0
-3518,16117,15948,0.0
-3594,16050,16226,0.0
-3672,15991,16517,0.0
-3751,15923,16805,0.0
-3811,15774,17011,0.0
-3897,15725,17329,0.0
-3922,15432,17380,0.0
-3936,15096,17376,0.0
-4144,15498,18234,0.0
-4253,15506,18649,0.0
-4346,15445,18990,0.0
-4437,15371,19323,0.0
-4506,15214,19558,0.0
-4596,15123,19884,0.0
-4510,14461,19450,0.0
-4660,14562,20039,0.0
-4683,14257,20075,0.0
-5021,14888,21456,0.0
-5129,14811,21850,0.0
-5237,14728,22247,0.0
-5347,14639,22648,0.0
-5461,14552,23064,0.0
-5577,14461,23487,0.0
-5695,14367,23919,0.0
-5811,14257,24336,0.0
-5928,14140,24757,0.0
-5931,13750,24702,0.0
-5915,13324,24570,0.0
-6333,13856,26239,0.0
-6472,13749,26745,0.0
-6608,13621,27233,0.0
-6749,13496,27747,0.0
-8030,15566,32922,0.0
-6998,13147,28624,0.0
-7406,13473,30213,0.0
-7501,13210,30528,0.0
-7676,13076,31161,0.0
-7759,12777,31423,0.0
-7994,12715,32295,0.0
-8040,12343,32404,0.0
0,0,0,0.0
-7971,11371,31973,0.0
-489,671,1958,0.0
-556,735,2225,0.0
-47,60,190,0.0
-7907,9620,31422,0.0
-7973,9292,31609,0.0
-8129,9063,32153,0.0
-8289,8828,32712,0.0
-8562,8693,33712,0.0
0,0,0,0.0
-7290,6691,28575,0.0
-7486,6511,29279,0.0
-7651,6288,29854,0.0
-7694,5960,29956,0.0
-7650,5567,29717,0.0
-7691,5239,29811,0.0
-7688,4882,29733,0.0
-7683,4526,29646,0.0
-7678,4175,29565,0.0
-6905,3442,26528,0.0
-6896,3129,26437,0.0
-6899,2823,26390,0.0
-6894,2516,26315,0.0
-6890,2211,26239,0.0
-6886,1909,26170,0.0
-6879,1608,26081,0.0
-6879,1310,26027,0.0
-6882,1014,25980,0.0
-6874,719,25896,0.0
-6869,426,25820,0.0
-6876,135,25789,0.0
-6868,-155,25698,0.0
-6868,-443,25643,0.0
-6864,-731,25570,0.0
-6859,-1017,25498,0.0
-6857,-1302,25434,0.0
-6856,-1586,25370,0.0
-6843,-1867,25269,0.0
-6846,-2150,25222,0.0
-6841,-2429,25148,0.0
-6833,-2708,25063,0.0
-6839,-2990,25028,0.0
-6834,-3268,24951,0.0
-6831,-3546,24884,0.0
-6814,-3815,24766,0.0
-6933,-4163,25140,0.0
-7264,-4659,26281,2.0
-7233,-4932,26106,2.0
-7246,-5237,26093,2.0
-7266,-5546,26103,2.0
0,0,0,0.0
-7226,-6104,25839,2.0
0,0,0,0.0
-7181,-6648,25554,2.0
-7183,-6943,25500,2.0
-7209,-7261,25527,2.0
-7229,-7578,25538,2.0
-7224,-7868,25457,2.0
-7243,-8185,25461,2.0
-7233,-8470,25360,2.0
-7217,-8749,25242,2.0
-7230,-9062,25221,2.0
-7236,-9369,25178,2.0
-7228,-9659,25089,2.0
-7282,-10034,25208,2.0
-7222,-10251,24935,2.0
-7201,-10524,24798,2.0
-7185,-10802,24675,2.0
-7180,-11098,24593,2.0
-7209,-11448,24624,2.0
-7206,-11750,24546,2.0
-563,-943,1915,0.0
-7241,-12427,24527,2.0
-7216,-12696,24374,2.0
-7233,-13040,24360,2.0
-7216,-13322,24231,2.0
-7228,-13663,24201,2.0
-7254,-14034,24218,2.0
-7220,-14287,24029,2.0
-7211,-14593,23927,2.0
-7216,-14927,23868,2.0
-7237,-15300,23865,2.0
-7324,-15818,24075,2.0
-7312,-16128,23957,2.0
-7265,-16364,23727,2.0
-7096,-16312,23095,0.0
-7086,-16624,22986,0.0
-7548,-18067,24402,0.0
-6948,-16965,22386,0.0
-6814,-16966,21875,0.0
-6807,-17284,21777,0.0
-6819,-17649,21735,0.0
-6819,-17991,21658,0.0
-6816,-18326,21566,0.0
-6823,-18692,21506,0.0
-6827,-19053,21434,0.0
-6828,-19412,21353,0.0
-6830,-19777,21274,0.0
-6827,-20132,21179,0.0
-19,-59,61,0.0
-18,-58,59,0.0
-23,-72,71,0.0
-26,-86,84,0.0
-30,-97,91,0.0
-25,-86,80,0.0
-28,-96,87,0.0
-29,-102,89,0.0
-28,-100,87,0.0
-25,-91,76,0.0
-30,-109,89,0.0
-30,-110,89,0.0
-29,-110,87,0.0
-29,-113,86,0.0
-32,-124,94,0.0
-32,-128,94,0.0
-30,-123,88,0.0
-28,-117,81,0.0
-28,-118,81,0.0
-30,-129,86,0.0
-32,-140,92,0.0
-31,-138,88,0.0
-33,-148,93,0.0
-33,-151,92,0.0
-33,-155,92,0.0
-32,-154,89,0.0
-33,-162,91,0.0
-36,-174,96,0.0
-36,-180,96,0.0
-36,-181,94,0.0
-37,-192,97,0.0
-37,-196,96,0.0
-33,-178,85,0.0
-38,-210,98,0.0
-38,-213,96,0.0
-38,-218,96,0.0
-40,-231,99,0.0
-41,-238,99,0.0
-41,-244,98,0.0
-41,-250,98,0.0
-46,-287,107,0.0
-50,-318,116,0.0
-49,-317,112,0.0
-48,-320,109,0.0
-47,-314,104,0.0
-46,-318,101,0.0
-46,-320,98,0.0
-45,-326,96,0.0
-45,-328,92,0.0
-2474,16032,15102,0.0
0,0,0,0.0
0,0,0,0.0
-3016,17922,17999,0.0
-3083,17799,18262,0.0
-3041,17065,17889,0.0
-3237,17656,18912,0.0
-3276,17376,19017,0.0
-3277,16896,18896,0.0
-3327,16677,19059,0.0
-3404,16596,19384,0.0
-3187,15112,18041,0.0
-3198,14748,17999,0.0
-3427,15370,19176,0.0
-3499,15268,19476,0.0
-3612,15329,19996,0.0
-3634,14999,20011,0.0
-3746,15038,20523,0.0
-3768,14708,20537,0.0
-3812,14466,20670,0.0
-3836,14156,20702,0.0
-4107,14734,22058,0.0
-4208,14678,22500,0.0
-4303,14585,22900,0.0
-4396,14478,23289,0.0
-4500,14400,23737,0.0
-4599,14294,24154,0.0
-4704,14197,24599,0.0
-4804,14078,25022,0.0
-4905,13951,25444,0.0
-4877,13457,25193,0.0
-4975,13314,25598,0.0
-5019,13026,25730,0.0
-5393,13563,27536,0.0
-5518,13445,28072,0.0
-5617,13253,28470,0.0
-5747,13126,29026,0.0
-5828,12876,29330,0.0
-5975,12762,29963,0.0
-6315,13032,31558,0.0
-6406,12765,31903,0.0
-6493,12485,32231,0.0
-6524,12095,32277,0.0
0,0,0,0.0
0,0,0,0.0
-6521,10779,31952,0.0
-6526,10361,31871,0.0
0,0,0,0.0
-6494,9481,31522,0.0
-6567,9175,31775,0.0
-6657,8890,32118,0.0
-6900,8792,33193,0.0
-7093,8610,34023,0.0
-5982,6903,28611,0.0
-6069,6644,28940,0.0
-6304,6532,29978,0.0
-6333,6196,30029,0.0
-6329,5828,29927,0.0
-6306,5449,29737,0.0
-6333,5116,29785,0.0
-6321,4754,29648,0.0
-6320,4403,29562,0.0
-6320,4057,29482,0.0
-6000,3525,27916,0.0
-6194,3305,28745,0.0
-6308,3028,29195,0.0
-6311,2694,29136,0.0
-6307,2360,29047,0.0
-6292,2025,28901,0.0
-6123,1651,28056,0.0
-6086,1326,27816,0.0
-6277,1045,28619,0.0
-6179,712,28103,0.0
-6198,398,28121,0.0
-6280,86,28426,0.0
-5924,-217,26747,0.0
-5934,-516,26727,0.0
-5936,-813,26674,0.0
-5932,-1107,26590,0.0
-6188,-1462,27669,0.0
-6139,-1754,27388,0.0
-6222,-2084,27690,0.0
-6197,-2381,27514,0.0
-6199,-2685,27458,0.0
-6025,-2904,26629,0.0
-6217,-3301,27411,0.0
-6179,-3582,27185,0.0
-6092,-3828,26738,0.0
-6139,-4156,26880,0.0
-6085,-4414,26584,0.0
-6191,-4791,26982,0.0
-6201,-5100,26966,0.0
-6202,-5402,26910,0.0
-6204,-5704,26857,0.0
-6198,-5999,26769,0.0
-6201,-6303,26717,0.0
-6197,-6600,26645,0.0
-6142,-6838,26341,0.0
-6180,-7184,26451,0.0
-6185,-7489,26407,0.0
-6150,-7747,26196,0.0
-6182,-8091,26274,0.0
-6175,-8385,26186,0.0
-6161,-8668,26065,0.0
-6108,-8896,25784,0.0
-6149,-9262,25899,0.0
-6101,-9491,25637,0.0
-6174,-9912,25882,0.0
-6081,-10066,25430,0.0
-6167,-10518,25729,0.0
-6070,-10660,25268,0.0
-6148,-11110,25533,0.0
-6035,-11214,25005,0.0
-6171,-11782,25506,0.0
-6180,-12117,25483,0.0
-6181,-12442,25431,0.0
-6178,-12757,25356,0.0
-6175,-13075,25282,0.0
-6178,-13406,25230,0.0
-6169,-13716,25133,0.0
-6145,-13994,24975,0.0
-6164,-14370,24991,0.0
-6127,-14618,24779,0.0
-6170,-15060,24893,0.0
-6160,-15376,24790,0.0
-5890,-15031,23642,0.0
-6066,-15821,24284,0.0
-6165,-16432,24620,0.0
-6056,-16491,24124,0.0
-6175,-17171,24531,0.0
-6172,-17525,24455,0.0
-6124,-17752,24199,0.0
-6155,-18212,24258,0.0
-6178,-18654,24281,0.0
-6180,-19038,24219,0.0
-6180,-19422,24154,0.0
-6179,-19807,24082,0.0
-6178,-20194,24005,0.0
-6179,-20600,23945,0.0
-6176,-20988,23858,0.0
-6180,-21413,23805,0.0
-6168,-21786,23688,0.0
-6122,-22042,23442,0.0
-18,-64,66,0.0
-19,-68,69,0.0
-21,-81,80,0.0
-22,-84,82,0.0
-25,-97,93,0.0
-26,-103,96,0.0
-27,-113,103,0.0
-27,-109,98,0.0
-23,-95,83,0.0
-26,-115,98,0.0
-26,-116,97,0.0
-26,-116,94,0.0
-25,-113,91,0.0
-26,-119,93,0.0
-25,-118,89,0.0
-26,-129,96,0.0
-29,-144,104,0.0
-25,-126,90,0.0
-27,-142,98,0.0
-27,-144,97,0.0
-27,-143,94,0.0
-25,-136,88,0.0
-27,-151,96,0.0
-26,-146,90,0.0
-29,-167,100,0.0
-29,-168,98,0.0
-26,-159,91,0.0
-31,-193,107,0.0
-30,-184,99,0.0
-28,-175,93,0.0
-31,-204,106,0.0
-30,-192,96,0.0
-31,-212,103,0.0
-31,-212,101,0.0
-33,-233,107,0.0
-31,-223,100,0.0
-32,-236,103,0.0
-32,-240,101,0.0
-33,-250,103,0.0
-31,-241,96,0.0
-32,-262,101,0.0
-38,-311,116,0.0
-38,-322,117,0.0
-38,-327,114,0.0
-36,-323,109,0.0
-35,-325,106,0.0
-36,-327,102,0.0
-35,-333,101,0.0
-34,-328,95,0.0
-1834,15547,14789,0.0
-1868,15309,14876,0.0
-4151,32906,32665,0.0
0,0,0,0.0
-2399,17813,18454,0.0
-2470,17759,18798,0.0
-2526,17586,19019,0.0
-2543,17156,18957,0.0
-2553,16688,18844,0.0
-2566,16256,18758,0.0
-2396,14722,17362,0.0
-2589,15418,18585,0.0
-2601,15030,18520,0.0
-2604,14587,18375,0.0
-3054,16597,21377,0.0
-3106,16379,21572,0.0
-3113,15927,21454,0.0
-3125,15518,21383,0.0
-2937,14146,19943,0.0
-2985,13954,20131,0.0
-3060,13874,20486,0.0
-3171,13949,21085,0.0
-3219,13740,21268,0.0
-4721,19547,30990,0.0
-4737,19021,30896,0.0
-4762,18547,30873,0.0
-5220,19715,33642,0.0
-4344,15904,27828,0.0
-4383,15555,27921,0.0
-4401,15136,27881,0.0
-4408,14686,27769,0.0
-4420,14262,27697,0.0
-4247,13268,26473,0.0
-4270,12912,26480,0.0
-4573,13376,28212,0.0
-4681,13241,28737,0.0
-4877,13335,29796,0.0
-4966,13120,30197,0.0
-5097,13003,30850,0.0
-5211,12829,31396,0.0
-5310,12610,31853,0.0
-5394,12344,32211,0.0
0,0,0,0.0
-5413,11480,32046,0.0
0,0,0,0.0
0,0,0,0.0
-5441,10228,31822,0.0
-5399,9728,31451,0.0
-5429,9365,31503,0.0
-5512,9091,31859,0.0
-5673,8934,32672,0.0
-5820,8738,33398,0.0
-5971,8530,34135,0.0
-5018,6808,28581,0.0
-5142,6613,29188,0.0
-5281,6423,29874,0.0
-5317,6100,29979,0.0
-5325,5744,29921,0.0
-5303,5362,29695,0.0
-5332,5034,29760,0.0
-5323,4675,29616,0.0
-5319,4323,29502,0.0
-5325,3983,29444,0.0
-5332,3645,29389,0.0
-5330,3304,29286,0.0
-5325,2964,29168,0.0
-5331,2633,29119,0.0
-5328,2301,29021,0.0
-5331,1973,28951,0.0
-5320,1643,28807,0.0
-5145,1276,27783,0.0
-5238,983,28205,0.0
-5184,661,27837,0.0
-5219,354,27948,0.0
-5289,45,28245,0.0
-5278,-266,28115,0.0
-5294,-578,28125,0.0
-5293,-887,28043,0.0
-5283,-1193,27925,0.0
-5287,-1502,27870,0.0
-5261,-1799,27666,0.0
-5282,-2110,27706,0.0
-5182,-2368,27116,0.0
-5183,-2665,27057,0.0
-5189,-2965,27023,0.0
-5260,-3305,27320,0.0
-5280,-3619,27365,0.0
-5271,-3913,27255,0.0
-5247,-4193,27064,0.0
-5168,-4423,26597,0.0
-5160,-4709,26491,0.0
-5163,-5005,26450,0.0
-5157,-5290,26355,0.0
-5185,-5614,26442,0.0
-5176,-5898,26338,0.0
-5199,-6221,26398,0.0
-5242,-6570,26555,0.0
-5235,-6858,26464,0.0
-5233,-7154,26396,0.0
-5217,-7430,26255,0.0
-5230,-7751,26270,0.0
-5229,-8050,26208,0.0
-5230,-8353,26160,0.0
-5218,-8635,26042,0.0
-5219,-8942,25996,0.0
-5230,-9264,25993,0.0
-5235,-9579,25964,0.0
-5234,-9887,25907,0.0
-5223,-10175,25800,0.0
-5227,-10494,25768,0.0
-5223,-10799,25698,0.0
-5223,-11112,25644,0.0
-5218,-11417,25569,0.0
-5218,-11735,25516,0.0
-5220,-12060,25477,0.0
-5169,-12264,25182,0.0
-5188,-12630,25222,0.0
-5190,-12962,25184,0.0
-5202,-13321,25193,0.0
-5183,-13601,25048,0.0
-5166,-13890,24918,0.0
-5192,-14298,24996,0.0
-5200,-14659,24984,0.0
-5202,-15014,24951,0.0
-5195,-15340,24868,0.0
-5070,-15314,24222,0.0
-5068,-15656,24169,0.0
-5180,-16357,24650,0.0
-5172,-16696,24570,0.0
-5177,-17078,24543,0.0
-5173,-17434,24476,0.0
-5163,-17779,24386,0.0
-5167,-18171,24355,0.0
-5166,-18553,24303,0.0
-5162,-18933,24242,0.0
-5153,-19294,24152,0.0
-5154,-19695,24105,0.0
-5147,-20076,24026,0.0
-5139,-20456,23942,0.0
-5136,-20864,23882,0.0
-5129,-21265,23808,0.0
-5123,-21669,23729,0.0
-15,-63,68,0.0
-15,-68,72,0.0
-12,-54,55,0.0
-11,-48,49,0.0
-15,-72,71,0.0
-16,-75,72,0.0
-15,-68,64,0.0
-16,-80,74,0.0
-20,-98,88,0.0
-17,-86,75,0.0
-20,-102,87,0.0
-18,-95,80,0.0
-22,-118,97,0.0
-19,-109,88,0.0
-20,-115,91,0.0
-20,-117,90,0.0
-21,-129,97,0.0
-24,-141,103,0.0
-23,-142,102,0.0
-21,-136,95,0.0
-20,-129,88,0.0
-20,-132,88,0.0
-22,-146,96,0.0
-22,-152,97,0.0
-24,-168,105,0.0
-23,-164,100,0.0
-21,-160,95,0.0
-21,-156,90,0.0
-24,-178,100,0.0
-22,-173,94,0.0
-22,-175,94,0.0
-23,-182,95,0.0
-24,-201,102,0.0
-22,-191,94,0.0
-23,-203,97,0.0
-24,-218,103,0.0
-23,-210,95,0.0
-23,-222,98,0.0
-24,-238,102,0.0
-23,-229,95,0.0
-23,-238,96,0.0
-23,-248,97,0.0
-27,-291,110,0.0
-28,-314,115,0.0
-28,-320,113,0.0
-26,-317,108,0.0
-26,-321,106,0.0
-25,-321,103,0.0
-25,-326,100,0.0
-25,-332,98,0.0
-1427,15249,14591,0.0
-1471,15125,14785,0.0
-1507,14914,14892,0.0
-1851,17647,18000,0.0
-1904,17498,18235,0.0
-1875,16620,17694,0.0
-1906,16301,17731,0.0
-1915,15804,17566,0.0
-1930,15386,17475,0.0
-1936,14913,17308,0.0
-2108,15689,18609,0.0
-2130,15322,18576,0.0
-2147,14940,18515,0.0
-2163,14562,18448,0.0
-2197,14314,18542,0.0
-3742,23585,31244,0.0
-2437,14867,20142,0.0
-2592,15305,21211,0.0
-2629,15029,21311,0.0
-2648,14655,21266,0.0
-2653,14220,21119,0.0
-2683,13923,21170,0.0
-3834,19269,30000,0.0
-3964,19288,30758,0.0
-4016,18925,30921,0.0
-4060,18520,31009,0.0
-4439,19605,33653,0.0
-3583,15315,26959,0.0
-3643,15072,27216,0.0
-3761,15056,27898,0.0
-3763,14573,27721,0.0
0,0,0,0.0
-3777,13675,27451,0.0
-3727,13046,26919,0.0
-3769,12749,27055,0.0
-3821,12482,27256,0.0
-3844,12125,27259,0.0
-3839,11685,27066,0.0
-3843,11284,26942,0.0
-4500,12740,31374,0.0
-4591,12523,31836,0.0
-4672,12266,32215,0.0
-4697,11867,32225,0.0
-4688,11386,31995,0.0
-4705,10977,31950,0.0
-4737,10606,32010,0.0
-4729,10155,31810,0.0
-4690,9645,31399,0.0
-4735,9313,31550,0.0
-4775,8972,31669,0.0
-4962,8895,32763,0.0
-5100,8708,33529,0.0
-5236,8502,34284,0.0
-4382,6753,28570,0.0
-4495,6560,29182,0.0
-4607,6353,29788,0.0
-4655,6050,29982,0.0
-4661,5692,29903,0.0
-4605,5267,29431,0.0
-4661,4975,29678,0.0
-4668,4630,29611,0.0
-4668,4280,29505,0.0
-4677,3944,29461,0.0
-4674,3599,29333,0.0
-4679,3263,29267,0.0
-4681,2927,29177,0.0
-4682,2596,29090,0.0
-4683,2266,29000,0.0
-4682,1938,28904,0.0
-4679,1611,28788,0.0
-4532,1249,27805,0.0
-4594,951,28095,0.0
-4567,635,27845,0.0
-4593,329,27920,0.0
-4683,21,28389,0.0
-4689,-290,28342,0.0
-4681,-601,28215,0.0
-4688,-911,28174,0.0
-4684,-1219,28080,0.0
-4686,-1526,28010,0.0
-4682,-1829,27909,0.0
-4681,-2134,27835,0.0
-4682,-2437,27767,0.0
-4676,-2737,27662,0.0
-4679,-3040,27611,0.0
-4678,-3341,27540,0.0
-4677,-3640,27466,0.0
-4673,-3937,27374,0.0
-4648,-4212,27163,0.0
-4657,-4519,27152,0.0
-4658,-4818,27095,0.0
-4653,-5111,27004,0.0
-4650,-5405,26927,0.0
-4647,-5700,26855,0.0
-4636,-5983,26734,0.0
-4635,-6279,26668,0.0
-4646,-6593,26673,0.0
-4644,-6889,26609,0.0
-4637,-7177,26510,0.0
-4631,-7468,26428,0.0
-4633,-7771,26382,0.0
-4632,-8072,26325,0.0
-4631,-8372,26264,0.0
-4625,-8665,26180,0.0
-4619,-8959,26100,0.0
-4618,-9265,26047,0.0
-4615,-9566,25982,0.0
-4614,-9873,25930,0.0
-4574,-10096,25660,0.0
-4590,-10443,25706,0.0
-4571,-10712,25556,0.0
-4579,-11045,25553,0.0
-4586,-11377,25547,0.0
-4592,-11713,25537,0.0
-4589,-12029,25481,0.0
-4586,-12344,25418,0.0
-4568,-12622,25278,0.0
-4571,-12960,25255,0.0
-4566,-13279,25190,0.0
-4560,-13596,25116,0.0
-4556,-13927,25065,0.0
-4528,-14180,24869,0.0
-4560,-14628,25012,0.0
-4552,-14950,24929,0.0
-4548,-15291,24873,0.0
-4545,-15638,24821,0.0
-4540,-15982,24760,0.0
-4537,-16337,24708,0.0
-4530,-16683,24637,0.0
-4520,-17021,24551,0.0
-4515,-17385,24498,0.0
-4509,-17747,24435,0.0
-4503,-18112,24370,0.0
-4495,-18475,24295,0.0
-4489,-18853,24237,0.0
-4482,-19232,24171,0.0
-4478,-19631,24124,0.0
-4464,-19988,24021,0.0
-4455,-20376,23948,0.0
-4450,-20785,23893,0.0
-4443,-21194,23830,0.0
-4428,-21575,23729,0.0
-4422,-21996,23666,0.0
-10,-52,55,0.0
-10,-53,55,0.0
-13,-66,66,0.0
-16,-85,83,0.0
-14,-76,72,0.0
-15,-79,75,0.0
-16,-88,81,0.0
-16,-95,86,0.0
-15,-90,79,0.0
-18,-105,90,0.0
-15,-94,79,0.0
-17,-106,88,0.0
-18,-118,95,0.0
-16,-110,87,0.0
-18,-124,96,0.0
-17,-120,91,0.0
-18,-127,94,0.0
-17,-128,93,0.0
-18,-133,94,0.0
-19,-144,99,0.0
-16,-131,88,0.0
-16,-133,88,0.0
-16,-135,86,0.0
-18,-154,96,0.0
-18,-155,95,0.0
-18,-159,95,0.0
-18,-169,98,0.0
-19,-173,98,0.0
-17,-170,93,0.0
-19,-187,100,0.0
-18,-185,97,0.0
-19,-196,100,0.0
-19,-200,99,0.0
-18,-203,98,0.0
-19,-211,99,0.0
-19,-214,99,0.0
-19,-221,98,0.0
-20,-235,102,0.0
-18,-227,95,0.0
-18,-237,96,0.0
-18,-248,98,0.0
-19,-257,98,0.0
-22,-313,115,0.0
-21,-316,113,0.0
-21,-329,115,0.0
-20,-324,108,0.0
-20,-327,106,0.0
-20,-332,103,0.0
-18,-329,99,0.0
-2330,33778,32494,0.0
-1077,14890,14631,0.0
-1115,14726,14782,0.0
-2544,32130,32948,0.0
-2581,31190,32674,0.0
0,0,0,0.0
-2630,29206,31938,0.0
-2681,28579,31931,0.0
-2768,28329,32343,0.0
-2767,27218,31756,0.0
-2750,26025,31031,0.0
-1731,15760,19207,0.0
-1726,15134,18854,0.0
-1769,14931,19016,0.0
-1908,15529,20223,0.0
-2953,23164,30848,0.0
-1959,14819,20183,0.0
-2093,15278,21286,0.0
-2120,14932,21284,0.0
-2150,14611,21313,0.0
0,0,0,0.0
-3132,19847,30336,0.0
-3147,19259,30144,0.0
-3239,19141,30687,0.0
-3294,18805,30889,0.0
-3622,19970,33618,0.0
-3653,19451,33568,0.0
-2923,15032,26603,0.0
-3041,15105,27423,0.0
-3132,15021,27986,0.0
-3130,14491,27716,0.0
-3141,14040,27581,0.0
-3164,13647,27547,0.0
-3207,13349,27698,0.0
-3206,12872,27469,0.0
-3208,12421,27277,0.0
-3138,11715,26489,0.0
-3195,11491,26766,0.0
-3261,11298,27130,0.0
-3800,12671,31387,0.0
-3931,12614,32255,0.0
-3943,12162,32131,0.0
-3976,11789,32203,0.0
-3982,11334,32041,0.0
-3997,10915,31966,0.0
-4008,10491,31856,0.0
-4000,10027,31608,0.0
-3995,9581,31390,0.0
-4042,9264,31584,0.0
-4108,8986,31926,0.0
-4249,8858,32846,0.0
-4379,8684,33667,0.0
-4493,8465,34368,0.0
-3748,6696,28532,0.0
-3849,6507,29156,0.0
-3886,6201,29294,0.0
-3949,5933,29627,0.0
-3997,5638,29853,0.0
-3987,5263,29642,0.0
-4008,4933,29673,0.0
-4018,4590,29611,0.0
-4023,4245,29525,0.0
-4023,3898,29400,0.0
-4029,3562,29333,0.0
-4032,3225,29238,0.0
-4039,2894,29175,0.0
-4042,2563,29080,0.0
-4043,2234,28985,0.0
-4048,1910,28917,0.0
-4047,1584,28802,0.0
-3923,1224,27821,0.0
-3958,922,27983,0.0
-3943,611,27775,0.0
-3973,306,27894,0.0
-4060,0,28415,0.0
-4061,-311,28328,0.0
-4063,-621,28263,0.0
-4061,-928,28158,0.0
-4060,-1235,28078,0.0
-4061,-1540,27996,0.0
-4065,-1846,27945,0.0
-4059,-2146,27830,0.0
-4059,-2448,27748,0.0
-4061,-2749,27685,0.0
-4060,-3050,27613,0.0
-4061,-3350,27547,0.0
-4059,-3647,27466,0.0
-4056,-3942,27376,0.0
-4049,-4233,27266,0.0
-4032,-4511,27084,0.0
-4028,-4801,26992,0.0
-4029,-5098,26938,0.0
-4024,-5387,26846,0.0
-4028,-5688,26813,0.0
-4028,-5987,26762,0.0
-4032,-6290,26733,0.0
-4032,-6588,26680,0.0
-4027,-6877,26591,0.0
-4025,-7173,26531,0.0
-4018,-7460,26433,0.0
-4019,-7763,26392,0.0
-4015,-8057,26317,0.0
-4015,-8359,26269,0.0
-4005,-8646,26167,0.0
-4006,-8950,26123,0.0
-4001,-9247,26050,0.0
-3997,-9548,25986,0.0
-3993,-9847,25918,0.0
-3982,-10133,25812,0.0
-3958,-10383,25616,0.0
-3976,-10745,25694,0.0
-3974,-11060,25651,0.0
-3970,-11370,25593,0.0
-3962,-11668,25504,0.0
-3961,-11991,25467,0.0
-3957,-12310,25416,0.0
-3952,-12625,25353,0.0
-3950,-12954,25313,0.0
-3940,-13258,25221,0.0
-3933,-13577,25152,0.0
-3931,-13917,25119,0.0
-3923,-14237,25045,0.0
-3922,-14586,25016,0.0
-3911,-14904,24929,0.0
-3906,-15243,24872,0.0
-3898,-15581,24808,0.0
-3893,-15930,24759,0.0
-3886,-16278,24700,0.0
-3877,-16621,24629,0.0
-3869,-16976,24570,0.0
-3859,-17322,24493,0.0
-3852,-17692,24445,0.0
-3843,-18052,24374,0.0
-3835,-18425,24318,0.0
-3825,-18796,24253,0.0
-3813,-19161,24172,0.0
-3806,-19557,24125,0.0
-3792,-19925,24037,0.0
-3780,-20315,23969,0.0
-3770,-20709,23898,0.0
-3757,-21100,23819,0.0
-3746,-21513,23758,0.0
-3733,-21924,23686,0.0
-11,-64,68,0.0
-12,-76,79,0.0
-11,-65,66,0.0
-12,-79,78,0.0
-11,-73,71,0.0
-12,-82,77,0.0
-14,-98,91,0.0
-14,-97,88,0.0
-14,-95,84,0.0
-12,-89,78,0.0
-13,-100,85,0.0
-15,-114,95,0.0
-13,-110,89,0.0
-16,-132,105,0.0
-17,-135,105,0.0
-14,-123,94,0.0
-14,-126,93,0.0
-15,-135,99,0.0
-18,-161,114,0.0
-18,-168,116,0.0
-18,-173,117,0.0
-18,-179,118,0.0
-18,-184,118,0.0
-18,-181,114,0.0
-17,-178,110,0.0
-17,-190,114,0.0
-18,-195,114,0.0
-16,-184,104,0.0
-16,-190,105,0.0
-14,-176,96,0.0
-15,-196,103,0.0
-14,-190,98,0.0
-14,-193,97,0.0
-14,-210,102,0.0
-16,-234,111,0.0
-15,-220,101,0.0
-15,-240,108,0.0
-14,-230,100,0.0
-13,-231,98,0.0
-13,-232,95,0.0
-14,-256,102,0.0
-13,-258,100,0.0
-15,-309,116,0.0
-16,-328,118,0.0
-15,-324,113,0.0
-14,-330,111,0.0
-14,-332,108,0.0
-13,-336,105,0.0
-13,-340,103,0.0
-120,17297,16824,0.0
-160,17107,16994,0.0
-184,15610,15842,0.0
-201,14028,14544,0.0
-234,13831,14649,0.0
-300,15420,16685,0.0
-340,15349,16969,0.0
-380,15282,17262,0.0
-416,15072,17396,0.0
-825,27121,31989,0.0
-858,25763,31055,0.0
-916,25267,31131,0.0
-965,24599,30983,0.0
-1013,23957,30847,0.0
-1075,23688,31188,0.0
-736,15151,20399,0.0
-770,14828,20419,0.0
-814,14727,20746,0.0
-863,14702,21189,0.0
-900,14461,21329,0.0
-1313,19939,30100,0.0
-1377,19784,30578,0.0
-1434,19521,30897,0.0
-1474,19042,30872,0.0
-1513,18570,30846,0.0
-1689,19706,33547,0.0
-1728,19193,33498,0.0
-1409,14901,26671,0.0
-1469,14808,27191,0.0
-1529,14706,27713,0.0
-1556,14281,27630,0.0
-1583,13860,27543,0.0
-1611,13470,27506,0.0
-1644,13138,27580,0.0
-1685,12863,27774,0.0
-1685,12288,27305,0.0
-1698,11833,27076,0.0
-1728,11504,27121,0.0
-1978,12590,30600,0.0
-2056,12500,31345,0.0
-2121,12311,31871,0.0
-2167,12016,32143,0.0
-2193,11601,32090,0.0
-2213,11170,31981,0.0
-2232,10746,31876,0.0
-2252,10332,31786,0.0
-2276,9941,31753,0.0
-2281,9478,31467,0.0
-2316,9149,31621,0.0
-2393,8975,32331,0.0
-2467,8777,33008,0.0
-2558,8618,33889,0.0
-2171,6917,28496,0.0
-2197,6610,28585,0.0
-2266,6421,29215,0.0
-2334,6219,29840,0.0
-2358,5893,29903,0.0
-2371,5541,29825,0.0
-2374,5171,29626,0.0
-2394,4845,29661,0.0
-2404,4500,29569,0.0
-2413,4157,29472,0.0
-2419,3813,29341,0.0
-2431,3483,29292,0.0
-2442,3153,29232,0.0
-2449,2822,29134,0.0
-2457,2495,29055,0.0
-2461,2168,28944,0.0
-2472,1849,28906,0.0
-2438,1503,28355,0.0
-2410,1173,27882,0.0
-2425,870,27908,0.0
-2422,562,27732,0.0
-2449,261,27920,0.0
-2502,-43,28382,0.0
-2506,-352,28298,0.0
-2509,-658,28219,0.0
-2513,-964,28141,0.0
-2515,-1267,28052,0.0
-2519,-1571,27988,0.0
-2521,-1871,27913,0.0
-2524,-2171,27835,0.0
-2527,-2472,27768,0.0
-2522,-2764,27631,0.0
-2526,-3063,27584,0.0
-2524,-3357,27488,0.0
-2525,-3652,27421,0.0
-2525,-3946,27340,0.0
-2525,-4240,27268,0.0
-2524,-4532,27193,0.0
-2524,-4825,27119,0.0
-2523,-5119,27051,0.0
-2516,-5397,26916,0.0
-2516,-5693,26869,0.0
-2513,-5983,26790,0.0
-2511,-6275,26721,0.0
-2509,-6566,26653,0.0
-2501,-6844,26533,0.0
-2499,-7139,26477,0.0
-2496,-7428,26404,0.0
-2492,-7721,26336,0.0
-2488,-8013,26267,0.0
-2484,-8307,26204,0.0
-2476,-8591,26109,0.0
-2467,-8868,25991,0.0
-2468,-9184,25985,0.0
-2465,-9490,25948,0.0
-2455,-9773,25843,0.0
-2452,-10083,25809,0.0
-2444,-10374,25724,0.0
-2441,-10689,25692,0.0
-2432,-10984,25612,0.0
-2392,-11136,25204,0.0
-2374,-11391,25040,0.0
-2410,-11908,25438,0.0
-2402,-12213,25365,0.0
-2396,-12540,25335,0.0
-2389,-12860,25284,0.0
-2380,-13184,25237,0.0
-2368,-13487,25147,0.0
-2359,-13815,25098,0.0
-2295,-13814,24461,0.0
-2286,-14135,24406,0.0
-2324,-14772,24877,0.0
-2319,-15144,24882,0.0
-2307,-15481,24824,0.0
-2293,-15800,24732,0.0
-2279,-16139,24667,0.0
-2269,-16502,24633,0.0
-2256,-16858,24581,0.0
-2241,-17208,24516,0.0
-2225,-17546,24428,0.0
-2210,-17915,24378,0.0
-2195,-18280,24317,0.0
-2176,-18622,24218,0.0
-2161,-19005,24169,0.0
-2144,-19389,24112,0.0
-2126,-19760,24035,0.0
-2106,-20130,23951,0.0
-2087,-20523,23886,0.0
-2067,-20915,23815,0.0
-2048,-21322,23753,0.0
-2027,-21734,23689,0.0
-2005,-22136,23607,0.0
-6,-67,70,0.0
-6,-74,77,0.0
-6,-70,69,0.0
-6,-80,77,0.0
-6,-81,77,0.0
-6,-84,78,0.0
-6,-88,81,0.0
-7,-97,87,0.0
-7,-110,96,0.0
-7,-95,82,0.0
-7,-114,96,0.0
-7,-114,93,0.0
-8,-126,100,0.0
-7,-127,99,0.0
-7,-129,99,0.0
-7,-129,97,0.0
-6,-123,91,0.0
-6,-128,91,0.0
-6,-142,100,0.0
-6,-140,96,0.0
-5,-137,92,0.0
-5,-146,96,0.0
-5,-149,95,0.0
-5,-150,93,0.0
-5,-163,99,0.0
-6,-169,100,0.0
-5,-180,104,0.0
-6,-192,108,0.0
-4,-179,97,0.0
-4,-197,106,0.0
-4,-197,102,0.0
-4,-199,101,0.0
-4,-200,99,0.0
-3,-216,104,0.0
-3,-212,99,0.0
-3,-226,103,0.0
-2,-236,105,0.0
-2,-236,102,0.0
-1,-233,97,0.0
-1,-236,96,0.0
-1,-235,92,0.0
0,-264,100,0.0
0,-305,111,0.0
0,-321,114,0.0
1,-314,108,0.0
1,-319,105,0.0
1,-322,103,0.0
3,-327,100,0.0
420,13690,13382,0.0
426,14835,14814,0.0
379,14114,14396,0.0
338,13585,14154,0.0
309,13496,14366,0.0
283,13490,14670,0.0
254,13388,14874,0.0
258,15268,17332,0.0
223,15066,17476,0.0
219,17243,20441,0.0
179,17025,20626,0.0
140,16787,20787,0.0
113,18458,23366,0.0
63,16274,21061,0.0
25,16043,21229,0.0
-11,14697,19889,0.0
-47,14615,20227,0.0
-85,15222,21552,0.0
-118,14443,20923,0.0
-155,14432,21395,0.0
-265,19858,30134,0.0
-315,19597,30445,0.0
-362,19235,30603,0.0
-410,18925,30842,0.0
-453,18437,30784,0.0
-541,19620,33577,0.0
-585,19077,33470,0.0
-495,14633,26328,0.0
-528,14240,26289,0.0
-568,14026,26574,0.0
-607,13792,26827,0.0
-652,13698,27367,0.0
-687,13390,27490,0.0
-694,12578,26550,0.0
-738,12451,27034,0.0
-775,12211,27286,0.0
-800,11810,27174,0.0
-826,11419,27072,0.0
-982,12742,31147,0.0
-1025,12475,31460,0.0
-1078,12341,32137,0.0
-1110,11955,32167,0.0
-1134,11493,31980,0.0
-1159,11070,31883,0.0
-1187,10679,31870,0.0
-1213,10279,31814,0.0
-1224,9769,31398,0.0
-1250,9397,31399,0.0
-1288,9117,31708,0.0
-1341,8933,32388,0.0
-1400,8767,33186,0.0
-1459,8577,33953,0.0
-1245,6874,28511,0.0
-1271,6574,28627,0.0
-1350,6534,29938,0.0
-1370,6191,29920,0.0
-1389,5849,29904,0.0
-1403,5493,29795,0.0
-1413,5124,29592,0.0
-1431,4797,29610,0.0
-1445,4457,29538,0.0
-1457,4116,29445,0.0
-1470,3780,29355,0.0
-1481,3445,29255,0.0
-1493,3117,29201,0.0
-1504,2788,29111,0.0
-1509,2454,28932,0.0
-1472,2067,27971,0.0
-1472,1745,27712,0.0
-1483,1443,27688,0.0
-1492,1139,27623,0.0
-1498,836,27546,0.0
-1508,536,27521,0.0
-1514,236,27413,0.0
-1523,-60,27407,0.0
-1550,-362,27709,0.0
-1576,-670,27993,0.0
-1594,-980,28142,0.0
-1597,-1282,28048,0.0
-1600,-1581,27959,0.0
-1604,-1882,27884,0.0
-1608,-2181,27816,0.0
-1609,-2477,27719,0.0
-1612,-2772,27634,0.0
-1613,-3066,27552,0.0
-1615,-3362,27486,0.0
-1616,-3656,27416,0.0
-1617,-3950,27347,0.0
-1618,-4241,27267,0.0
-1618,-4533,27191,0.0
-1616,-4820,27096,0.0
-1577,-4989,26381,0.0
-1578,-5281,26352,0.0
-1585,-5592,26414,0.0
-1610,-5978,26797,0.0
-1606,-6261,26695,0.0
-1581,-6458,26248,0.0
-1530,-6539,25390,0.0
-1527,-6815,25319,0.0
-1592,-7414,26397,0.0
-1590,-7709,26343,0.0
-1585,-7999,26276,0.0
-1578,-8283,26182,0.0
-1539,-8386,25539,0.0
-1534,-8677,25490,0.0
-1562,-9163,25990,0.0
-1557,-9468,25950,0.0
-1550,-9759,25871,0.0
-1544,-10060,25819,0.0
-1536,-10363,25763,0.0
-1529,-10665,25707,0.0
-1519,-10949,25604,0.0
-1504,-11206,25435,0.0
-1499,-11550,25464,0.0
-1494,-11883,25458,0.0
-1483,-12182,25376,0.0
-1475,-12512,25355,0.0
-1462,-12810,25265,0.0
-1451,-13131,25216,0.0
-1441,-13459,25176,0.0
-1428,-13778,25112,0.0
-1416,-14111,25070,0.0
-1403,-14423,24988,0.0
-1389,-14754,24932,0.0
-1375,-15080,24864,0.0
-1360,-15415,24806,0.0
-1345,-15758,24755,0.0
-1330,-16103,24701,0.0
-1312,-16431,24617,0.0
-1297,-16786,24569,0.0
-1279,-17139,24512,0.0
-1261,-17495,24450,0.0
-1241,-17848,24381,0.0
-1223,-18210,24318,0.0
-1204,-18589,24272,0.0
-1181,-18937,24179,0.0
-1159,-19305,24107,0.0
-1138,-19688,24046,0.0
-1115,-20074,23983,0.0
-1091,-20451,23903,0.0
-1067,-20839,23830,0.0
-1041,-21225,23746,0.0
-1016,-21640,23689,0.0
-988,-22044,23612,0.0
-961,-22448,23529,0.0
-3,-62,65,0.0
-3,-71,72,0.0
-3,-76,76,0.0
-3,-77,74,0.0
-3,-82,77,0.0
-2,-81,75,0.0
-2,-83,74,0.0
-2,-100,88,0.0
-3,-105,90,0.0
-2,-99,83,0.0
-3,-107,88,0.0
-2,-119,96,0.0
-2,-125,99,0.0
-1,-107,82,0.0
-1,-113,85,0.0
-2,-127,93,0.0
-2,-129,93,0.0
-1,-135,95,0.0
-1,-137,94,0.0
-1,-132,89,0.0
-1,-133,87,0.0
0,-144,92,0.0
0,-151,94,0.0
0,-158,96,0.0
0,-158,94,0.0
0,-173,101,0.0
0,-174,98,0.0
1,-197,109,0.0
1,-190,103,0.0
1,-199,105,0.0
2,-200,102,0.0
2,-210,105,0.0
2,-215,104,0.0
4,-225,106,0.0
4,-227,104,0.0
4,-241,108,0.0
4,-227,98,0.0
4,-224,95,0.0
5,-232,94,0.0
6,-236,93,0.0
7,-245,94,0.0
9,-313,116,0.0
10,-321,115,0.0
10,-326,113,0.0
11,-328,110,0.0
11,-324,105,0.0
12,-326,102,0.0
1019,14875,14598,0.0
988,14707,14742,0.0
925,14042,14379,0.0
893,13850,14487,0.0
854,13525,14453,0.0
833,13476,14712,0.0
806,13350,14890,0.0
900,15250,17379,0.0
763,13250,15430,0.0
739,13158,15659,0.0
710,12975,15782,0.0
991,18589,23109,0.0
957,18464,23464,0.0
1198,23774,30888,0.0
771,15761,20938,0.0
740,15620,21222,0.0
668,14583,20264,0.0
673,15193,21597,0.0
616,14434,20994,0.0
589,14347,21355,0.0
634,16052,24456,0.0
597,15804,24653,0.0
564,15614,24942,0.0
530,15382,25171,0.0
502,15318,25682,0.0
466,15064,25887,0.0
433,14849,26160,0.0
380,13920,25152,0.0
350,13789,25561,0.0
320,13615,25905,0.0
291,13516,26404,0.0
257,13203,26491,0.0
223,12822,26437,0.0
191,12545,26594,0.0
162,12414,27069,0.0
130,12104,27164,0.0
98,11567,26730,0.0
69,11360,27053,0.0
45,12657,31077,0.0
12,12564,31827,0.0
-21,12283,32129,0.0
-54,11848,32025,0.0
-85,11440,31982,0.0
-116,11011,31862,0.0
-145,10606,31803,0.0
-175,10213,31763,0.0
-200,9706,31347,0.0
-227,9340,31362,0.0
-258,9098,31803,0.0
-290,8919,32503,0.0
-324,8733,33231,0.0
-359,8571,34111,0.0
0,0,0,0.0
-342,6492,28427,0.0
-372,6331,29170,0.0
-402,6151,29902,0.0
-422,5804,29849,0.0
-439,5447,29723,0.0
-457,5104,29662,0.0
-475,4764,29595,0.0
-491,4422,29500,0.0
-506,4079,29381,0.0
-522,3753,29362,0.0
-537,3419,29262,0.0
-551,3090,29188,0.0
-563,2760,29073,0.0
-575,2438,29002,0.0
-588,2115,28914,0.0
-581,1742,27972,0.0
-587,1421,27637,0.0
-596,1118,27554,0.0
-613,828,27853,0.0
-621,523,27681,0.0
-635,225,27863,0.0
-650,-77,28142,0.0
-657,-379,28014,0.0
-663,-681,27927,0.0
-671,-981,27861,0.0
-676,-1279,27779,0.0
-681,-1575,27685,0.0
-687,-1872,27624,0.0
-691,-2168,27557,0.0
-696,-2463,27501,0.0
-699,-2753,27403,0.0
-698,-3034,27226,0.0
-704,-3339,27280,0.0
-706,-3631,27215,0.0
-707,-3918,27122,0.0
-708,-4204,27030,0.0
-707,-4480,26884,0.0
-709,-4786,26919,0.0
-711,-5078,26872,0.0
-709,-5361,26773,0.0
-706,-5641,26669,0.0
-706,-5942,26668,0.0
-706,-6238,26634,0.0
-703,-6523,26550,0.0
-700,-6812,26489,0.0
-695,-7092,26389,0.0
-691,-7375,26304,0.0
-686,-7649,26189,0.0
-677,-7899,25993,0.0
-671,-8172,25881,0.0
-669,-8517,25993,0.0
-662,-8797,25893,0.0
-658,-9114,25905,0.0
-650,-9400,25820,0.0
-640,-9661,25672,0.0
-635,-10000,25724,0.0
-626,-10289,25641,0.0
-618,-10606,25625,0.0
-606,-10867,25473,0.0
-598,-11195,25473,0.0
-588,-11521,25463,0.0
-577,-11820,25389,0.0
-544,-11682,24401,0.0
-540,-12159,24707,0.0
-539,-12710,25136,0.0
-527,-13080,25189,0.0
-513,-13396,25127,0.0
-500,-13730,25098,0.0
-485,-14051,25037,0.0
-469,-14370,24968,0.0
-453,-14694,24903,0.0
-436,-15030,24857,0.0
-419,-15366,24802,0.0
-400,-15703,24744,0.0
-382,-16026,24661,0.0
-362,-16380,24617,0.0
-342,-16717,24546,0.0
-320,-17070,24491,0.0
-299,-17423,24429,0.0
-277,-17763,24345,0.0
-254,-18123,24283,0.0
-229,-18481,24211,0.0
-205,-18851,24152,0.0
-179,-19249,24118,0.0
-153,-19608,24033,0.0
-126,-19969,23942,0.0
-98,-20371,23893,0.0
-69,-20753,23815,0.0
-39,-21140,23738,0.0
-9,-21542,23669,0.0
22,-21946,23595,0.0
55,-22341,23506,0.0
88,-22764,23438,0.0
0,-64,65,0.0
0,-75,73,0.0
0,-62,59,0.0
0,-78,73,0.0
0,-92,86,0.0
1,-76,69,0.0
1,-100,88,0.0
0,-95,82,0.0
1,-108,91,0.0
1,-108,90,0.0
2,-120,96,0.0
2,-123,97,0.0
2,-116,90,0.0
2,-113,85,0.0
2,-128,95,0.0
3,-118,85,0.0
2,-126,89,0.0
3,-137,94,0.0
3,-142,96,0.0
3,-135,88,0.0
4,-142,92,0.0
4,-154,97,0.0
5,-158,97,0.0
5,-152,91,0.0
6,-165,96,0.0
6,-167,96,0.0
6,-179,99,0.0
6,-168,91,0.0
8,-194,102,0.0
9,-210,108,0.0
9,-204,102,0.0
10,-218,106,0.0
10,-226,108,0.0
10,-231,106,0.0
11,-229,103,0.0
12,-237,103,0.0
12,-233,99,0.0
13,-245,100,0.0
13,-236,94,0.0
13,-237,91,0.0
17,-286,107,0.0
19,-309,111,0.0
18,-305,107,0.0
19,-318,107,0.0
20,-311,101,0.0
20,-314,99,0.0
1290,13737,13507,0.0
1271,13673,13733,0.0
1312,14258,14628,0.0
1269,13936,14605,0.0
1221,13556,14514,0.0
1202,13485,14750,0.0
1176,13331,14899,0.0
1329,15227,17387,0.0
1676,19413,22652,0.0
1659,19443,23184,0.0
1113,13187,16071,0.0
1086,13012,16208,0.0
1594,19321,24604,0.0
1564,19169,24956,0.0
1542,19117,25448,0.0
1171,14695,20006,0.0
1149,14585,20309,0.0
1180,15182,21626,0.0
1107,14409,21001,0.0
1089,14353,21409,0.0
1263,16858,25739,0.0
1423,19225,30051,0.0
1394,19078,30540,0.0
1176,16303,26733,0.0
1128,15856,26641,0.0
1095,15593,26852,0.0
1062,15327,27061,0.0
1023,14970,27107,0.0
955,14177,26338,0.0
913,13737,26192,0.0
859,13120,25684,0.0
832,12889,25918,0.0
855,13454,27803,0.0
824,13165,27972,0.0
811,13167,28776,0.0
782,12905,29028,0.0
835,13993,32414,0.0
794,13527,32288,0.0
728,12619,31055,0.0
718,12646,32111,0.0
682,12246,32110,0.0
648,11835,32067,0.0
613,11414,31986,0.0
580,10999,31907,0.0
545,10558,31733,0.0
513,10139,31613,0.0
479,9670,31307,0.0
453,9340,31439,0.0
431,9080,31824,0.0
412,8911,32556,0.0
394,8724,33284,0.0
377,8541,34083,0.0
0,0,0,0.0
275,6590,28940,0.0
264,6506,30067,0.0
241,6136,29912,0.0
220,5783,29826,0.0
199,5423,29683,0.0
179,5088,29661,0.0
160,4754,29631,0.0
142,4408,29515,0.0
124,4068,29401,0.0
108,3739,29362,0.0
92,3402,29231,0.0
76,3077,29180,0.0
61,2748,29076,0.0
47,2425,28993,0.0
33,2105,28927,0.0
20,1740,28099,0.0
8,1410,27626,0.0
-2,1109,27564,0.0
-13,819,27839,0.0
-23,515,27656,0.0
-33,217,27854,0.0
-43,-84,28350,0.0
-52,-389,28273,0.0
-59,-694,28219,0.0
-67,-996,28139,0.0
-74,-1296,28032,0.0
-81,-1594,27935,0.0
-86,-1893,27885,0.0
-91,-2189,27794,0.0
-95,-2483,27694,0.0
-100,-2778,27636,0.0
-104,-3074,27579,0.0
-107,-3365,27484,0.0
-109,-3657,27412,0.0
-111,-3943,27300,0.0
-113,-4234,27226,0.0
-114,-4529,27187,0.0
-114,-4814,27095,0.0
-114,-5107,27041,0.0
-114,-5392,26949,0.0
-113,-5677,26862,0.0
-111,-5966,26796,0.0
-109,-6254,26722,0.0
-107,-6539,26637,0.0
-103,-6821,26552,0.0
-99,-7105,26465,0.0
-95,-7394,26401,0.0
-91,-7680,26321,0.0
-84,-7785,25649,0.0
-78,-8076,25607,0.0
-72,-8433,25767,0.0
-66,-8839,26053,0.0
-60,-9142,26018,0.0
-52,-9434,25950,0.0
-43,-9718,25857,0.0
-35,-10019,25808,0.0
-25,-10317,25747,0.0
-15,-10607,25665,0.0
-5,-10912,25615,0.0
6,-11200,25524,0.0
18,-11528,25517,0.0
29,-11829,25450,0.0
40,-11427,23906,0.0
53,-11888,24195,0.0
66,-12174,24114,0.0
84,-13062,25194,0.0
100,-13384,25146,0.0
117,-13714,25110,0.0
133,-14029,25040,0.0
150,-14357,24989,0.0
168,-14674,24913,0.0
187,-15002,24854,0.0
207,-15332,24791,0.0
223,-15368,24260,0.0
242,-15649,24124,0.0
269,-16316,24566,0.0
291,-16674,24527,0.0
315,-17036,24487,0.0
339,-17403,24447,0.0
364,-17749,24373,0.0
389,-18109,24311,0.0
416,-18456,24225,0.0
442,-18802,24134,0.0
471,-19194,24099,0.0
501,-19578,24041,0.0
530,-19930,23943,0.0
561,-20324,23887,0.0
593,-20712,23818,0.0
626,-21109,23750,0.0
660,-21520,23693,0.0
695,-21903,23598,0.0
731,-22303,23516,0.0
768,-22711,23434,0.0
3,-84,84,0.0
1,-75,73,0.0
2,-70,68,0.0
3,-81,76,0.0
3,-93,86,0.0
3,-97,87,0.0
3,-105,94,0.0
4,-109,94,0.0
4,-109,93,0.0
4,-115,96,0.0
5,-117,94,0.0
5,-129,103,0.0
6,-139,108,0.0
5,-132,100,0.0
6,-137,101,0.0
6,-133,97,0.0
6,-132,94,0.0
8,-150,105,0.0
6,-132,90,0.0
7,-145,95,0.0
8,-162,104,0.0
9,-162,102,0.0
8,-165,102,0.0
9,-163,98,0.0
10,-181,106,0.0
11,-175,100,0.0
11,-191,106,0.0
12,-191,104,0.0
13,-211,112,0.0
14,-208,107,0.0
14,-223,113,0.0
15,-225,110,0.0
15,-229,108,0.0
16,-230,106,0.0
16,-242,109,0.0
17,-242,105,0.0
18,-250,106,0.0
18,-251,103,0.0
19,-263,105,0.0
20,-260,100,0.0
23,-305,114,0.0
25,-319,116,0.0
26,-329,115,0.0
27,-331,112,0.0
26,-324,106,0.0
27,-327,102,0.0
2317,13580,13391,0.0
2339,13689,13787,0.0
2325,13595,13987,0.0
2423,14150,14871,0.0
2310,13464,14457,0.0
2307,13424,14726,0.0
2268,13174,14764,0.0
2120,12287,14071,0.0
2140,12367,14473,0.0
2142,12341,14759,0.0
2159,12405,15163,0.0
2180,12490,15605,0.0
2182,12454,15906,0.0
2202,12519,16348,0.0
2220,12573,16789,0.0
2233,12593,17196,0.0
2243,12591,17587,0.0
2472,13810,19734,0.0
2471,13726,20068,0.0
2479,13694,20492,0.0
2507,13767,21088,0.0
2477,13506,21182,0.0
2433,13176,21163,0.0
2379,12794,21050,0.0
2292,12228,20614,0.0
2278,12055,20831,0.0
2279,11954,21180,0.0
2281,11859,21548,0.0
2736,14085,26258,0.0
2686,13688,26192,0.0
2615,13185,25905,0.0
2338,11653,23518,0.0
2520,12407,25732,0.0
2373,11535,24596,0.0
2400,11516,25260,0.0
2393,11322,25562,0.0
2384,11115,25843,0.0
2368,10866,26032,0.0
2361,10660,26335,0.0
2847,12633,32201,0.0
2800,12198,32107,0.0
2757,11778,32037,0.0
2711,11352,31935,0.0
2673,10957,31910,0.0
2625,10519,31747,0.0
2575,10075,31542,0.0
2523,9623,31284,0.0
2503,9298,31429,0.0
2506,9047,31842,0.0
2533,8878,32577,0.0
2558,8687,33287,0.0
0,0,0,0.0
2028,6423,26981,0.0
2004,6111,26958,0.0
1980,5797,26908,0.0
1958,5489,26889,0.0
1930,5167,26778,0.0
1902,4844,26646,0.0
1874,4522,26493,0.0
1889,4304,26969,0.0
1871,4004,26948,0.0
1852,3701,26900,0.0
1879,3485,27525,0.0
1823,3114,26914,0.0
1955,3049,29092,0.0
1807,2544,27088,0.0
1791,2246,27040,0.0
1776,1950,26993,0.0
1755,1649,26848,0.0
1743,1357,26816,0.0
1732,1067,26798,0.0
1716,775,26697,0.0
1700,485,26573,0.0
1696,199,26641,0.0
1683,-86,26559,0.0
1673,-372,26503,0.0
1663,-655,26431,0.0
1626,-922,25930,0.0
1640,-1216,26237,0.0
1641,-1503,26311,0.0
1631,-1780,26203,0.0
1646,-2087,26498,0.0
1619,-2337,26087,0.0
1611,-2610,25989,0.0
1607,-2889,25944,0.0
1613,-3183,26042,0.0
1606,-3452,25914,0.0
1601,-3723,25826,0.0
1604,-4010,25848,0.0
1598,-4273,25709,0.0
1596,-4546,25640,0.0
1595,-4818,25575,0.0
1595,-5087,25491,0.0
1594,-5355,25405,0.0
1595,-5627,25340,0.0
1600,-5911,25327,0.0
1605,-6190,25291,0.0
1604,-6446,25162,0.0
1609,-6727,25133,0.0
1619,-7023,25151,0.0
1620,-7277,25022,0.0
1628,-7559,24982,0.0
1634,-7835,24924,0.0
1641,-8106,24849,0.0
1647,-8375,24765,0.0
1655,-8646,24689,0.0
1663,-8922,24625,0.0
1672,-9194,24547,0.0
1683,-9474,24487,0.0
1697,-9770,24468,0.0
1708,-10052,24408,0.0
1721,-10333,24344,0.0
1732,-10599,24242,0.0
1748,-10899,24214,0.0
1763,-11189,24159,0.0
1778,-11472,24089,0.0
1795,-11769,24042,0.0
1809,-12043,23947,0.0
1826,-12329,23870,0.0
1845,-12626,23813,0.0
1865,-12929,23764,0.0
1881,-13201,23653,0.0
1905,-13531,23644,0.0
1926,-13821,23559,0.0
1945,-14105,23460,0.0
1970,-14428,23422,0.0
1996,-14749,23375,0.0
2022,-15066,23319,0.0
2053,-15423,23316,0.0
2088,-15806,23345,0.0
2121,-16166,23332,0.0
2125,-16305,22999,0.0
2113,-16309,22488,0.0
2097,-16280,21946,0.0
2122,-16550,21816,0.0
2155,-16892,21775,0.0
2187,-17212,21701,0.0
2221,-17555,21650,0.0
2253,-17870,21561,0.0
2289,-18212,21497,0.0
2325,-18548,21421,0.0
2363,-18906,21364,0.0
2401,-19251,21288,0.0
2439,-19591,21201,0.0
2481,-19954,21132,0.0
2522,-20308,21047,0.0
2567,-20688,20984,0.0
2607,-21029,20876,0.0
2654,-21414,20804,0.0
2698,-21775,20704,0.0
2748,-22170,20629,0.0
2801,-22587,20567,0.0
9,-83,73,0.0
2902,-23370,20377,0.0
10,-85,72,0.0
14,-111,93,0.0
13,-108,88,0.0
13,-109,87,0.0
11,-100,78,0.0
14,-122,92,0.0
15,-128,95,0.0
15,-123,90,0.0
16,-134,95,0.0
16,-127,88,0.0
17,-145,99,0.0
17,-136,90,0.0
262,-2055,1338,0.0
15,-124,79,0.0
19,-151,94,0.0
18,-150,91,0.0
20,-160,94,0.0
19,-150,85,0.0
23,-179,100,0.0
23,-185,101,0.0
24,-189,100,0.0
25,-195,101,0.0
26,-202,102,0.0
29,-220,109,0.0
30,-225,108,0.0
33,-244,114,0.0
30,-227,103,0.0
35,-260,114,0.0
34,-247,105,0.0
34,-250,103,0.0
36,-268,108,0.0
37,-269,105,0.0
39,-277,104,0.0
42,-305,112,0.0
43,-307,108,0.0
44,-310,106,0.0
44,-313,103,0.0
45,-316,100,0.0
-3683,16317,15016,0.0
-3759,16250,15278,0.0
-3843,16212,15573,0.0
-3922,16145,15844,0.0
-4003,16080,16123,0.0
-4070,15955,16346,0.0
-4170,15956,16702,0.0
-4250,15870,16976,0.0
-4239,15445,16883,0.0
-4287,15241,17026,0.0
-4300,14920,17034,0.0
-4613,15619,18226,0.0
-4704,15539,18537,0.0
-4802,15479,18878,0.0
-4879,15341,19131,0.0
-4980,15273,19477,0.0
-5084,15208,19834,0.0
-5042,14708,19621,0.0
-5055,14377,19622,0.0
-5410,15000,20949,0.0
-5529,14944,21361,0.0
-5634,14843,21720,0.0
-5752,14764,22122,0.0
-5871,14679,22526,0.0
-5992,14590,22936,0.0
-6114,14497,23355,0.0
-6193,14293,23601,0.0
-6351,14264,24150,0.0
-6388,13957,24235,0.0
-6381,13559,24158,0.0
-8836,18251,33378,0.0
-8835,17734,33302,0.0
-8837,17230,33238,0.0
-8823,16704,33116,0.0
-8816,16197,33017,0.0
-8822,15721,32966,0.0
-8814,15229,32871,0.0
-8239,13792,30659,0.0
-8228,13339,30557,0.0
-8277,12986,30676,0.0
-8305,12601,30715,0.0
-8624,12644,31829,0.0
-8749,12386,32222,0.0
-8774,11985,32249,0.0
-8775,11554,32189,0.0
-8751,11095,32031,0.0
0,0,0,0.0
0,0,0,0.0
-8647,9727,31462,0.0
-8695,9373,31568,0.0
-8843,9123,32041,0.0
-9030,8903,32653,0.0
-9315,8760,33616,0.0
0,0,0,0.0
-7966,6778,28634,0.0
-8145,6569,29218,0.0
-8330,6354,29822,0.0
-8406,6047,30033,0.0
-8365,5655,29827,0.0
-8380,5306,29817,0.0
-8384,4952,29772,0.0
-8371,4591,29664,0.0
-8364,4237,29582,0.0
-8349,3882,29467,0.0
-7512,3181,26457,0.0
-7517,2874,26419,0.0
-7511,2566,26346,0.0
-7503,2257,26264,0.0
-7500,1954,26201,0.0
-7500,1653,26146,0.0
-7490,1351,26055,0.0
-7482,1052,25974,0.0
-7478,755,25905,0.0
-7472,460,25832,0.0
-7468,167,25762,0.0
-7473,-125,25725,0.0
-7458,-415,25620,0.0
-7469,-705,25600,0.0
-7460,-993,25515,0.0
-7456,-1279,25445,0.0
-7454,-1565,25385,0.0
-7452,-1851,25322,0.0
-7446,-2133,25244,0.0
-7433,-2413,25144,0.0
-7436,-2697,25100,0.0
-7434,-2978,25039,0.0
-7434,-3259,24979,0.0
-7427,-3537,24900,0.0
-7426,-3818,24838,0.0
-7426,-4097,24781,0.0
-7871,-4640,26205,2.0
-7879,-4942,26176,2.0
-7893,-5249,26160,2.0
-7833,-5503,25899,2.0
-7823,-5790,25801,2.0
-7849,-6106,25829,2.0
-7832,-6386,25706,2.0
-7798,-6651,25536,2.0
-7774,-6923,25392,2.0
-7836,-7275,25534,2.0
0,0,0,0.0
-7864,-7895,25495,2.0
-7860,-8187,25414,2.0
0,0,0,0.0
-7854,-8778,25265,2.0
-7828,-9047,25115,2.0
-7823,-9339,25031,2.0
-7845,-9666,25036,2.0
-7862,-9988,25020,2.0
-7844,-10268,24896,2.0
-7846,-10572,24831,2.0
-7847,-10877,24764,2.0
-7832,-11160,24646,2.0
-7830,-11462,24567,2.0
-7855,-11806,24574,2.0
-7868,-12136,24545,2.0
-7816,-12364,24309,2.0
-7841,-12715,24315,2.0
-7882,-13094,24366,2.0
0,0,0,0.0
-7858,-13686,24143,2.0
-7850,-13989,24038,2.0
-7872,-14349,24028,2.0
-7865,-14657,23927,2.0
-7888,-15026,23919,2.0
-7882,-15341,23819,2.0
-7910,-15727,23823,2.0
-621,-1263,1868,0.0
-7877,-16323,23556,2.0
-7753,-16397,23103,0.0
-8249,-17802,24493,0.0
-8249,-18158,24401,0.0
-7571,-16995,22311,0.0
-7448,-17048,21865,0.0
-7450,-17383,21786,0.0
-7456,-17731,21718,0.0
-7460,-18079,21644,0.0
-7463,-18424,21561,0.0
-7468,-18781,21487,0.0
-7479,-19156,21427,0.0
-7481,-19512,21339,0.0
-7488,-19886,21266,0.0
-7494,-20261,21187,0.0
-7492,-20619,21085,0.0
-28,-80,80,0.0
-25,-75,73,0.0
-28,-81,79,0.0
-24,-72,67,0.0
-25,-77,71,0.0
-30,-93,84,0.0
-28,-89,78,0.0
-32,-104,89,0.0
-27,-87,73,0.0
-30,-101,83,0.0
-30,-104,83,0.0
-38,-131,102,0.0
-35,-122,93,0.0
-33,-118,88,0.0
-34,-125,91,0.0
-34,-124,89,0.0
-34,-130,91,0.0
-32,-123,83,0.0
-37,-143,95,0.0
-31,-120,78,0.0
-32,-130,83,0.0
-37,-150,92,0.0
-34,-142,85,0.0
-37,-156,92,0.0
-37,-160,91,0.0
-38,-169,94,0.0
-40,-174,95,0.0
-41,-184,97,0.0
-42,-193,99,0.0
-46,-213,107,0.0
-40,-190,93,0.0
-42,-201,95,0.0
-45,-225,104,0.0
-43,-212,95,0.0
-43,-219,96,0.0
-47,-241,102,0.0
-47,-250,102,0.0
-48,-256,102,0.0
-47,-260,100,0.0
-55,-307,115,0.0
-57,-323,116,0.0
-56,-321,112,0.0
-56,-328,109,0.0
-54,-322,104,0.0
-55,-332,104,0.0
-53,-328,98,0.0
-51,-322,93,0.0
-50,-327,91,0.0
-2900,16266,15212,0.0
-2970,16213,15491,0.0
-3039,16146,15759,0.0
-3113,16100,16054,0.0
-3183,16024,16325,0.0
-3258,15968,16621,0.0
-3332,15903,16914,0.0
-3406,15830,17203,0.0
-3377,15284,16973,0.0
-3543,15615,17721,0.0
-3572,15332,17782,0.0
-3560,14880,17641,0.0
-3784,15402,18664,0.0
-3882,15389,19065,0.0
-3970,15328,19416,0.0
-4058,15255,19759,0.0
-4148,15183,20115,0.0
0,0,0,0.0
-4249,14741,20438,0.0
-4256,14373,20392,0.0
-4505,14808,21504,0.0
-4619,14773,21961,0.0
-4719,14688,22358,0.0
-4824,14604,22767,0.0
-4933,14528,23202,0.0
-5040,14432,23621,0.0
-5144,14319,24023,0.0
-5259,14229,24478,0.0
-5368,14110,24899,0.0
-5414,13822,25027,0.0
-5441,13489,25070,0.0
-5470,13164,25125,0.0
-5867,13700,26863,0.0
-6003,13596,27401,0.0
-6135,13469,27913,0.0
-6246,13289,28335,0.0
-6401,13190,28950,0.0
-6470,12906,29176,0.0
-6642,12816,29859,0.0
-6833,12747,30629,0.0
-6989,12598,31242,0.0
-7224,12571,32198,0.0
-7270,12204,32311,0.0
0,0,0,0.0
-7262,11317,32097,0.0
-7285,10922,32109,0.0
-7238,10428,31814,0.0
0,0,0,0.0
-7194,9543,31456,0.0
-7263,9226,31674,0.0
-7427,9020,32304,0.0
-7630,8846,33100,0.0
-7817,8637,33822,0.0
-6631,6970,28619,0.0
-6625,6611,28524,0.0
-6803,6429,29215,0.0
-6986,6237,29928,0.0
-7014,5897,29970,0.0
-6984,5513,29768,0.0
-7009,5176,29803,0.0
-6998,4814,29683,0.0
-6994,4461,29593,0.0
-6987,4110,29495,0.0
-6398,3447,26941,0.0
-6387,3129,26835,0.0
-6355,2804,26636,0.0
-6352,2496,26559,0.0
-6399,2208,26695,0.0
-6394,1900,26609,0.0
-6395,1598,26550,0.0
-6391,1296,26474,0.0
-6392,996,26415,0.0
-6404,699,26403,0.0
-6405,402,26346,0.0
-6410,107,26307,0.0
-6410,-186,26247,0.0
-6409,-480,26183,0.0
-6423,-774,26177,0.0
-6440,-1068,26189,0.0
-6416,-1355,26030,0.0
-6452,-1654,26116,0.0
-6459,-1946,26085,0.0
-6412,-2219,25835,0.0
-6458,-2524,25960,0.0
-6466,-2816,25936,0.0
-6470,-3106,25890,0.0
-6463,-3391,25806,0.0
-6424,-3655,25590,0.0
-6388,-3918,25386,0.0
-6493,-4270,25747,0.0
-6499,-4562,25711,0.0
-6503,-4852,25666,0.0
-6502,-5139,25604,0.0
-6498,-5423,25527,0.0
-6503,-5715,25490,0.0
-6506,-6006,25441,0.0
-6495,-6284,25341,0.0
-6501,-6576,25305,0.0
-6495,-6858,25220,0.0
-6490,-7141,25141,0.0
-6489,-7428,25079,0.0
-6488,-7717,25015,0.0
-6486,-8004,24949,0.0
-6480,-8287,24867,0.0
-6481,-8579,24810,0.0
-6484,-8874,24760,0.0
-6480,-9162,24686,0.0
-6471,-9442,24591,0.0
-6487,-9759,24590,0.0
-6480,-10045,24503,0.0
-6475,-10333,24422,0.0
-6485,-10645,24394,0.0
