//X,Y,Z,Classification
-6411,14025,26558,0.0
-6550,13912,27066,0.0
-6685,13780,27553,0.0
-8039,16074,33048,0.0
-6941,13457,28462,0.0
-7413,13927,30320,0.0
-7442,13540,30362,0.0
-7616,13413,30997,0.0
-7775,13244,31563,0.0
-7853,12932,31806,0.0
-7986,12702,32263,0.0
0,0,0,0.0
-8011,11861,32210,0.0
-7946,11336,31872,0.0
0,0,0,0.0
-7942,10486,31707,0.0
-7948,10079,31654,0.0
-7946,9666,31573,0.0
-7997,9321,31706,0.0
-6727,7501,26612,0.0
-6919,7369,27308,0.0
-6976,7084,27470,0.0
-6969,6735,27377,0.0
-6964,6392,27298,0.0
-6951,6045,27188,0.0
-6952,5714,27127,0.0
-6948,5383,27051,0.0
-6946,5055,26982,0.0
-6932,4722,26869,0.0
-6927,4399,26792,0.0
-6923,4079,26716,0.0
-6912,3758,26612,0.0
-6891,3436,26475,0.0
-6896,3129,26435,0.0
-6893,2821,26370,0.0
-6836,2495,26093,0.0
-6627,2126,25238,0.0
-6853,1900,26043,0.0
-6738,1574,25548,0.0
-6651,1267,25166,0.0
-6770,998,25556,0.0
-6811,712,25657,0.0
-6842,424,25716,0.0
-6838,134,25644,0.0
-6821,-154,25525,0.0
-6823,-441,25475,0.0
-6816,-726,25393,0.0
-6791,-1006,25243,0.0
-6800,-1291,25223,0.0
-6640,-1536,24572,0.0
-6644,-1813,24532,0.0
-6638,-2084,24455,0.0
-6755,-2400,24830,0.0
-6788,-2690,24896,0.0
-6791,-2970,24853,0.0
-6781,-3243,24759,0.0
-6789,-3523,24730,0.0
-6747,-3777,24521,0.0
-6778,-4070,24577,0.0
-6772,-4343,24500,0.0
-6774,-4620,24450,0.0
-6771,-4893,24383,0.0
-6770,-5167,24323,0.0
-6762,-5436,24237,0.0
-6747,-5700,24127,0.0
-6755,-5981,24096,0.0
-6749,-6249,24018,0.0
-6754,-6528,23975,0.0
-6746,-6796,23891,0.0
-6732,-7056,23782,0.0
-6723,-7322,23692,0.0
-6668,-7535,23440,0.0
-6661,-7800,23355,0.0
-6689,-8109,23395,0.0
-6705,-8404,23390,0.0
-6705,-8682,23334,0.0
-6717,-8975,23313,0.0
-6722,-9263,23273,0.0
-6716,-9535,23191,0.0
-6703,-9795,23082,0.0
-6698,-10070,23003,0.0
-6695,-10348,22931,0.0
-6713,-10659,22928,0.0
-6722,-10960,22895,0.0
-6725,-11254,22845,0.0
-6713,-11521,22738,0.0
-6709,-11803,22659,0.0
-6720,-12115,22635,0.0
-6735,-12434,22614,0.0
-6770,-12797,22669,0.0
-6780,-13117,22637,0.0
-6789,-13435,22594,0.0
-6788,-13736,22522,0.0
-6795,-14057,22478,0.0
-6807,-14391,22447,0.0
-6792,-14670,22326,0.0
-6635,-14636,21739,0.0
-6629,-14929,21649,0.0
-6798,-15628,22126,0.0
-6797,-15947,22049,0.0
-6824,-16333,22060,0.0
-6825,-16665,21989,0.0
-6838,-17026,21952,0.0
-6848,-17388,21910,0.0
-6845,-17718,21820,0.0
-6862,-18104,21793,0.0
-6860,-18443,21704,0.0
-6860,-18793,21621,0.0
-6875,-19188,21586,0.0
-6877,-19552,21507,0.0
-6882,-19928,21437,0.0
-6905,-20363,21421,0.0
-6902,-20723,21320,0.0
-6905,-21109,21240,0.0
-6916,-21527,21184,0.0
-6920,-21922,21099,0.0
-6928,-22342,21031,0.0
-6929,-22745,20939,0.0
-26,-92,83,0.0
-6948,-23622,20799,0.0
-27,-99,85,0.0
-25,-90,76,0.0
-6788,-24317,20018,0.0
-509,-1856,1494,0.0
-508,-1890,1486,0.0
-500,-1888,1453,0.0
-492,-1893,1423,0.0
-477,-1867,1372,0.0
-481,-1911,1372,0.0
-479,-1938,1359,0.0
-477,-1963,1344,0.0
-474,-1988,1330,0.0
-476,-2031,1326,0.0
-463,-2010,1282,0.0
-448,-1977,1230,0.0
-455,-2045,1242,0.0
-451,-2063,1221,0.0
-444,-2067,1194,0.0
-441,-2086,1176,0.0
-438,-2110,1159,0.0
-429,-2105,1126,0.0
-421,-2101,1095,0.0
-431,-2193,1113,0.0
-33,-175,86,0.0
-36,-191,92,0.0
-36,-199,93,0.0
-39,-219,100,0.0
-41,-230,101,0.0
-40,-231,99,0.0
-44,-259,108,0.0
-45,-273,110,0.0
-47,-285,111,0.0
-51,-317,120,0.0
-53,-335,122,0.0
-51,-331,117,0.0
-52,-337,115,0.0
-49,-332,109,0.0
-48,-336,106,0.0
-48,-338,103,0.0
-47,-343,100,0.0
-46,-336,95,0.0
-5409,35056,33022,0.0
-5380,33868,32591,0.0
-2979,18216,17908,0.0
-3051,18129,18207,0.0
-3009,17372,17824,0.0
-3077,17267,18101,0.0
-3241,17674,18931,0.0
-3255,17263,18893,0.0
-2970,15311,17124,0.0
-3374,16915,19331,0.0
-3179,15500,18105,0.0
-3183,15089,18015,0.0
-3394,15652,19102,0.0
-3477,15592,19453,0.0
-3586,15647,19960,0.0
-3640,15443,20145,0.0
-3716,15332,20456,0.0
0,0,0,0.0
-3822,14918,20830,0.0
-3837,14563,20808,0.0
-3875,14299,20911,0.0
-4169,14955,22389,0.0
-4265,14872,22800,0.0
-4360,14776,23201,0.0
-4456,14677,23609,0.0
-4560,14589,24048,0.0
-4662,14490,24483,0.0
-4765,14383,24920,0.0
-4869,14268,25359,0.0
-4966,14124,25760,0.0
-4974,13726,25697,0.0
-4995,13371,25708,0.0
-5342,13865,27385,0.0
-5459,13732,27879,0.0
-5574,13583,28359,0.0
-5714,13483,28963,0.0
-5769,13175,29136,0.0
-5928,13097,29832,0.0
-6006,12828,30119,0.0
-6273,12946,31349,0.0
-6445,12843,32097,0.0
-6492,12483,32225,0.0
-6500,12050,32157,0.0
-6458,11532,31841,0.0
-6333,10886,31128,0.0
-6365,10521,31185,0.0
-6472,10275,31608,0.0
0,0,0,0.0
-6505,9497,31574,0.0
-6625,9256,32058,0.0
-5576,7447,26905,0.0
-5713,7279,27480,0.0
-5712,6933,27397,0.0
-5700,6577,27262,0.0
-5707,6247,27213,0.0
-5709,5916,27150,0.0
-5705,5580,27051,0.0
-5681,5232,26864,0.0
-5679,4907,26780,0.0
-5705,4608,26828,0.0
-5696,4283,26712,0.0
-5702,3974,26675,0.0
-5687,3650,26527,0.0
-5688,3343,26466,0.0
-5694,3039,26424,0.0
-5691,2732,26344,0.0
-5685,2427,26245,0.0
-5478,2050,25226,0.0
-5663,1823,26015,0.0
-5573,1503,25537,0.0
-5577,1215,25486,0.0
-5656,941,25786,0.0
-5672,654,25795,0.0
-5673,365,25740,0.0
-5659,78,25615,0.0
-5669,-208,25597,0.0
-5662,-492,25501,0.0
-5660,-774,25427,0.0
-5660,-1056,25371,0.0
-5653,-1335,25278,0.0
-5655,-1615,25226,0.0
-5655,-1894,25168,0.0
-5645,-2169,25069,0.0
-5644,-2444,25003,0.0
-5645,-2721,24947,0.0
-5641,-2995,24873,0.0
-5637,-3268,24801,0.0
-5630,-3538,24709,0.0
-5628,-3809,24640,0.0
-5625,-4081,24573,0.0
-5619,-4348,24489,0.0
-5618,-4620,24428,0.0
-5613,-4888,24352,0.0
-5604,-5152,24256,0.0
-5611,-5430,24231,0.0
-5600,-5692,24130,0.0
-5604,-5968,24092,0.0
-5596,-6231,24004,0.0
-5587,-6493,23912,0.0
-5589,-6767,23862,0.0
-5588,-7040,23805,0.0
-5582,-7304,23722,0.0
-5584,-7582,23679,0.0
-5579,-7850,23602,0.0
-5575,-8119,23532,0.0
-5573,-8392,23469,0.0
-5575,-8674,23427,0.0
-5573,-8946,23359,0.0
-5566,-9213,23277,0.0
-5570,-9501,23241,0.0
-5570,-9783,23190,0.0
-5566,-10057,23114,0.0
-5560,-10332,23039,0.0
-5563,-10622,22996,0.0
-5563,-10908,22941,0.0
-5569,-11210,22912,0.0
-5564,-11489,22835,0.0
-5561,-11774,22767,0.0
-5562,-12073,22719,0.0
-5569,-12384,22691,0.0
-5568,-12679,22629,0.0
-5575,-12996,22603,0.0
-5570,-13288,22527,0.0
-5572,-13600,22479,0.0
-5573,-13912,22428,0.0
-5578,-14234,22389,0.0
-5573,-14537,22312,0.0
-5579,-14870,22279,0.0
-5575,-15179,22205,0.0
-5578,-15512,22160,0.0
-5579,-15841,22104,0.0
-5581,-16177,22052,0.0
-5576,-16499,21975,0.0
-5584,-16859,21946,0.0
-5586,-17211,21896,0.0
-5588,-17561,21840,0.0
-5556,-17811,21655,0.0
-5286,-17281,20543,0.0
-5590,-18633,21658,0.0
-5594,-19016,21616,0.0
-5587,-19361,21523,0.0
-5593,-19754,21479,0.0
-5595,-20141,21420,0.0
-5589,-20508,21333,0.0
-5588,-20896,21263,0.0
-5591,-21306,21205,0.0
-5568,-21622,21052,0.0
-22,-88,84,0.0
-25,-98,91,0.0
-26,-103,94,0.0
-26,-107,95,0.0
-25,-105,93,0.0
-21,-92,78,0.0
-25,-108,90,0.0
-5347,-24103,19653,0.0
-21,-96,77,0.0
-22,-100,78,0.0
-399,-1899,1447,0.0
-20,-97,73,0.0
-25,-121,88,0.0
-386,-1948,1385,0.0
-386,-1984,1379,0.0
-378,-1983,1346,0.0
0,0,0,0.0
-374,-2033,1317,0.0
-368,-2045,1293,0.0
-357,-2020,1246,0.0
-363,-2092,1260,0.0
-354,-2082,1223,0.0
-354,-2119,1213,0.0
-347,-2122,1184,0.0
-26,-163,88,0.0
-23,-151,80,0.0
-27,-173,89,0.0
-27,-176,88,0.0
-29,-191,93,0.0
-28,-192,90,0.0
-31,-217,100,0.0
-30,-218,98,0.0
-33,-239,105,0.0
-33,-254,107,0.0
-37,-280,116,0.0
-36,-285,113,0.0
-39,-308,119,0.0
-41,-339,126,0.0
-40,-338,122,0.0
-40,-344,120,0.0
-39,-348,117,0.0
-38,-343,111,0.0
-37,-345,108,0.0
-37,-350,106,0.0
-35,-346,101,0.0
-1844,15634,14872,0.0
-4098,33587,32638,0.0
-2287,18125,17992,0.0
-4142,31771,32220,0.0
-4209,31254,32381,0.0
-2497,17949,18999,0.0
-2528,17595,19030,0.0
-2533,17090,18885,0.0
-2546,16644,18794,0.0
-2370,15015,17326,0.0
-2574,15808,18643,0.0
-2547,15169,18286,0.0
-2595,14988,18468,0.0
-2630,14736,18563,0.0
-3086,16770,21600,0.0
-3102,16362,21550,0.0
-3108,15901,21419,0.0
-3125,15517,21382,0.0
-2961,14263,20109,0.0
-3030,14156,20422,0.0
-3145,14264,21062,0.0
-3195,14052,21242,0.0
-4572,19516,30209,0.0
-4691,19420,30788,0.0
-4748,19067,30971,0.0
-5209,20287,33771,0.0
-5222,19720,33651,0.0
-4372,16008,28011,0.0
-4388,15571,27950,0.0
-4393,15108,27829,0.0
-4185,13944,26368,0.0
-4252,13720,26644,0.0
-4258,13302,26540,0.0
-4528,13689,28075,0.0
-4614,13497,28466,0.0
-4798,13572,29454,0.0
-4934,13491,30143,0.0
-5005,13224,30437,0.0
-5214,13302,31559,0.0
-5292,13030,31885,0.0
-5386,12789,32306,0.0
-5395,12346,32216,0.0
-5417,11939,32209,0.0
-5379,11410,31850,0.0
-5404,11022,31866,0.0
-5403,10585,31730,0.0
-5439,10224,31811,0.0
-5414,9755,31540,0.0
-5462,9422,31694,0.0
-4579,7551,26467,0.0
-4731,7451,27249,0.0
-4772,7163,27378,0.0
-4777,6824,27308,0.0
-4767,6469,27157,0.0
-4774,6140,27099,0.0
-4772,5803,26992,0.0
-4795,5500,27032,0.0
-4791,5169,26918,0.0
-4796,4851,26863,0.0
-4796,4529,26771,0.0
-4792,4208,26662,0.0
-4799,3900,26615,0.0
-4800,3590,26537,0.0
-4517,3087,24896,0.0
-4789,2968,26318,0.0
-4800,2672,26299,0.0
-4777,2360,26090,0.0
-4632,2000,25228,0.0
-4715,1746,25604,0.0
-4666,1441,25265,0.0
-4741,1176,25595,0.0
-4765,893,25659,0.0
-4798,612,25763,0.0
-4798,326,25693,0.0
-4544,38,24272,0.0
-4787,-241,25500,0.0
-4795,-523,25474,0.0
-4792,-803,25390,0.0
-4789,-1082,25313,0.0
-4789,-1360,25245,0.0
-4785,-1636,25167,0.0
-4787,-1912,25107,0.0
-4783,-2186,25027,0.0
-4782,-2459,24961,0.0
-4774,-2728,24862,0.0
-4777,-3002,24817,0.0
-4773,-3271,24737,0.0
-4763,-3535,24624,0.0
-4755,-3800,24528,0.0
-4758,-4072,24489,0.0
-4727,-4314,24269,0.0
-4672,-4529,23935,0.0
-4621,-4741,23614,0.0
-4610,-4992,23511,0.0
-4597,-5238,23388,0.0
-4579,-5479,23248,0.0
-4580,-5741,23204,0.0
-4567,-5983,23084,0.0
-4550,-6221,22952,0.0
-4563,-6500,22967,0.0
-4564,-6763,22921,0.0
-4556,-7013,22834,0.0
-4571,-7300,22860,0.0
-4566,-7556,22787,0.0
-4579,-7844,22805,0.0
-4621,-8187,22971,0.0
-4677,-8558,23194,0.0
-4710,-8896,23312,0.0
-4703,-9161,23230,0.0
-4708,-9451,23209,0.0
-4711,-9739,23178,0.0
-4709,-10019,23121,0.0
-4710,-10307,23080,0.0
-4709,-10592,23032,0.0
-4706,-10871,22964,0.0
-4703,-11157,22909,0.0
-4703,-11449,22864,0.0
-4700,-11739,22807,0.0
-4702,-12042,22772,0.0
-4703,-12344,22732,0.0
-4701,-12642,22679,0.0
-4697,-12936,22616,0.0
-4695,-13238,22561,0.0
-4697,-13554,22525,0.0
-4692,-13854,22459,0.0
-4690,-14165,22406,0.0
-4692,-14493,22375,0.0
-4686,-14797,22298,0.0
-4688,-15133,22268,0.0
-4678,-15432,22178,0.0
-4676,-15759,22124,0.0
-4674,-16096,22077,0.0
-4672,-16432,22024,0.0
-4666,-16756,21950,0.0
-4663,-17100,21897,0.0
-4659,-17441,21833,0.0
-4419,-16888,20670,0.0
-4372,-17052,20409,0.0
-4341,-17283,20227,0.0
-4641,-18855,21583,0.0
-4639,-19232,21531,0.0
-4633,-19597,21460,0.0
-4633,-19993,21418,0.0
-4625,-20362,21338,0.0
-4621,-20757,21279,0.0
-4613,-21139,21200,0.0
-4607,-21540,21134,0.0
-4593,-21903,21022,0.0
-4591,-22336,20972,0.0
-4582,-22739,20887,0.0
-15,-77,69,0.0
-14,-76,67,0.0
-16,-82,71,0.0
-15,-81,68,0.0
-14,-79,64,0.0
-15,-82,66,0.0
-17,-100,78,0.0
-18,-104,80,0.0
-19,-113,85,0.0
-19,-116,84,0.0
-317,-1967,1413,0.0
-311,-1969,1382,0.0
-302,-1949,1335,0.0
-294,-1937,1297,0.0
-294,-1976,1292,0.0
-296,-2040,1303,0.0
-291,-2047,1276,0.0
-287,-2065,1256,0.0
-284,-2087,1240,0.0
-281,-2110,1221,0.0
-20,-150,85,0.0
-19,-152,84,0.0
-21,-173,92,0.0
-20,-163,86,0.0
-20,-163,83,0.0
-22,-186,92,0.0
-22,-199,95,0.0
-23,-212,99,0.0
-21,-194,88,0.0
-24,-225,99,0.0
-25,-235,101,0.0
-27,-267,111,0.0
-27,-275,111,0.0
-27,-288,112,0.0
-30,-330,125,0.0
-30,-339,125,0.0
-29,-337,119,0.0
-28,-340,116,0.0
-28,-346,114,0.0
-27,-347,111,0.0
-26,-343,106,0.0
-25,-348,102,0.0
-1442,15421,14755,0.0
-1478,15201,14858,0.0
-3293,32599,32550,0.0
-1875,17877,18236,0.0
-1907,17525,18263,0.0
-1896,16804,17889,0.0
-1903,16275,17703,0.0
-1918,15838,17602,0.0
-1918,15294,17369,0.0
-2084,16049,18627,0.0
-2109,15696,18618,0.0
-2126,15298,18547,0.0
-2134,14854,18409,0.0
-2556,17208,21802,0.0
-3674,23930,31000,0.0
-2430,15320,20295,0.0
-2489,15184,20572,0.0
-2603,15374,21308,0.0
-2617,14966,21221,0.0
-2638,14602,21189,0.0
-2664,14275,21202,0.0
-3876,20116,30585,0.0
-3932,19760,30766,0.0
-3984,19384,30912,0.0
-4019,18936,30939,0.0
-3558,16229,27174,0.0
-3645,16097,27630,0.0
-3728,15936,28051,0.0
-3660,15141,27340,0.0
-3745,14993,27780,0.0
-3586,13885,26411,0.0
-3744,14021,27393,0.0
-3699,13394,26885,0.0
-3749,13124,27080,0.0
-3857,13047,27688,0.0
-3832,12520,27339,0.0
-3847,12134,27279,0.0
-3813,11607,26882,0.0
-4510,13241,31613,0.0
-4560,12908,31789,0.0
-4651,12684,32246,0.0
-4661,12237,32138,0.0
-4672,11804,32054,0.0
-4663,11327,31830,0.0
-4698,10962,31907,0.0
-4692,10508,31713,0.0
0,0,0,0.0
-4715,9694,31561,0.0
-4768,9378,31766,0.0
-4028,7569,26717,0.0
-4084,7321,26972,0.0
-4112,7020,27032,0.0
-4078,6622,26701,0.0
-4087,6296,26639,0.0
-4136,6036,26853,0.0
-4170,5750,26961,0.0
-4188,5443,26973,0.0
-4188,5115,26869,0.0
-4192,4795,26793,0.0
-4199,4483,26739,0.0
-4201,4166,26649,0.0
-4205,3856,26581,0.0
-4212,3551,26530,0.0
-3981,3065,24985,0.0
-4198,2927,26260,0.0
-4213,2636,26267,0.0
-4108,2278,25526,0.0
-4071,1969,25211,0.0
-4103,1698,25327,0.0
-4085,1407,25138,0.0
-4146,1142,25430,0.0
-4194,869,25651,0.0
-4220,587,25732,0.0
-4220,302,25656,0.0
-3995,18,24218,0.0
-4223,-262,25520,0.0
-4226,-543,25473,0.0
-4224,-821,25390,0.0
-4224,-1099,25317,0.0
-4221,-1374,25231,0.0
-4220,-1650,25160,0.0
-4218,-1923,25081,0.0
-4218,-2196,25019,0.0
-4215,-2467,24937,0.0
-4211,-2736,24848,0.0
-4215,-3010,24813,0.0
-4213,-3278,24738,0.0
-4211,-3548,24670,0.0
-4205,-3812,24578,0.0
-4203,-4079,24505,0.0
-4202,-4346,24440,0.0
-4199,-4611,24368,0.0
-4195,-4876,24292,0.0
-4195,-5145,24241,0.0
-4196,-5415,24194,0.0
-4186,-5670,24080,0.0
-4182,-5935,24010,0.0
-4184,-6205,23971,0.0
-4184,-6475,23920,0.0
-4173,-6729,23810,0.0
-4176,-7004,23776,0.0
-4172,-7270,23711,0.0
-4170,-7541,23656,0.0
-4171,-7816,23613,0.0
-4167,-8083,23547,0.0
-4163,-8351,23480,0.0
-4162,-8625,23429,0.0
-4161,-8903,23382,0.0
-4154,-9167,23301,0.0
-4152,-9445,23250,0.0
-4147,-9716,23180,0.0
-4144,-9996,23129,0.0
-4139,-10270,23060,0.0
-4135,-10548,22997,0.0
-4134,-10836,22954,0.0
-4130,-11120,22899,0.0
-4134,-11425,22881,0.0
-4130,-11712,22824,0.0
-4126,-12000,22764,0.0
-4120,-12285,22695,0.0
-4121,-12596,22668,0.0
-4117,-12894,22614,0.0
-4114,-13195,22562,0.0
-4110,-13497,22506,0.0
-4102,-13790,22432,0.0
-4105,-14124,22417,0.0
-4100,-14434,22360,0.0
-4092,-14735,22285,0.0
-4086,-15048,22224,0.0
-4089,-15400,22213,0.0
-4085,-15729,22163,0.0
-4074,-16033,22074,0.0
-4069,-16369,22024,0.0
-4060,-16687,21946,0.0
-4059,-17047,21915,0.0
-4012,-17218,21640,0.0
-3815,-16723,20551,0.0
-3771,-16888,20295,0.0
-3741,-17110,20109,0.0
-3747,-17499,20114,0.0
-3751,-17893,20119,0.0
-3994,-19458,21401,0.0
-3995,-19875,21386,0.0
-3985,-20245,21310,0.0
-3977,-20634,21249,0.0
-3967,-21017,21175,0.0
-3963,-21441,21135,0.0
-3949,-21823,21046,0.0
-3942,-22245,20989,0.0
-3934,-22676,20932,0.0
-3875,-22811,20599,0.0
-14,-83,75,0.0
-3844,-23611,20404,0.0
-15,-91,77,0.0
-14,-84,70,0.0
-13,-84,67,0.0
-14,-95,75,0.0
-13,-93,71,0.0
-15,-106,80,0.0
-275,-1968,1454,0.0
-266,-1947,1406,0.0
-260,-1944,1372,0.0
-259,-1983,1367,0.0
0,0,0,0.0
0,0,0,0.0
-249,-2044,1314,0.0
-241,-2026,1271,0.0
-244,-2099,1285,0.0
-238,-2106,1258,0.0
-230,-2081,1214,0.0
-234,-2174,1236,0.0
-16,-153,84,0.0
-18,-169,91,0.0
-17,-169,88,0.0
-17,-176,90,0.0
-19,-201,100,0.0
-19,-207,100,0.0
-18,-209,98,0.0
-18,-209,96,0.0
-19,-230,102,0.0
-20,-237,102,0.0
-19,-244,102,0.0
-21,-269,110,0.0
-20,-277,109,0.0
-23,-320,123,0.0
-23,-330,122,0.0
-22,-339,121,0.0
-23,-347,120,0.0
-22,-348,116,0.0
-21,-344,111,0.0
-20,-350,109,0.0
-19,-354,106,0.0
-1046,15166,14590,0.0
-1086,15024,14764,0.0
-1122,14816,14873,0.0
-2511,31708,32515,0.0
-2599,31422,32917,0.0
-2576,29829,31925,0.0
-2629,29193,31922,0.0
-2632,28042,31332,0.0
-2747,28113,32097,0.0
-2804,27581,32180,0.0
-1701,16094,19189,0.0
-2816,25635,31241,0.0
-1748,15317,19082,0.0
-2950,24905,31719,0.0
-2947,23980,31229,0.0
-1932,15159,20188,0.0
-2058,15569,21205,0.0
-2101,15333,21364,0.0
-2120,14939,21295,0.0
-2159,14676,21408,0.0
-3145,20644,30823,0.0
-3161,20034,30622,0.0
-3229,19760,30930,0.0
-3267,19304,30950,0.0
-3297,18817,30910,0.0
-3627,19996,33660,0.0
-3018,16069,27731,0.0
-3673,18886,33424,0.0
-3168,15730,28558,0.0
-3111,14919,27795,0.0
-3125,14469,27675,0.0
-3143,14048,27596,0.0
-3175,13698,27649,0.0
-3199,13319,27635,0.0
-3341,13413,28625,0.0
-3213,12438,27315,0.0
-3181,11871,26842,0.0
-3239,11648,27133,0.0
-3779,13089,31433,0.0
-3844,12819,31754,0.0
-3931,12611,32249,0.0
-3951,12188,32199,0.0
-3974,11779,32176,0.0
-3963,11278,31884,0.0
-3990,10896,31908,0.0
0,0,0,0.0
-4007,10045,31666,0.0
-4019,9636,31572,0.0
-4066,9320,31776,0.0
-3399,7432,26407,0.0
-3488,7269,26957,0.0
-3542,7024,27231,0.0
-3521,6634,26934,0.0
-3521,6290,26799,0.0
-3533,5971,26759,0.0
-3580,5713,26988,0.0
-3587,5390,26911,0.0
-3593,5068,26829,0.0
-3598,4748,26746,0.0
-3602,4432,26661,0.0
-3604,4117,26562,0.0
-3608,3806,26474,0.0
-3614,3502,26412,0.0
-3617,3197,26330,0.0
-3621,2896,26252,0.0
-3627,2599,26193,0.0
-3499,2219,25183,0.0
-3532,1951,25316,0.0
-3536,1668,25258,0.0
-3525,1380,25090,0.0
-3563,1111,25271,0.0
-3619,844,25580,0.0
-3645,564,25679,0.0
-3654,282,25659,0.0
-3652,0,25562,0.0
-3657,-280,25519,0.0
-3658,-559,25443,0.0
-3656,-836,25356,0.0
-3658,-1113,25290,0.0
-3657,-1387,25214,0.0
-3656,-1660,25134,0.0
-3658,-1933,25072,0.0
-3628,-2187,24799,0.0
-3655,-2475,24920,0.0
-3656,-2746,24861,0.0
-3655,-3014,24788,0.0
-3653,-3282,24715,0.0
-3649,-3546,24630,0.0
-3649,-3815,24575,0.0
-3647,-4080,24503,0.0
-3547,-4228,23771,0.0
-3549,-4492,23733,0.0
-3550,-4752,23681,0.0
-3637,-5138,24218,0.0
-3640,-5409,24181,0.0
-3634,-5668,24092,0.0
-3631,-5932,24024,0.0
-3613,-6171,23861,0.0
-3606,-6425,23763,0.0
-3620,-6722,23817,0.0
-3616,-6984,23743,0.0
-3616,-7256,23701,0.0
-3613,-7524,23643,0.0
-3517,-7589,22969,0.0
-3522,-7870,22969,0.0
-3535,-8170,23014,0.0
-3602,-8604,23418,0.0
-3583,-8835,23252,0.0
-3522,-8962,22826,0.0
-3586,-9405,23203,0.0
-3586,-9693,23178,0.0
-3583,-9969,23122,0.0
-3578,-10245,23061,0.0
-3483,-10258,22423,0.0
-3471,-10508,22317,0.0
-3559,-11069,22854,0.0
-3560,-11372,22837,0.0
-3561,-11679,22821,0.0
-3554,-11959,22752,0.0
-3553,-12264,22722,0.0
-3550,-12565,22680,0.0
-3543,-12858,22620,0.0
-3509,-13053,22387,0.0
-3439,-13103,21916,0.0
-3432,-13398,21863,0.0
-3512,-14034,22347,0.0
-3512,-14376,22343,0.0
-3500,-14664,22251,0.0
-3441,-14751,21860,0.0
-3490,-15312,22161,0.0
-3485,-15645,22123,0.0
-3481,-15986,22086,0.0
-3471,-16305,22016,0.0
-3459,-16622,21938,0.0
-3415,-16780,21650,0.0
-3363,-16901,21322,0.0
-3266,-16786,20706,0.0
-3208,-16853,20331,0.0
-3192,-17152,20236,0.0
-3207,-17618,20332,0.0
-3277,-18410,20782,0.0
-3306,-18988,20970,0.0
-3324,-19523,21092,0.0
-3340,-20057,21201,0.0
-3345,-20544,21246,0.0
-3338,-20957,21205,0.0
-3325,-21352,21138,0.0
-3311,-21750,21068,0.0
-3292,-22116,20959,0.0
-3284,-22571,20928,0.0
-10,-70,64,0.0
-3215,-23135,20532,0.0
-3197,-23541,20439,0.0
-3216,-24245,20591,0.0
-12,-92,76,0.0
-11,-93,76,0.0
-12,-96,76,0.0
-232,-1924,1495,0.0
-228,-1931,1467,0.0
-224,-1950,1449,0.0
-215,-1910,1387,0.0
-210,-1932,1370,0.0
-213,-2003,1389,0.0
-208,-2005,1358,0.0
-202,-1999,1322,0.0
-200,-2029,1311,0.0
-196,-2046,1291,0.0
-193,-2067,1274,0.0
-189,-2080,1251,0.0
-188,-2134,1252,0.0
-12,-143,81,0.0
-14,-170,94,0.0
-13,-157,85,0.0
-13,-173,91,0.0
-14,-188,97,0.0
-14,-190,96,0.0
-14,-203,99,0.0
-14,-214,102,0.0
-15,-220,101,0.0
-14,-221,99,0.0
-14,-238,104,0.0
-16,-260,110,0.0
-14,-265,108,0.0
-15,-280,112,0.0
-16,-302,116,0.0
-17,-335,125,0.0
-16,-344,125,0.0
-16,-350,122,0.0
-15,-345,116,0.0
-15,-348,113,0.0
-13,-353,111,0.0
-13,-347,105,0.0
-122,17527,17048,0.0
-161,17282,17170,0.0
-169,14327,14539,0.0
-203,14146,14666,0.0
-273,16149,17103,0.0
-305,15636,16919,0.0
-345,15569,17212,0.0
-384,15429,17428,0.0
-761,27548,31796,0.0
-800,26279,30996,0.0
-861,25843,31152,0.0
-916,25277,31144,0.0
-975,24850,31298,0.0
-667,15761,20293,0.0
-1076,23712,31218,0.0
-756,15553,20940,0.0
-781,15047,20720,0.0
-832,15061,21215,0.0
-870,14820,21359,0.0
-1266,20347,30010,0.0
-1324,20103,30349,0.0
-1355,19461,30078,0.0
-1428,19445,30777,0.0
-1477,19087,30944,0.0
-1652,20282,33690,0.0
-1692,19742,33609,0.0
-1374,15256,26626,0.0
-1764,18659,33396,0.0
-1491,15027,27595,0.0
-1527,14680,27663,0.0
-1554,14261,27591,0.0
-1584,13872,27567,0.0
-1619,13536,27641,0.0
-1647,13157,27621,0.0
-1658,12655,27325,0.0
-1612,11757,26124,0.0
-1681,11710,26794,0.0
-1949,12981,30602,0.0
-2037,12957,31493,0.0
-2076,12622,31651,0.0
-2141,12434,32190,0.0
-2159,11969,32015,0.0
-2181,11539,31921,0.0
-2205,11129,31864,0.0
-2218,10676,31667,0.0
-2243,10288,31650,0.0
-2270,9913,31664,0.0
-2288,9507,31565,0.0
-2344,9258,31995,0.0
-1982,7432,26775,0.0
-2042,7265,27322,0.0
-2057,6931,27255,0.0
-2069,6593,27161,0.0
-2081,6260,27070,0.0
-2094,5937,27011,0.0
-2105,5609,26915,0.0
-2123,5305,26919,0.0
-2131,4980,26805,0.0
-2143,4668,26748,0.0
-2152,4356,26666,0.0
-2161,4045,26578,0.0
-2171,3740,26518,0.0
-2177,3432,26409,0.0
-2185,3131,26328,0.0
-2193,2832,26256,0.0
-2104,2424,25027,0.0
-2112,2144,24978,0.0
-2119,1866,24911,0.0
-2157,1612,25213,0.0
-2147,1323,24967,0.0
-2175,1059,25153,0.0
-2227,798,25624,0.0
-2227,517,25509,0.0
-2227,237,25381,0.0
-2239,-38,25399,0.0
-2240,-315,25300,0.0
-2245,-589,25248,0.0
-2250,-863,25194,0.0
-2251,-1135,25103,0.0
-2253,-1404,25027,0.0
-2210,-1641,24461,0.0
-2211,-1902,24387,0.0
-2217,-2169,24369,0.0
-2259,-2475,24751,0.0
-2264,-2746,24719,0.0
-2265,-3012,24665,0.0
-2263,-3272,24564,0.0
-2261,-3533,24480,0.0
-2262,-3799,24433,0.0
-2262,-4062,24369,0.0
-2260,-4322,24290,0.0
-2260,-4584,24232,0.0
-2256,-4841,24142,0.0
-2254,-5101,24070,0.0
-2251,-5359,23995,0.0
-2235,-5585,23782,0.0
-2245,-5878,23858,0.0
-2249,-6151,23848,0.0
-2250,-6426,23834,0.0
-2238,-6663,23683,0.0
-2234,-6921,23610,0.0
-2187,-7045,23097,0.0
-2182,-7298,23020,0.0
-2183,-7569,23005,0.0
-2220,-7983,23397,0.0
-2220,-8262,23377,0.0
-2212,-8516,23285,0.0
-2206,-8777,23211,0.0
-2201,-9046,23156,0.0
-2194,-9312,23091,0.0
-2189,-9586,23043,0.0
-2179,-9842,22950,0.0
-2173,-10116,22894,0.0
-2164,-10382,22821,0.0
-2158,-10660,22771,0.0
-2158,-10975,22795,0.0
-2159,-11301,22831,0.0
-2153,-11590,22787,0.0
-2145,-11876,22733,0.0
-2135,-12161,22673,0.0
-2128,-12459,22634,0.0
-2116,-12741,22561,0.0
-2108,-13039,22513,0.0
-2098,-13335,22457,0.0
-2088,-13633,22400,0.0
-2077,-13934,22344,0.0
-2066,-14241,22292,0.0
-2051,-14522,22196,0.0
-1995,-14508,21658,0.0
-1979,-14789,21564,0.0
-1970,-15123,21546,0.0
-1997,-15747,21924,0.0
-1983,-16074,21873,0.0
-1968,-16389,21803,0.0
-1954,-16719,21743,0.0
-1932,-16992,21608,0.0
-1921,-17362,21592,0.0
-1916,-17817,21672,0.0
-1901,-18178,21628,0.0
-1884,-18525,21560,0.0
-1869,-18906,21526,0.0
-1848,-19247,21441,0.0
-1829,-19616,21379,0.0
-1809,-19979,21307,0.0
-1790,-20357,21243,0.0
-1770,-20748,21186,0.0
-1748,-21133,21116,0.0
-1727,-21538,21059,0.0
-1703,-21918,20970,0.0
-1679,-22323,20899,0.0
-1654,-22727,20819,0.0
-1629,-23135,20736,0.0
-1605,-23596,20693,0.0
-1575,-23984,20578,0.0
-1546,-24391,20473,0.0
-5,-85,70,0.0
-1429,-24279,19498,0.0
-108,-1895,1489,0.0
-105,-1937,1488,0.0
-99,-1895,1424,0.0
-98,-1961,1439,0.0
-96,-2003,1438,0.0
-92,-2014,1413,0.0
-85,-1937,1328,0.0
0,0,0,0.0
-79,-1982,1297,0.0
-78,-2069,1322,0.0
-75,-2101,1311,0.0
-72,-2141,1304,0.0
-65,-2052,1220,0.0
-64,-2151,1247,0.0
-58,-2099,1186,0.0
-55,-2145,1183,0.0
-51,-2174,1168,0.0
-3,-166,86,0.0
-3,-181,92,0.0
-3,-190,94,0.0
-3,-200,97,0.0
-3,-209,98,0.0
-3,-219,99,0.0
-3,-236,104,0.0
-2,-247,106,0.0
-1,-249,104,0.0
-1,-262,106,0.0
-1,-278,109,0.0
0,-304,115,0.0
0,-330,121,0.0
0,-335,119,0.0
0,-339,117,0.0
1,-343,114,0.0
2,-339,109,0.0
3,-344,106,0.0
463,15120,14780,0.0
424,14731,14710,0.0
381,14176,14459,0.0
344,13814,14393,0.0
316,13768,14656,0.0
287,13696,14894,0.0
295,15545,17272,0.0
300,17750,20151,0.0
260,17538,20344,0.0
220,17281,20486,0.0
179,17039,20644,0.0
140,16829,20839,0.0
102,16597,21009,0.0
63,16351,21160,0.0
23,14968,19807,0.0
-12,14856,20103,0.0
-50,15609,21605,0.0
-84,14882,21070,0.0
-120,14775,21405,0.0
-157,14540,21556,0.0
-216,16198,24580,0.0
-313,19435,30194,0.0
-365,19392,30852,0.0
-410,18944,30872,0.0
-496,20154,33653,0.0
-540,19590,33525,0.0
-462,15053,26412,0.0
-496,14646,26354,0.0
-532,14336,26465,0.0
-572,14132,26774,0.0
-614,13955,27145,0.0
-623,13089,26152,0.0
-661,12862,26406,0.0
-704,12742,26895,0.0
-745,12575,27302,0.0
-751,11847,26470,0.0
-800,11793,27133,0.0
-949,13112,31084,0.0
-984,12752,31170,0.0
-1044,12713,32059,0.0
-1078,12343,32141,0.0
-1108,11928,32093,0.0
-1136,11509,32024,0.0
-1156,11042,31804,0.0
-1174,10560,31512,0.0
-1200,10161,31450,0.0
-1225,9779,31426,0.0
-1257,9446,31559,0.0
-1071,7576,26349,0.0
-1129,7516,27252,0.0
-1153,7219,27327,0.0
-1170,6881,27244,0.0
-1186,6545,27147,0.0
-1202,6212,27054,0.0
-1217,5887,26976,0.0
-1233,5570,26922,0.0
-1248,5252,26850,0.0
-1261,4936,26771,0.0
-1272,4617,26664,0.0
-1287,4313,26622,0.0
-1298,4001,26513,0.0
-1309,3697,26448,0.0
-1320,3395,26371,0.0
-1331,3095,26289,0.0
-1342,2801,26237,0.0
-1292,2395,25004,0.0
-1300,2115,24940,0.0
-1309,1837,24866,0.0
-1342,1592,25273,0.0
-1342,1305,25044,0.0
-1357,1036,25135,0.0
-1385,772,25462,0.0
-1393,495,25426,0.0
-1394,218,25256,0.0
-1407,-56,25318,0.0
-1412,-330,25248,0.0
-1414,-601,25130,0.0
-1420,-872,25070,0.0
-1422,-1142,24982,0.0
-1357,-1341,23698,0.0
-1406,-1648,24423,0.0
-1408,-1909,24349,0.0
-1377,-2118,23706,0.0
-1441,-2477,24698,0.0
-1443,-2743,24650,0.0
-1444,-3006,24575,0.0
-1446,-3270,24520,0.0
-1443,-3522,24387,0.0
-1448,-3796,24407,0.0
-1447,-4052,24310,0.0
-1445,-4310,24232,0.0
-1446,-4573,24185,0.0
-1437,-4811,24004,0.0
-1443,-5093,24055,0.0
-1441,-5349,23976,0.0
-1438,-5605,23898,0.0
-1435,-5861,23823,0.0
-1429,-6105,23706,0.0
-1430,-6383,23713,0.0
-1426,-6639,23640,0.0
-1418,-6876,23501,0.0
-1394,-7033,23102,0.0
-1388,-7287,23033,0.0
-1384,-7542,22972,0.0
-1405,-7948,23349,0.0
-1401,-8214,23295,0.0
-1399,-8501,23301,0.0
-1392,-8769,23250,0.0
-1388,-9049,23224,0.0
-1381,-9316,23162,0.0
-1376,-9596,23130,0.0
-1368,-9867,23073,0.0
-1361,-10146,23028,0.0
-1353,-10422,22977,0.0
-1345,-10701,22927,0.0
-1336,-10981,22875,0.0
-1327,-11263,22824,0.0
-1319,-11558,22795,0.0
-1309,-11839,22736,0.0
-1298,-12131,22691,0.0
-1286,-12409,22618,0.0
-1276,-12703,22570,0.0
-1264,-13001,22524,0.0
-1251,-13292,22461,0.0
-1241,-13609,22438,0.0
-1226,-13897,22364,0.0
-1213,-14213,22328,0.0
-1199,-14516,22268,0.0
-1157,-14493,21713,0.0
-1110,-14379,21046,0.0
-1120,-15013,21469,0.0
-1113,-15446,21587,0.0
-1120,-16089,21979,0.0
-1103,-16418,21926,0.0
-1084,-16743,21863,0.0
-1066,-17080,21808,0.0
-1046,-17415,21745,0.0
-1026,-17743,21672,0.0
-1005,-18102,21628,0.0
-983,-18438,21550,0.0
-962,-18807,21505,0.0
-940,-19165,21442,0.0
-915,-19521,21369,0.0
-893,-19912,21329,0.0
-868,-20267,21244,0.0
-842,-20652,21183,0.0
-814,-21015,21094,0.0
-787,-21417,21036,0.0
-760,-21825,20979,0.0
-731,-22236,20916,0.0
-701,-22610,20811,0.0
-670,-23025,20738,0.0
-638,-23476,20689,0.0
-605,-23878,20589,0.0
-571,-24302,20501,0.0
-525,-24225,19992,0.0
-479,-24138,19485,0.0
-34,-1899,1499,0.0
-32,-1935,1495,0.0
-28,-1903,1438,0.0
-24,-1933,1427,0.0
-21,-1954,1411,0.0
-18,-1961,1383,0.0
-15,-1986,1368,0.0
-12,-2026,1365,0.0
0,0,0,0.0
0,0,0,0.0
-1,-2055,1290,0.0
1,-2111,1294,0.0
4,-2140,1279,0.0
9,-2129,1243,0.0
12,-2132,1214,0.0
1,-161,89,0.0
0,-165,89,0.0
1,-174,92,0.0
1,-173,89,0.0
2,-206,102,0.0
3,-196,95,0.0
3,-214,102,0.0
4,-227,104,0.0
4,-242,107,0.0
5,-247,106,0.0
6,-262,110,0.0
6,-253,104,0.0
7,-260,102,0.0
8,-298,114,0.0
10,-337,125,0.0
10,-345,124,0.0
11,-348,121,0.0
12,-353,118,0.0
12,-348,112,0.0
13,-351,110,0.0
1028,15011,14731,0.0
996,14819,14854,0.0
941,14298,14640,0.0
893,13827,14463,0.0
868,13758,14701,0.0
843,13639,14889,0.0
939,15532,17324,0.0
802,13594,15492,0.0
774,13441,15653,0.0
744,13240,15757,0.0
1403,25604,31142,0.0
1001,18773,23339,0.0
967,18641,23690,0.0
798,15850,20593,0.0
730,14933,19839,0.0
752,15874,21566,0.0
715,15600,21677,0.0
651,14700,20896,0.0
625,14640,21293,0.0
595,14471,21540,0.0
638,16147,24600,0.0
602,15919,24832,0.0
566,15657,25011,0.0
532,15433,25253,0.0
505,15427,25865,0.0
470,15183,26090,0.0
433,14854,26169,0.0
382,14009,25311,0.0
356,14016,25980,0.0
324,13807,26269,0.0
289,13444,26263,0.0
257,13206,26498,0.0
224,12843,26482,0.0
194,12726,26978,0.0
163,12514,27287,0.0
130,12098,27151,0.0
99,11729,27106,0.0
83,13601,32386,0.0
46,13002,31925,0.0
12,12695,32159,0.0
-21,12284,32133,0.0
-53,11849,32029,0.0
-85,11455,32022,0.0
0,0,0,0.0
0,0,0,0.0
-174,10201,31727,0.0
-200,9733,31434,0.0
-229,9400,31564,0.0
-214,7539,26355,0.0
-237,7280,26530,0.0
-266,7158,27237,0.0
-286,6833,27194,0.0
-306,6500,27103,0.0
-325,6172,27024,0.0
-343,5852,26966,0.0
-362,5527,26868,0.0
-379,5216,26822,0.0
-395,4900,26740,0.0
-411,4591,26676,0.0
-427,4280,26592,0.0
-442,3970,26490,0.0
-456,3669,26427,0.0
-469,3367,26342,0.0
-481,3069,26269,0.0
-494,2774,26206,0.0
-506,2478,26096,0.0
-498,2106,25056,0.0
-519,1868,25545,0.0
-527,1578,25346,0.0
-531,1288,25052,0.0
-545,1022,25201,0.0
-562,759,25545,0.0
-571,481,25472,0.0
-577,204,25328,0.0
-588,-69,25389,0.0
-592,-343,25280,0.0
-599,-615,25245,0.0
-605,-885,25145,0.0
-606,-1146,24889,0.0
0,0,0,0.0
-605,-1652,24363,0.0
-610,-1914,24333,0.0
-600,-2126,23733,0.0
-626,-2467,24553,0.0
-633,-2747,24650,0.0
-635,-3013,24614,0.0
-638,-3274,24544,0.0
-638,-3530,24436,0.0
-636,-3776,24279,0.0
-640,-4059,24360,0.0
-641,-4321,24304,0.0
-639,-4573,24203,0.0
-638,-4823,24086,0.0
-638,-5088,24056,0.0
-636,-5348,23999,0.0
-633,-5598,23899,0.0
-631,-5859,23849,0.0
-626,-6095,23699,0.0
-623,-6346,23617,0.0
-619,-6603,23552,0.0
-604,-6741,23076,0.0
-574,-6697,22040,0.0
-570,-6949,22008,0.0
-566,-7196,21959,0.0
-591,-7849,23105,0.0
-588,-8154,23175,0.0
-585,-8457,23231,0.0
-579,-8732,23202,0.0
-558,-8783,22592,0.0
-540,-8884,22138,0.0
-530,-9109,22009,0.0
-546,-9798,22969,0.0
-538,-10071,22917,0.0
-529,-10362,22901,0.0
-520,-10651,22879,0.0
-509,-10923,22815,0.0
-499,-11226,22811,0.0
-487,-11508,22759,0.0
-476,-11790,22705,0.0
-463,-12079,22657,0.0
-450,-12364,22599,0.0
-437,-12658,22555,0.0
-423,-12961,22521,0.0
-407,-13236,22435,0.0
-392,-13536,22387,0.0
-377,-13841,22341,0.0
-361,-14153,22301,0.0
-344,-14454,22240,0.0
-322,-14582,21917,0.0
-296,-14446,21211,0.0
-281,-14958,21461,0.0
-261,-15207,21324,0.0
-244,-15695,21511,0.0
-229,-16324,21872,0.0
-207,-16651,21816,0.0
-185,-16995,21774,0.0
-152,-16286,20406,0.0
-130,-16571,20310,0.0
-113,-18001,21582,0.0
-88,-18357,21532,0.0
-63,-18715,21477,0.0
-35,-19068,21410,0.0
-7,-19430,21348,0.0
20,-19807,21296,0.0
50,-20161,21212,0.0
80,-20531,21139,0.0
103,-19388,19535,0.0
134,-19770,19496,0.0
164,-20073,19370,0.0
194,-20348,19215,0.0
224,-20513,18956,0.0
255,-20635,18661,0.0
291,-21238,18793,0.0
359,-23756,20569,0.0
399,-24176,20479,0.0
391,-21859,18115,0.0
427,-22177,17979,0.0
465,-22523,17861,0.0
503,-22909,17768,0.0
539,-23071,17499,0.0
46,-1907,1414,0.0
49,-1908,1383,0.0
54,-1997,1415,0.0
56,-1978,1370,0.0
61,-2032,1375,0.0
62,-2005,1326,0.0
66,-2057,1329,0.0
0,0,0,0.0
72,-2043,1257,0.0
77,-2097,1260,0.0
80,-2118,1242,0.0
84,-2151,1231,0.0
87,-2153,1201,0.0
88,-2096,1140,0.0
6,-154,81,0.0
7,-177,90,0.0
8,-194,97,0.0
9,-197,95,0.0
9,-199,95,0.0
10,-208,96,0.0
11,-225,101,0.0
11,-233,102,0.0
12,-234,99,0.0
13,-258,106,0.0
14,-263,105,0.0
16,-286,110,0.0
19,-329,123,0.0
20,-335,121,0.0
21,-339,119,0.0
21,-343,116,0.0
22,-338,110,0.0
22,-341,107,0.0
1315,14002,13769,0.0
1568,16871,16945,0.0
1313,14276,14647,0.0
1264,13883,14550,0.0
1239,13754,14727,0.0
1215,13620,14898,0.0
1370,15522,17346,0.0
1602,18359,20964,0.0
1675,19407,22644,0.0
1248,14616,17429,0.0
1122,13297,16205,0.0
1629,19519,24314,0.0
1597,19354,24644,0.0
1560,19128,24902,0.0
1202,14903,19839,0.0
1183,14852,20218,0.0
1221,15515,21604,0.0
1138,14629,20837,0.0
1127,14666,21375,0.0
1098,14460,21568,0.0
1499,20001,30538,0.0
1250,16893,26406,0.0
1225,16768,26842,0.0
1178,16327,26775,0.0
1138,15993,26873,0.0
1105,15726,27080,0.0
1071,15453,27283,0.0
995,14564,26371,0.0
954,14163,26311,0.0
911,13714,26147,0.0
866,13230,25901,0.0
836,12964,26068,0.0
861,13555,28010,0.0
841,13428,28530,0.0
818,13284,29032,0.0
871,14377,32339,0.0
833,13974,32370,0.0
763,12997,31020,0.0
743,12870,31672,0.0
718,12659,32143,0.0
682,12244,32103,0.0
647,11834,32065,0.0
612,11402,31951,0.0
580,11005,31924,0.0
547,10579,31800,0.0
515,10188,31764,0.0
480,9707,31430,0.0
455,9380,31575,0.0
359,7562,26501,0.0
342,7394,27016,0.0
322,7113,27138,0.0
300,6802,27143,0.0
278,6484,27116,0.0
257,6157,27035,0.0
236,5830,26941,0.0
200,5093,24831,0.0
197,5199,26815,0.0
179,4891,26769,0.0
151,4295,25036,0.0
141,4191,26120,0.0
127,3956,26483,0.0
112,3656,26428,0.0
96,3354,26337,0.0
82,3057,26273,0.0
68,2762,26193,0.0
55,2467,26102,0.0
41,2096,25068,0.0
30,1886,25932,0.0
18,1581,25543,0.0
7,1280,25069,0.0
-2,1020,25340,0.0
-11,703,23908,0.0
-20,444,23865,0.0
-28,187,23908,0.0
-36,-71,23871,0.0
-46,-350,25372,0.0
-54,-622,25321,0.0
-59,-881,24887,0.0
-66,-1160,25101,0.0
-72,-1427,25018,0.0
-75,-1652,24325,0.0
-79,-1911,24266,0.0
0,0,0,0.0
-90,-2499,24850,0.0
-93,-2763,24780,0.0
-96,-3023,24688,0.0
-98,-3287,24633,0.0
-100,-3536,24482,0.0
-101,-3805,24470,0.0
-102,-4071,24440,0.0
-103,-4330,24364,0.0
-102,-4587,24288,0.0
-102,-4843,24205,0.0
-102,-5107,24162,0.0
-100,-5365,24093,0.0
-98,-5623,24031,0.0
-95,-5878,23947,0.0
-93,-6110,23782,0.0
-90,-6393,23815,0.0
-85,-6616,23622,0.0
-80,-6794,23287,0.0
-77,-7145,23542,0.0
-72,-7414,23509,0.0
-64,-7417,22661,0.0
-60,-7911,23317,0.0
-54,-8215,23380,0.0
-47,-8451,23245,0.0
-39,-8740,23255,0.0
-30,-8694,22394,0.0
-22,-9284,23169,0.0
-14,-9561,23136,0.0
-4,-9826,23066,0.0
5,-9720,22152,0.0
14,-9805,21705,0.0
25,-10067,21657,0.0
36,-10312,21573,0.0
50,-11217,22830,0.0
63,-11470,22720,0.0
76,-11772,22706,0.0
90,-12050,22641,0.0
104,-12349,22610,0.0
119,-12619,22523,0.0
135,-12883,22422,0.0
145,-12681,21530,0.0
158,-12706,21049,0.0
175,-13004,21026,0.0
192,-13268,20945,0.0
209,-13532,20861,0.0
227,-13815,20801,0.0
246,-14100,20742,0.0
265,-14383,20674,0.0
286,-14681,20623,0.0
307,-14979,20568,0.0
328,-15266,20495,0.0
350,-15562,20428,0.0
370,-15732,20194,0.0
385,-15711,19724,0.0
402,-15732,19320,0.0
425,-16005,19227,0.0
450,-16314,19173,0.0
475,-16617,19108,0.0
502,-16944,19064,0.0
529,-17234,18975,0.0
557,-17570,18929,0.0
586,-17887,18860,0.0
616,-18218,18796,0.0
646,-18545,18727,0.0
678,-18880,18657,0.0
709,-19189,18558,0.0
743,-19557,18509,0.0
778,-19920,18449,0.0
812,-20258,18361,0.0
849,-20613,18282,0.0
885,-20966,18194,0.0
924,-21328,18109,0.0
965,-21732,18052,0.0
1005,-22109,17966,0.0
1048,-22507,17890,0.0
1090,-22893,17798,0.0
1123,-23060,17533,0.0
97,-1957,1454,0.0
102,-2025,1471,0.0
101,-1957,1390,0.0
106,-2013,1398,0.0
109,-2031,1378,0.0
112,-2048,1358,0.0
118,-2093,1355,0.0
117,-2040,1290,0.0
0,0,0,0.0
128,-2150,1295,0.0
129,-2129,1252,0.0
133,-2147,1232,0.0
136,-2149,1203,0.0
10,-162,88,0.0
10,-171,91,0.0
11,-170,88,0.0
12,-189,95,0.0
13,-204,100,0.0
15,-218,103,0.0
16,-230,106,0.0
16,-226,102,0.0
18,-256,113,0.0
19,-257,109,0.0
20,-268,110,0.0
21,-274,110,0.0
23,-295,114,0.0
27,-340,128,0.0
27,-345,125,0.0
28,-353,124,0.0
29,-356,121,0.0
30,-354,116,0.0
30,-357,113,0.0
2383,13970,13775,0.0
2373,13897,13996,0.0
2369,13848,14247,0.0
2362,13789,14492,0.0
2354,13725,14736,0.0
2327,13542,14855,0.0
2163,12565,14082,0.0
2183,12652,14489,0.0
2180,12598,14742,0.0
2199,12675,15159,0.0
2216,12735,15565,0.0
2219,12712,15883,0.0
2239,12784,16328,0.0
2248,12786,16696,0.0
2263,12819,17116,0.0
2283,12875,17582,0.0
2511,14094,19687,0.0
2508,14003,20010,0.0
2511,13946,20390,0.0
2557,14125,21136,0.0
2518,13822,21173,0.0
2484,13548,21249,0.0
2422,13119,21071,0.0
2370,12748,20975,0.0
2323,12394,20895,0.0
2309,12218,21112,0.0
2312,12131,21492,0.0
2790,14505,26359,0.0
2734,14075,26240,0.0
2668,13597,26017,0.0
2372,11958,23493,0.0
2565,12781,25793,0.0
2453,12081,25057,0.0
2412,11729,25010,0.0
2422,11625,25500,0.0
2410,11406,25751,0.0
2393,11156,25938,0.0
2385,10946,26223,0.0
2387,10776,26622,0.0
2655,11778,30021,0.0
2793,12165,32019,0.0
2746,11738,31927,0.0
2723,11403,32081,0.0
2665,10923,31811,0.0
2620,10497,31678,0.0
2575,10075,31538,0.0
2530,9651,31377,0.0
1929,7165,24220,0.0
1900,6862,24152,0.0
1874,6567,24097,0.0
1850,6282,24070,0.0
1821,5980,23966,0.0
1797,5695,23920,0.0
1774,5410,23861,0.0
1751,5128,23804,0.0
1729,4850,23756,0.0
1707,4570,23683,0.0
1688,4299,23648,0.0
1668,4025,23584,0.0
1649,3755,23530,0.0
1629,3485,23454,0.0
1610,3218,23386,0.0
1594,2956,23350,0.0
1576,2692,23272,0.0
1560,2433,23220,0.0
1545,2174,23157,0.0
1530,1919,23105,0.0
1517,1665,23060,0.0
1504,1412,23004,0.0
1491,1161,22945,0.0
1478,911,22882,0.0
1468,663,22837,0.0
1457,416,22785,0.0
1446,170,22721,0.0
1433,-73,22596,0.0
1430,-318,22654,0.0
1486,-585,23628,0.0
1521,-863,24258,0.0
1597,-1183,25544,0.0
2167,-1984,34739,1.0
0,0,0,0.0
0,0,0,0.0
2185,-3154,35203,1.0
2188,-3545,35291,1.0
2193,-3939,35383,1.0
0,0,0,0.0
2205,-4740,35585,1.0
0,0,0,0.0
2202,-5505,35473,1.0
2220,-5936,35714,1.0
2243,-6389,36037,1.0
0,0,0,0.0
2268,-7235,36254,1.0
2306,-7745,36743,1.0
0,0,0,0.0
2333,-8613,36909,1.0
0,0,0,0.0
2356,-9470,36970,1.0
2365,-9882,36918,1.0
2373,-10285,36833,1.0
2395,-10758,36986,1.0
2384,-11070,36585,1.0
2369,-11352,36111,1.0
2348,-11601,35561,1.0
2370,-12052,35638,1.0
0,0,0,0.0
0,0,0,0.0
2436,-13392,35755,1.0
0,0,0,0.0
2439,-14042,35168,1.0
2433,-14308,34742,1.0
2434,-14612,34422,1.0
2458,-15042,34402,1.0
2480,-15469,34365,1.0
2493,-15819,34156,1.0
2504,-16160,33932,1.0
2504,-16418,33538,1.0
0,0,0,0.0
0,0,0,0.0
2515,-17213,32464,1.0
2537,-17591,32332,1.0
0,0,0,0.0
2567,-18226,31848,1.0
2584,-18554,31624,1.0
2591,-18786,31245,1.0
2601,-19040,30909,1.0
0,0,0,0.0
0,0,0,0.0
0,0,0,0.0
2670,-20213,29855,1.0
2690,-20503,29590,1.0
2065,-15845,22350,0.0
2050,-15825,21820,0.0
2022,-15694,21156,0.0
1994,-15561,20512,0.0
2005,-15718,20263,0.0
1989,-15657,19741,0.0
1976,-15622,19265,0.0
2006,-15910,19195,0.0
2038,-16223,19149,0.0
2067,-16499,19054,0.0
2102,-16815,19002,0.0
2139,-17154,18970,0.0
2172,-17450,18884,0.0
2209,-17762,18810,0.0
2248,-18099,18758,0.0
2287,-18433,18697,0.0
2325,-18751,18615,0.0
2364,-19075,18531,0.0
2407,-19418,18463,0.0
2449,-19759,18385,0.0
2494,-20117,18318,0.0
2542,-20484,18253,0.0
2587,-20833,18164,0.0
2638,-21220,18103,0.0
2685,-21572,18006,0.0
2736,-21952,17925,0.0
2789,-22333,17839,0.0
2842,-22717,17748,0.0
2891,-23056,17616,0.0
245,-1955,1461,0.0
246,-1961,1432,0.0
251,-1995,1425,0.0
253,-2008,1402,0.0
261,-2064,1408,0.0
0,0,0,0.0
250,-1956,1274,0.0
257,-2009,1277,0.0
0,0,0,0.0
0,0,0,0.0
269,-2079,1228,0.0
0,0,0,0.0
278,-2135,1201,0.0
279,-2126,1166,0.0
287,-2177,1165,0.0
22,-170,88,0.0
23,-183,92,0.0
24,-182,89,0.0
27,-206,99,0.0
28,-212,99,0.0
29,-219,99,0.0
30,-231,101,0.0
32,-239,101,0.0
35,-257,106,0.0
38,-277,111,0.0
38,-281,109,0.0
44,-319,120,0.0
49,-354,130,0.0
48,-340,120,0.0
49,-348,118,0.0
49,-353,116,0.0
49,-345,110,0.0
-3733,16538,15219,0.0
-3813,16481,15496,0.0
-3895,16430,15781,0.0
-3975,16366,16061,0.0
-4044,16246,16290,0.0
-4133,16202,16600,0.0
-4098,15678,16412,0.0
-4269,15941,17050,0.0
-4284,15610,17063,0.0
-4292,15262,17048,0.0
-4579,15887,18138,0.0
-4676,15832,18476,0.0
-4772,15765,18806,0.0
-4840,15598,19023,0.0
-4966,15611,19467,0.0
-4980,15273,19477,0.0
-5002,14962,19513,0.0
-5041,14704,19617,0.0
-5370,15274,20848,0.0
-5490,15224,21262,0.0
-5602,15141,21643,0.0
-5714,15051,22026,0.0
-5836,14980,22444,0.0
-5953,14887,22844,0.0
-6069,14780,23235,0.0
-6168,14625,23559,0.0
-6306,14553,24031,0.0
-6234,14001,23705,0.0
-6356,13886,24112,0.0
-6393,13584,24203,0.0
-8854,18289,33447,0.0
-8842,17749,33329,0.0
-8836,17227,33232,0.0
-8821,16700,33107,0.0
-8834,16229,33083,0.0
-8822,15722,32969,0.0
-8237,14230,30716,0.0
-8234,13783,30641,0.0
-8247,13371,30629,0.0
-8269,12973,30645,0.0
-8694,13190,32150,0.0
-8755,12837,32312,0.0
-8779,12429,32334,0.0
0,0,0,0.0
-8694,11446,31889,0.0
0,0,0,0.0
0,0,0,0.0
0,0,0,0.0
-8668,9749,31534,0.0
-8738,9419,31727,0.0
-7309,7541,26484,0.0
-7320,7217,26470,0.0
-7368,6930,26592,0.0
-7527,6741,27112,0.0
-7606,6472,27339,0.0
-7605,6134,27279,0.0
-7587,5787,27162,0.0
-7577,5449,27070,0.0
-7557,5109,26945,0.0
-7564,4790,26915,0.0
-7357,4345,26123,0.0
-7411,4065,26262,0.0
-7535,3817,26649,0.0
-7539,3505,26608,0.0
-7527,3188,26511,0.0
-7512,2873,26404,0.0
-7470,2551,26203,0.0
-7214,2171,25252,0.0
-7426,1935,25941,0.0
-7284,1605,25391,0.0
-7223,1303,25125,0.0
-7297,1025,25333,0.0
-7425,750,25720,0.0
-7458,459,25782,0.0
-7458,166,25727,0.0
-7450,-124,25647,0.0
-7439,-413,25551,0.0
-7431,-702,25469,0.0
-7312,-973,25008,0.0
-7422,-1273,25332,0.0
-7287,-1530,24815,0.0
-7252,-1800,24643,0.0
-7105,-2035,24087,0.0
-7406,-2404,25052,0.0
-7399,-2684,24974,0.0
-7393,-2961,24898,0.0
-7381,-3237,24804,0.0
-7307,-3480,24499,0.0
-7305,-3756,24433,0.0
-7383,-4075,24639,0.0
-7374,-4347,24553,0.0
-7373,-4625,24493,0.0
-7364,-4896,24403,0.0
-7359,-5170,24333,0.0
-7354,-5443,24257,0.0
-7351,-5717,24187,0.0
-7344,-5989,24108,0.0
-7282,-6210,23842,0.0
-7295,-6496,23828,0.0
-7332,-6806,23889,0.0
-7328,-7080,23816,0.0
-7338,-7366,23788,0.0
-7330,-7635,23701,0.0
-7328,-7912,23636,0.0
-7332,-8194,23584,0.0
-7324,-8465,23497,0.0
-7303,-8718,23366,0.0
-7308,-9004,23321,0.0
-7312,-9289,23269,0.0
-7332,-9597,23271,0.0
-7281,-9810,23043,0.0
-7334,-10165,23145,0.0
-7340,-10460,23101,0.0
-7297,-10683,22899,0.0
-7344,-11039,22977,0.0
-7346,-11331,22917,0.0
-7363,-11646,22898,0.0
-7359,-11934,22821,0.0
-7355,-12218,22736,0.0
-7379,-12555,22740,0.0
-7389,-12870,22701,0.0
-7359,-13115,22536,0.0
-7363,-13421,22475,0.0
-7327,-13655,22292,0.0
-7407,-14109,22458,0.0
-7427,-14455,22444,0.0
-7262,-14437,21872,0.0
-7090,-14394,21280,0.0
-7263,-15054,21723,0.0
-7347,-15540,21896,0.0
-7307,-15769,21695,0.0
-7456,-16413,22055,0.0
-7474,-16779,22027,0.0
-7484,-17130,21970,0.0
-7490,-17475,21902,0.0
-7501,-17839,21850,0.0
-7508,-18195,21783,0.0
-7515,-18555,21714,0.0
-7527,-18929,21657,0.0
-7516,-19253,21535,0.0
-7545,-19679,21522,0.0
-7559,-20075,21468,0.0
-7568,-20463,21398,0.0
-7583,-20868,21340,0.0
-7500,-21009,21010,0.0
-7533,-21476,21002,0.0
-7604,-22060,21097,0.0
-7614,-22476,21020,0.0
-7628,-22907,20950,0.0
-7645,-23356,20889,0.0
-7632,-23718,20742,0.0
-7494,-23688,20256,0.0
-7397,-23782,19884,0.0
-7366,-24087,19689,0.0
-554,-1844,1474,0.0
-559,-1891,1476,0.0
-547,-1882,1437,0.0
-532,-1861,1389,0.0
-526,-1873,1365,0.0
-528,-1914,1363,0.0
-534,-1965,1367,0.0
-537,-2011,1367,0.0
-526,-2003,1329,0.0
-510,-1976,1280,0.0
-518,-2038,1289,0.0
-508,-2036,1256,0.0
0,0,0,0.0
-497,-2057,1208,0.0
-498,-2095,1200,0.0
-483,-2070,1155,0.0
-495,-2158,1173,0.0
-482,-2136,1131,0.0
-477,-2148,1108,0.0
-36,-172,86,0.0
-38,-182,88,0.0
-39,-191,91,0.0
-41,-203,93,0.0
-44,-218,98,0.0
-44,-224,97,0.0
-50,-257,108,0.0
-52,-273,111,0.0
-55,-291,116,0.0
-56,-304,117,0.0
-60,-334,125,0.0
-61,-341,123,0.0
-59,-338,118,0.0
-59,-343,115,0.0
-57,-339,110,0.0
-56,-341,106,0.0
-56,-346,104,0.0
-54,-340,98,0.0
-53,-344,95,0.0
-2940,16492,15424,0.0
-3008,16423,15690,0.0
-3080,16369,15978,0.0
-3155,16318,16272,0.0
-3226,16244,16549,0.0
-3300,16180,16841,0.0
-3373,16099,17121,0.0
-3445,16009,17397,0.0
-3522,15938,17698,0.0
-3539,15597,17699,0.0
-3568,15315,17762,0.0
-3721,15556,18441,0.0
-3847,15661,18978,0.0
-3937,15608,19337,0.0
-4030,15557,19707,0.0
-4116,15473,20043,0.0
-4187,15326,20303,0.0
-4244,15125,20497,0.0
-4258,14773,20483,0.0
-4276,14441,20488,0.0
-4582,15061,21870,0.0
-4682,14978,22266,0.0
-4787,14898,22676,0.0
-4892,14810,23089,0.0
-4997,14716,23503,0.0
-5103,14612,23915,0.0
-5215,14519,24359,0.0
-5306,14358,24700,0.0
-5425,14262,25167,0.0
-5463,13949,25257,0.0
-5451,13515,25117,0.0
-5813,13989,26700,0.0
-5948,13889,27234,0.0
-6079,13766,27744,0.0
-6209,13633,28254,0.0
-6334,13475,28732,0.0
-6435,13258,29101,0.0
-6547,13060,29524,0.0
-6737,13000,30288,0.0
-6904,12879,30948,0.0
-7099,12794,31728,0.0
-7260,12633,32360,0.0
-7251,12172,32226,0.0
-7212,11670,31964,0.0
-7222,11254,31920,0.0
0,0,0,0.0
-7226,10412,31765,0.0
-7245,10023,31766,0.0
-7239,9602,31651,0.0
-7311,9287,31887,0.0
-6186,7513,26907,0.0
-6335,7345,27485,0.0
-6337,7003,27422,0.0
-6334,6658,27339,0.0
-6325,6311,27231,0.0
-6320,5972,27140,0.0
-6322,5643,27082,0.0
-6326,5319,27031,0.0
-6318,4987,26929,0.0
-6315,4664,26854,0.0
-6305,4339,26748,0.0
-6305,4021,26681,0.0
-6299,3706,26592,0.0
-6297,3393,26518,0.0
-6300,3086,26468,0.0
-6293,2777,26377,0.0
-6282,2468,26268,0.0
-6038,2083,25187,0.0
-6201,1843,25807,0.0
-6152,1538,25542,0.0
-6106,1238,25293,0.0
-6142,958,25381,0.0
-6237,682,25716,0.0
-6230,392,25628,0.0
-6228,104,25562,0.0
-6240,-182,25552,0.0
-6251,-468,25539,0.0
-6242,-752,25442,0.0
-6235,-1034,25353,0.0
-6234,-1316,25294,0.0
-6223,-1595,25188,0.0
-6175,-1860,24937,0.0
-6196,-2145,24965,0.0
-6227,-2434,25035,0.0
-6218,-2707,24938,0.0
-6218,-2985,24882,0.0
-6216,-3261,24818,0.0
-6205,-3530,24715,0.0
-6206,-3806,24665,0.0
-6201,-4078,24588,0.0
-6193,-4347,24499,0.0
-6191,-4619,24436,0.0
-6192,-4894,24382,0.0
-6176,-5154,24261,0.0
-6182,-5433,24230,0.0
-6178,-5703,24159,0.0
-6172,-5969,24076,0.0
-6164,-6234,23990,0.0
-6163,-6507,23928,0.0
-6168,-6786,23892,0.0
-6164,-7056,23821,0.0
-6162,-7329,23758,0.0
-6153,-7592,23665,0.0
-6150,-7864,23597,0.0
-6159,-8152,23575,0.0
-6154,-8422,23497,0.0
-6151,-8696,23429,0.0
-6133,-8948,23304,0.0
-6132,-9224,23241,0.0
-6125,-9494,23158,0.0
-6129,-9780,23115,0.0
-6133,-10069,23073,0.0
-6137,-10358,23029,0.0
-6138,-10646,22975,0.0
-6137,-10930,22913,0.0
-6141,-11225,22867,0.0
-6147,-11526,22831,0.0
-6155,-11832,22799,0.0
-6154,-12124,22736,0.0
-6169,-12450,22729,0.0
-6169,-12746,22664,0.0
-6177,-13062,22631,0.0
-6181,-13375,22586,0.0
-6182,-13681,22525,0.0
-6180,-13984,22457,0.0
-6188,-14313,22421,0.0
-6190,-14629,22362,0.0
-6170,-14897,22227,0.0
-6193,-15271,22244,0.0
-6195,-15597,22186,0.0
-6193,-15914,22108,0.0
-6202,-16265,22072,0.0
-6205,-16602,22012,0.0
-6206,-16940,21948,0.0
-6211,-17293,21898,0.0
-6212,-17637,21831,0.0
-6218,-18001,21781,0.0
-6218,-18348,21704,0.0
-6221,-18710,21642,0.0
-6227,-19086,21587,0.0
-6228,-19453,21516,0.0
-6232,-19836,21456,0.0
-6236,-20222,21393,0.0
-6242,-20616,21331,0.0
-6234,-20973,21226,0.0
-6244,-21394,21178,0.0
-6247,-21801,21107,0.0
-25,-90,86,0.0
-28,-102,94,0.0
-25,-92,83,0.0
-24,-91,82,0.0
-22,-85,73,0.0
-24,-94,80,0.0
-6127,-24258,20103,0.0
-5992,-24156,19572,0.0
-454,-1866,1479,0.0
-445,-1865,1444,0.0
-436,-1856,1405,0.0
-438,-1900,1405,0.0
-442,-1950,1411,0.0
-425,-1909,1349,0.0
-429,-1966,1357,0.0
-429,-2001,1349,0.0
-422,-2005,1319,0.0
-415,-2007,1290,0.0
-407,-2001,1256,0.0
-403,-2019,1235,0.0
-398,-2032,1213,0.0
-409,-2129,1241,0.0
-401,-2126,1208,0.0
-391,-2112,1170,0.0
-398,-2190,1182,0.0
-27,-155,82,0.0
-29,-170,86,0.0
-29,-172,86,0.0
-30,-182,88,0.0
-32,-197,93,0.0
-36,-222,102,0.0
-34,-218,97,0.0
-35,-231,100,0.0
-38,-252,106,0.0
-40,-270,109,0.0
-43,-295,117,0.0
-44,-312,118,0.0
-45,-327,121,0.0
-45,-335,120,0.0
-44,-333,114,0.0
-44,-335,112,0.0
-43,-339,109,0.0
-42,-334,104,0.0
-41,-337,100,0.0
-39,-330,94,0.0
-4984,35043,33123,0.0
-4947,33741,32580,0.0
-2748,18184,17937,0.0
-2800,17978,18116,0.0
-2793,17410,17924,0.0
-2780,16828,17700,0.0
-2786,16372,17594,0.0
-2778,15854,17409,0.0
-2829,15685,17601,0.0
-2799,15076,17288,0.0
-2903,15199,17812,0.0
-2988,15196,18202,0.0
-3019,14926,18277,0.0
-3597,17278,21628,0.0
-3565,16643,21303,0.0
-3640,16519,21621,0.0
-3669,16182,21662,0.0
-3516,15071,20638,0.0
-3506,14603,20458,0.0
-3570,14449,20714,0.0
-3628,14269,20937,0.0
-3898,14894,22373,0.0
-5383,19989,30746,0.0
-5473,19739,31098,0.0
-5479,19191,30975,0.0
-4288,14583,24120,0.0
-4370,14429,24465,0.0
-4471,14332,24919,0.0
-4560,14184,25296,0.0
-4673,14099,25802,0.0
-4656,13625,25595,0.0
-4762,13510,26065,0.0
-5037,13849,27450,0.0
-5147,13712,27935,0.0
-5248,13538,28364,0.0
-5383,13442,28978,0.0
-5443,13148,29180,0.0
-5572,13017,29759,0.0
-5669,12800,30162,0.0
-5945,12964,31508,0.0
-6112,12866,32276,0.0
-6120,12426,32198,0.0
-6130,11995,32130,0.0
-6099,11495,31860,0.0
-6015,10908,31313,0.0
-6116,10661,31722,0.0
-6134,10267,31708,0.0
-6161,9891,31739,0.0
-6155,9469,31610,0.0
-6269,9227,32089,0.0
-6436,9051,32838,0.0
-5392,7234,27424,0.0
-5398,6895,27365,0.0
-5389,6541,27232,0.0
-5395,6211,27180,0.0
-5134,5594,25789,0.0
-5144,5289,25762,0.0
