//X,Y,Z,Classification
455.0,-1619.0,1660.0,0.0
453.0,-1578.0,1654.0,0.0
458.0,-1569.0,1681.0,0.0
456.0,-1531.0,1677.0,0.0
462.0,-1519.0,1702.0,0.0
481.0,-1555.0,1780.0,0.0
475.0,-1505.0,1763.0,0.0
7577.0,-23563.0,28221.0,1.0
473.0,-1442.0,1768.0,0.0
476.0,-1422.0,1782.0,0.0
485.0,-1419.0,1820.0,0.0
7999.0,-22973.0,30136.0,1.0
474.0,-1335.0,1792.0,0.0
472.0,-1300.0,1788.0,0.0
481.0,-1299.0,1828.0,0.0
489.0,-1291.0,1860.0,0.0
484.0,-1254.0,1850.0,0.0
487.0,-1235.0,1866.0,0.0
8385.0,-20799.0,32199.0,1.0
0.0,0.0,0.0,0.0
490.0,-1161.0,1889.0,0.0
8601.0,-19963.0,33293.0,1.0
500.0,-1133.0,1940.0,0.0
8684.0,-19251.0,33792.0,1.0
500.0,-1083.0,1951.0,0.0
8752.0,-18503.0,34233.0,1.0
495.0,-1021.0,1942.0,0.0
506.0,-1020.0,1992.0,0.0
505.0,-991.0,1990.0,0.0
0.0,0.0,0.0,0.0
8631.0,-16084.0,34191.0,1.0
509.0,-921.0,2018.0,0.0
8657.0,-15284.0,34468.0,1.0
8757.0,-15034.0,34955.0,1.0
512.0,-852.0,2046.0,0.0
8903.0,-14425.0,35718.0,1.0
8998.0,-14145.0,36186.0,1.0
508.0,-775.0,2050.0,0.0
501.0,-738.0,2023.0,0.0
9022.0,-12892.0,36554.0,1.0
0.0,0.0,0.0,0.0
9087.0,-12127.0,37005.0,1.0
9191.0,-11832.0,37521.0,1.0
521.0,-645.0,2130.0,0.0
9271.0,-11064.0,38035.0,1.0
524.0,-601.0,2157.0,0.0
515.0,-565.0,2121.0,0.0
534.0,-561.0,2206.0,0.0
523.0,-524.0,2164.0,0.0
510.0,-489.0,2121.0,0.0
529.0,-482.0,2200.0,0.0
8927.0,-7737.0,37270.0,1.0
516.0,-422.0,2157.0,0.0
8828.0,-6828.0,37046.0,1.0
524.0,-380.0,2201.0,0.0
8581.0,-5835.0,36192.0,1.0
8480.0,-5371.0,35861.0,1.0
519.0,-305.0,2199.0,0.0
523.0,-283.0,2224.0,0.0
508.0,-250.0,2163.0,0.0
507.0,-225.0,2164.0,0.0
517.0,-206.0,2215.0,0.0
4836.0,-1696.0,20768.0,0.0
4480.0,-1358.0,19292.0,0.0
4439.0,-1134.0,19165.0,0.0
5.0,-1.0,20.0,0.0
7.0,-1.0,33.0,0.0
4.0,0.0,16.0,0.0
8.0,0.0,34.0,0.0
10.0,0.0,44.0,0.0
6.0,0.0,25.0,0.0
8.0,0.0,34.0,0.0
9.0,1.0,41.0,0.0
9.0,1.0,40.0,0.0
13.0,3.0,59.0,0.0
16.0,3.0,70.0,0.0
13.0,4.0,54.0,0.0
13.0,5.0,60.0,0.0
12.0,4.0,51.0,0.0
12.0,6.0,58.0,0.0
14.0,7.0,63.0,0.0
18.0,10.0,81.0,0.0
17.0,11.0,78.0,0.0
18.0,11.0,80.0,0.0
19.0,14.0,88.0,0.0
23.0,18.0,103.0,0.0
19.0,16.0,90.0,0.0
18.0,17.0,87.0,0.0
20.0,19.0,93.0,0.0
19.0,19.0,91.0,0.0
21.0,22.0,96.0,0.0
22.0,25.0,104.0,0.0
21.0,26.0,99.0,0.0
23.0,29.0,108.0,0.0
22.0,28.0,102.0,0.0
23.0,32.0,109.0,0.0
26.0,38.0,126.0,0.0
23.0,34.0,110.0,0.0
24.0,38.0,115.0,0.0
24.0,38.0,113.0,0.0
23.0,38.0,111.0,0.0
21.0,37.0,103.0,0.0
25.0,47.0,124.0,0.0
23.0,43.0,111.0,0.0
23.0,44.0,110.0,0.0
22.0,44.0,105.0,0.0
21.0,44.0,102.0,0.0
19.0,41.0,94.0,0.0
20.0,44.0,97.0,0.0
20.0,46.0,99.0,0.0
19.0,46.0,96.0,0.0
20.0,50.0,100.0,0.0
20.0,51.0,101.0,0.0
19.0,50.0,96.0,0.0
19.0,53.0,98.0,0.0
19.0,54.0,97.0,0.0
18.0,54.0,95.0,0.0
19.0,56.0,97.0,0.0
19.0,59.0,97.0,0.0
19.0,60.0,98.0,0.0
17.0,56.0,89.0,0.0
18.0,63.0,97.0,0.0
18.0,62.0,94.0,0.0
17.0,64.0,94.0,0.0
18.0,66.0,96.0,0.0
17.0,66.0,93.0,0.0
18.0,70.0,97.0,0.0
19.0,74.0,101.0,0.0
18.0,75.0,99.0,0.0
18.0,75.0,97.0,0.0
17.0,76.0,96.0,0.0
19.0,83.0,103.0,0.0
18.0,84.0,101.0,0.0
18.0,90.0,107.0,0.0
18.0,87.0,102.0,0.0
18.0,95.0,108.0,0.0
18.0,96.0,106.0,0.0
19.0,104.0,112.0,0.0
19.0,106.0,113.0,0.0
18.0,106.0,110.0,0.0
17.0,106.0,107.0,0.0
18.0,112.0,111.0,0.0
19.0,120.0,116.0,0.0
18.0,116.0,110.0,0.0
18.0,120.0,111.0,0.0
27.0,-277.0,81.0,0.0
28.0,-279.0,86.0,0.0
28.0,-282.0,89.0,0.0
30.0,-276.0,91.0,0.0
30.0,-276.0,94.0,0.0
31.0,-274.0,98.0,0.0
32.0,-284.0,104.0,0.0
33.0,-281.0,106.0,0.0
33.0,-277.0,108.0,0.0
34.0,-277.0,112.0,0.0
34.0,-273.0,114.0,0.0
36.0,-279.0,120.0,0.0
37.0,-277.0,122.0,0.0
37.0,-273.0,125.0,0.0
39.0,-276.0,129.0,0.0
39.0,-274.0,132.0,0.0
40.0,-271.0,134.0,0.0
41.0,-276.0,140.0,0.0
40.0,-269.0,141.0,0.0
41.0,-268.0,144.0,0.0
45.0,-290.0,159.0,0.0
45.0,-279.0,157.0,0.0
46.0,-277.0,161.0,0.0
43.0,-255.0,151.0,0.0
43.0,-249.0,151.0,0.0
38.0,-218.0,136.0,0.0
38.0,-213.0,136.0,0.0
38.0,-211.0,138.0,0.0
39.0,-211.0,141.0,0.0
38.0,-199.0,137.0,0.0
35.0,-184.0,129.0,0.0
37.0,-189.0,136.0,0.0
33.0,-164.0,120.0,0.0
31.0,-155.0,116.0,0.0
34.0,-161.0,124.0,0.0
32.0,-148.0,117.0,0.0
30.0,-138.0,111.0,0.0
28.0,-128.0,105.0,0.0
29.0,-130.0,110.0,0.0
28.0,-125.0,108.0,0.0
29.0,-121.0,107.0,0.0
25.0,-106.0,95.0,0.0
26.0,-109.0,100.0,0.0
26.0,-106.0,99.0,0.0
20.0,-79.0,76.0,0.0
21.0,-85.0,83.0,0.0
23.0,-88.0,88.0,0.0
22.0,-80.0,82.0,0.0
437.0,-1609.0,1690.0,0.0
436.0,-1575.0,1691.0,0.0
444.0,-1574.0,1730.0,0.0
445.0,-1548.0,1738.0,0.0
446.0,-1520.0,1745.0,0.0
451.0,-1509.0,1771.0,0.0
448.0,-1469.0,1763.0,0.0
0.0,0.0,0.0,0.0
454.0,-1429.0,1796.0,0.0
463.0,-1429.0,1836.0,0.0
459.0,-1390.0,1829.0,0.0
469.0,-1390.0,1870.0,0.0
467.0,-1356.0,1867.0,0.0
470.0,-1337.0,1885.0,0.0
0.0,0.0,0.0,0.0
458.0,-1246.0,1842.0,0.0
467.0,-1245.0,1885.0,0.0
479.0,-1250.0,1938.0,0.0
474.0,-1210.0,1924.0,0.0
452.0,-1129.0,1841.0,0.0
472.0,-1151.0,1925.0,0.0
0.0,0.0,0.0,0.0
478.0,-1115.0,1962.0,0.0
8329.0,-18963.0,34226.0,1.0
476.0,-1059.0,1963.0,0.0
0.0,0.0,0.0,0.0
490.0,-1036.0,2028.0,0.0
475.0,-981.0,1973.0,0.0
8328.0,-16745.0,34640.0,1.0
495.0,-968.0,2063.0,0.0
479.0,-913.0,2003.0,0.0
8246.0,-15298.0,34547.0,1.0
8300.0,-14974.0,34862.0,1.0
495.0,-867.0,2085.0,0.0
0.0,0.0,0.0,0.0
481.0,-793.0,2032.0,0.0
506.0,-811.0,2148.0,0.0
493.0,-765.0,2098.0,0.0
8597.0,-12910.0,36642.0,1.0
8579.0,-12455.0,36651.0,1.0
500.0,-701.0,2143.0,0.0
487.0,-657.0,2088.0,0.0
502.0,-654.0,2160.0,0.0
493.0,-618.0,2127.0,0.0
0.0,0.0,0.0,0.0
8808.0,-10181.0,38184.0,1.0
490.0,-542.0,2132.0,0.0
498.0,-526.0,2169.0,0.0
494.0,-498.0,2162.0,0.0
8579.0,-8239.0,37568.0,1.0
502.0,-457.0,2203.0,0.0
8424.0,-7266.0,37071.0,1.0
494.0,-401.0,2176.0,0.0
495.0,-379.0,2192.0,0.0
508.0,-363.0,2251.0,0.0
501.0,-334.0,2226.0,0.0
495.0,-305.0,2205.0,0.0
8144.0,-4631.0,36403.0,1.0
490.0,-255.0,2194.0,0.0
484.0,-228.0,2174.0,0.0
8004.0,-3364.0,36061.0,1.0
4606.0,-1707.0,20808.0,0.0
4267.0,-1369.0,19326.0,0.0
4231.0,-1145.0,19218.0,0.0
4450.0,-981.0,20267.0,0.0
5.0,-1.0,25.0,0.0
7.0,-1.0,33.0,0.0
8.0,-1.0,37.0,0.0
6.0,0.0,27.0,0.0
9.0,0.0,39.0,0.0
9.0,0.0,38.0,0.0
7.0,1.0,32.0,0.0
9.0,1.0,40.0,0.0
10.0,1.0,47.0,0.0
11.0,3.0,53.0,0.0
14.0,4.0,62.0,0.0
14.0,5.0,64.0,0.0
14.0,6.0,67.0,0.0
16.0,7.0,75.0,0.0
14.0,7.0,66.0,0.0
15.0,9.0,74.0,0.0
17.0,11.0,81.0,0.0
18.0,13.0,88.0,0.0
17.0,12.0,81.0,0.0
18.0,14.0,86.0,0.0
20.0,17.0,95.0,0.0
19.0,18.0,93.0,0.0
20.0,20.0,98.0,0.0
17.0,18.0,83.0,0.0
19.0,21.0,92.0,0.0
20.0,24.0,98.0,0.0
22.0,27.0,107.0,0.0
20.0,26.0,100.0,0.0
23.0,32.0,114.0,0.0
23.0,33.0,115.0,0.0
24.0,37.0,122.0,0.0
23.0,36.0,116.0,0.0
24.0,40.0,122.0,0.0
23.0,40.0,119.0,0.0
23.0,40.0,116.0,0.0
21.0,40.0,111.0,0.0
22.0,42.0,113.0,0.0
22.0,45.0,115.0,0.0
21.0,43.0,106.0,0.0
20.0,43.0,103.0,0.0
19.0,42.0,98.0,0.0
20.0,47.0,108.0,0.0
20.0,46.0,103.0,0.0
19.0,46.0,100.0,0.0
20.0,51.0,107.0,0.0
18.0,49.0,97.0,0.0
19.0,54.0,106.0,0.0
19.0,52.0,100.0,0.0
18.0,53.0,99.0,0.0
18.0,55.0,98.0,0.0
19.0,58.0,102.0,0.0
19.0,59.0,102.0,0.0
17.0,56.0,93.0,0.0
17.0,58.0,96.0,0.0
17.0,59.0,94.0,0.0
17.0,62.0,97.0,0.0
17.0,62.0,96.0,0.0
17.0,64.0,96.0,0.0
16.0,64.0,93.0,0.0
16.0,67.0,95.0,0.0
16.0,68.0,95.0,0.0
17.0,74.0,101.0,0.0
17.0,73.0,97.0,0.0
18.0,81.0,106.0,0.0
16.0,80.0,101.0,0.0
18.0,87.0,108.0,0.0
18.0,90.0,109.0,0.0
17.0,88.0,104.0,0.0
18.0,97.0,111.0,0.0
16.0,90.0,102.0,0.0
18.0,99.0,110.0,0.0
17.0,100.0,109.0,0.0
17.0,101.0,107.0,0.0
17.0,111.0,116.0,0.0
17.0,107.0,110.0,0.0
17.0,114.0,113.0,0.0
17.0,122.0,118.0,0.0
17.0,124.0,119.0,0.0
16.0,120.0,113.0,0.0
25.0,-281.0,84.0,0.0
25.0,-273.0,85.0,0.0
26.0,-280.0,89.0,0.0
26.0,-271.0,90.0,0.0
27.0,-274.0,95.0,0.0
28.0,-273.0,98.0,0.0
29.0,-277.0,102.0,0.0
30.0,-278.0,107.0,0.0
30.0,-272.0,107.0,0.0
31.0,-275.0,111.0,0.0
32.0,-273.0,115.0,0.0
32.0,-268.0,116.0,0.0
33.0,-271.0,120.0,0.0
34.0,-270.0,123.0,0.0
35.0,-274.0,128.0,0.0
35.0,-269.0,129.0,0.0
36.0,-268.0,133.0,0.0
38.0,-270.0,138.0,0.0
37.0,-263.0,138.0,0.0
38.0,-261.0,141.0,0.0
42.0,-281.0,155.0,0.0
41.0,-272.0,154.0,0.0
40.0,-264.0,154.0,0.0
40.0,-252.0,150.0,0.0
36.0,-228.0,139.0,0.0
36.0,-217.0,135.0,0.0
36.0,-214.0,137.0,0.0
35.0,-207.0,136.0,0.0
35.0,-202.0,136.0,0.0
36.0,-204.0,140.0,0.0
34.0,-185.0,130.0,0.0
34.0,-182.0,131.0,0.0
32.0,-172.0,126.0,0.0
30.0,-159.0,120.0,0.0
29.0,-148.0,114.0,0.0
29.0,-143.0,113.0,0.0
26.0,-129.0,103.0,0.0
27.0,-127.0,105.0,0.0
25.0,-119.0,101.0,0.0
26.0,-121.0,104.0,0.0
25.0,-117.0,103.0,0.0
25.0,-113.0,102.0,0.0
25.0,-106.0,98.0,0.0
22.0,-97.0,92.0,0.0
19.0,-82.0,79.0,0.0
22.0,-91.0,90.0,0.0
22.0,-87.0,88.0,0.0
19.0,-74.0,76.0,0.0
403.0,-1571.0,1655.0,0.0
402.0,-1539.0,1657.0,0.0
6460.0,-24247.0,26685.0,1.0
6517.0,-23982.0,26986.0,1.0
6595.0,-23794.0,27375.0,1.0
6688.0,-23651.0,27826.0,1.0
418.0,-1451.0,1745.0,0.0
418.0,-1418.0,1746.0,0.0
6926.0,-23062.0,29028.0,1.0
437.0,-1424.0,1834.0,0.0
7205.0,-23030.0,30341.0,1.0
435.0,-1358.0,1832.0,0.0
440.0,-1347.0,1858.0,0.0
441.0,-1324.0,1872.0,0.0
442.0,-1298.0,1877.0,0.0
7526.0,-21650.0,32062.0,1.0
0.0,0.0,0.0,0.0
427.0,-1175.0,1828.0,0.0
443.0,-1192.0,1899.0,0.0
443.0,-1168.0,1908.0,0.0
7775.0,-20018.0,33506.0,1.0
461.0,-1157.0,1988.0,0.0
460.0,-1131.0,1992.0,0.0
442.0,-1060.0,1918.0,0.0
7972.0,-18679.0,34672.0,1.0
7965.0,-18213.0,34725.0,1.0
467.0,-1039.0,2038.0,0.0
455.0,-988.0,1991.0,0.0
7926.0,-16794.0,34792.0,1.0
0.0,0.0,0.0,0.0
7817.0,-15706.0,34474.0,1.0
7860.0,-15364.0,34742.0,1.0
472.0,-897.0,2093.0,0.0
464.0,-856.0,2059.0,0.0
463.0,-828.0,2057.0,0.0
471.0,-817.0,2098.0,0.0
471.0,-794.0,2106.0,0.0
473.0,-773.0,2121.0,0.0
0.0,0.0,0.0,0.0
8206.0,-12548.0,36959.0,1.0
473.0,-699.0,2137.0,0.0
469.0,-666.0,2120.0,0.0
472.0,-647.0,2140.0,0.0
465.0,-614.0,2114.0,0.0
8385.0,-10645.0,38224.0,1.0
467.0,-568.0,2137.0,0.0
8334.0,-9721.0,38181.0,1.0
8276.0,-9227.0,38008.0,1.0
8251.0,-8776.0,37989.0,1.0
455.0,-461.0,2100.0,0.0
469.0,-451.0,2169.0,0.0
7999.0,-7275.0,37104.0,1.0
7910.0,-6788.0,36786.0,1.0
479.0,-386.0,2234.0,0.0
7807.0,-5896.0,36492.0,1.0
465.0,-327.0,2179.0,0.0
454.0,-296.0,2138.0,0.0
469.0,-282.0,2212.0,0.0
466.0,-255.0,2197.0,0.0
472.0,-234.0,2236.0,0.0
463.0,-205.0,2199.0,0.0
4372.0,-1715.0,20822.0,0.0
4041.0,-1374.0,19297.0,0.0
4027.0,-1158.0,19283.0,0.0
4161.0,-977.0,19983.0,0.0
5.0,0.0,22.0,0.0
8.0,-1.0,34.0,0.0
1.0,0.0,6.0,0.0
6.0,0.0,27.0,0.0
7.0,0.0,31.0,0.0
7.0,0.0,37.0,0.0
6.0,0.0,29.0,0.0
9.0,1.0,45.0,0.0
11.0,3.0,55.0,0.0
13.0,3.0,61.0,0.0
9.0,2.0,44.0,0.0
13.0,4.0,63.0,0.0
13.0,5.0,62.0,0.0
14.0,6.0,66.0,0.0
13.0,6.0,65.0,0.0
12.0,7.0,59.0,0.0
16.0,11.0,79.0,0.0
16.0,12.0,82.0,0.0
14.0,11.0,72.0,0.0
16.0,14.0,82.0,0.0
18.0,17.0,94.0,0.0
16.0,15.0,80.0,0.0
18.0,19.0,95.0,0.0
18.0,20.0,93.0,0.0
18.0,20.0,88.0,0.0
19.0,24.0,99.0,0.0
19.0,26.0,100.0,0.0
20.0,28.0,106.0,0.0
19.0,28.0,101.0,0.0
22.0,33.0,115.0,0.0
20.0,33.0,109.0,0.0
21.0,36.0,114.0,0.0
23.0,39.0,122.0,0.0
22.0,40.0,119.0,0.0
22.0,42.0,119.0,0.0
21.0,42.0,114.0,0.0
22.0,43.0,117.0,0.0
21.0,44.0,114.0,0.0
19.0,40.0,102.0,0.0
18.0,41.0,100.0,0.0
19.0,45.0,106.0,0.0
18.0,44.0,101.0,0.0
19.0,48.0,107.0,0.0
18.0,48.0,101.0,0.0
16.0,44.0,93.0,0.0
15.0,44.0,90.0,0.0
17.0,49.0,96.0,0.0
17.0,50.0,98.0,0.0
16.0,49.0,92.0,0.0
17.0,53.0,96.0,0.0
15.0,51.0,90.0,0.0
15.0,53.0,92.0,0.0
15.0,52.0,89.0,0.0
16.0,57.0,94.0,0.0
14.0,55.0,88.0,0.0
16.0,61.0,97.0,0.0
16.0,62.0,95.0,0.0
13.0,56.0,83.0,0.0
14.0,60.0,87.0,0.0
16.0,71.0,102.0,0.0
15.0,66.0,92.0,0.0
15.0,70.0,96.0,0.0
15.0,74.0,99.0,0.0
16.0,77.0,101.0,0.0
15.0,78.0,100.0,0.0
16.0,85.0,106.0,0.0
14.0,79.0,97.0,0.0
16.0,90.0,106.0,0.0
16.0,90.0,104.0,0.0
14.0,87.0,99.0,0.0
16.0,95.0,105.0,0.0
16.0,98.0,107.0,0.0
15.0,102.0,109.0,0.0
15.0,106.0,111.0,0.0
15.0,109.0,112.0,0.0
15.0,108.0,108.0,0.0
15.0,115.0,113.0,0.0
15.0,115.0,111.0,0.0
15.0,122.0,114.0,0.0
23.0,-288.0,86.0,0.0
22.0,-279.0,86.0,0.0
24.0,-284.0,92.0,0.0
24.0,-281.0,94.0,0.0
26.0,-284.0,98.0,0.0
26.0,-278.0,99.0,0.0
27.0,-285.0,106.0,0.0
27.0,-284.0,108.0,0.0
28.0,-278.0,110.0,0.0
29.0,-282.0,115.0,0.0
29.0,-279.0,117.0,0.0
31.0,-285.0,123.0,0.0
31.0,-277.0,124.0,0.0
32.0,-274.0,126.0,0.0
32.0,-271.0,128.0,0.0
34.0,-276.0,134.0,0.0
34.0,-275.0,137.0,0.0
34.0,-269.0,137.0,0.0
35.0,-267.0,141.0,0.0
37.0,-275.0,149.0,0.0
40.0,-291.0,161.0,0.0
40.0,-289.0,164.0,0.0
38.0,-269.0,156.0,0.0
37.0,-252.0,151.0,0.0
36.0,-240.0,146.0,0.0
34.0,-228.0,143.0,0.0
34.0,-217.0,139.0,0.0
33.0,-208.0,137.0,0.0
33.0,-201.0,136.0,0.0
31.0,-184.0,127.0,0.0
31.0,-181.0,128.0,0.0
33.0,-192.0,139.0,0.0
30.0,-168.0,124.0,0.0
31.0,-173.0,131.0,0.0
27.0,-147.0,113.0,0.0
28.0,-153.0,121.0,0.0
27.0,-140.0,114.0,0.0
26.0,-133.0,110.0,0.0
25.0,-127.0,107.0,0.0
24.0,-121.0,106.0,0.0
25.0,-117.0,104.0,0.0
25.0,-115.0,105.0,0.0
25.0,-113.0,104.0,0.0
23.0,-106.0,100.0,0.0
20.0,-88.0,85.0,0.0
20.0,-90.0,88.0,0.0
21.0,-89.0,91.0,0.0
18.0,-75.0,79.0,0.0
390.0,-1616.0,1706.0,0.0
388.0,-1576.0,1700.0,0.0
396.0,-1579.0,1742.0,0.0
6150.0,-24030.0,27101.0,1.0
403.0,-1541.0,1776.0,0.0
401.0,-1503.0,1773.0,0.0
407.0,-1494.0,1801.0,0.0
398.0,-1433.0,1767.0,0.0
412.0,-1454.0,1834.0,0.0
25.0,-86.0,111.0,0.0
409.0,-1384.0,1828.0,0.0
0.0,0.0,0.0,0.0
0.0,0.0,0.0,0.0
417.0,-1324.0,1874.0,0.0
419.0,-1302.0,1887.0,0.0
420.0,-1277.0,1896.0,0.0
7111.0,-21188.0,32197.0,1.0
423.0,-1231.0,1918.0,0.0
428.0,-1217.0,1944.0,0.0
430.0,-1198.0,1961.0,0.0
427.0,-1162.0,1948.0,0.0
424.0,-1127.0,1939.0,0.0
0.0,0.0,0.0,0.0
426.0,-1082.0,1960.0,0.0
7534.0,-18662.0,34694.0,1.0
441.0,-1065.0,2035.0,0.0
0.0,0.0,0.0,0.0
436.0,-1001.0,2020.0,0.0
432.0,-967.0,2007.0,0.0
434.0,-946.0,2021.0,0.0
0.0,0.0,0.0,0.0
0.0,0.0,0.0,0.0
441.0,-885.0,2068.0,0.0
0.0,0.0,0.0,0.0
7638.0,-14467.0,35952.0,1.0
0.0,0.0,0.0,0.0
0.0,0.0,0.0,0.0
7799.0,-13462.0,36963.0,1.0
448.0,-746.0,2125.0,0.0
0.0,0.0,0.0,0.0
7918.0,-12353.0,37789.0,1.0
0.0,0.0,0.0,0.0
0.0,0.0,0.0,0.0
0.0,0.0,0.0,0.0
7995.0,-10722.0,38519.0,1.0
0.0,0.0,0.0,0.0
441.0,-542.0,2132.0,0.0
7871.0,-9272.0,38199.0,1.0
7825.0,-8795.0,38073.0,1.0
436.0,-467.0,2128.0,0.0
7628.0,-7747.0,37297.0,1.0
451.0,-434.0,2212.0,0.0
461.0,-418.0,2264.0,0.0
7487.0,-6387.0,36889.0,1.0
7505.0,-5997.0,37078.0,1.0
456.0,-339.0,2255.0,0.0
457.0,-315.0,2270.0,0.0
442.0,-281.0,2202.0,0.0
436.0,-253.0,2180.0,0.0
452.0,-238.0,2264.0,0.0
442.0,-208.0,2221.0,0.0
4143.0,-1726.0,20860.0,0.0
3835.0,-1385.0,19361.0,0.0
3801.0,-1162.0,19247.0,0.0
3808.0,-953.0,19337.0,0.0
6.0,-1.0,30.0,0.0
1.0,0.0,4.0,0.0
6.0,0.0,31.0,0.0
6.0,0.0,27.0,0.0
7.0,0.0,38.0,0.0
7.0,0.0,38.0,0.0
12.0,2.0,64.0,0.0
9.0,1.0,43.0,0.0
11.0,2.0,61.0,0.0
9.0,2.0,47.0,0.0
12.0,4.0,59.0,0.0
12.0,4.0,65.0,0.0
11.0,5.0,58.0,0.0
12.0,6.0,64.0,0.0
14.0,8.0,73.0,0.0
13.0,9.0,74.0,0.0
16.0,11.0,82.0,0.0
16.0,12.0,86.0,0.0
17.0,15.0,95.0,0.0
16.0,15.0,90.0,0.0
17.0,16.0,92.0,0.0
20.0,20.0,103.0,0.0
17.0,18.0,88.0,0.0
19.0,22.0,105.0,0.0
19.0,24.0,107.0,0.0
19.0,24.0,101.0,0.0
22.0,31.0,122.0,0.0
19.0,28.0,108.0,0.0
20.0,31.0,112.0,0.0
20.0,34.0,118.0,0.0
22.0,37.0,125.0,0.0
24.0,41.0,131.0,0.0
22.0,40.0,125.0,0.0
23.0,44.0,131.0,0.0
20.0,41.0,119.0,0.0
21.0,42.0,117.0,0.0
20.0,43.0,115.0,0.0
22.0,49.0,126.0,0.0
20.0,47.0,118.0,0.0
20.0,50.0,120.0,0.0
17.0,44.0,103.0,0.0
17.0,45.0,103.0,0.0
19.0,52.0,117.0,0.0
19.0,52.0,113.0,0.0
17.0,50.0,105.0,0.0
18.0,57.0,115.0,0.0
16.0,52.0,102.0,0.0
15.0,49.0,94.0,0.0
15.0,50.0,94.0,0.0
15.0,52.0,95.0,0.0
17.0,60.0,107.0,0.0
16.0,59.0,102.0,0.0
16.0,60.0,102.0,0.0
15.0,60.0,100.0,0.0
15.0,63.0,101.0,0.0
15.0,65.0,102.0,0.0
16.0,67.0,104.0,0.0
14.0,65.0,98.0,0.0
16.0,75.0,110.0,0.0
14.0,69.0,99.0,0.0
15.0,74.0,103.0,0.0
15.0,77.0,104.0,0.0
14.0,76.0,100.0,0.0
16.0,82.0,107.0,0.0
15.0,85.0,109.0,0.0
16.0,92.0,116.0,0.0
15.0,91.0,111.0,0.0
15.0,94.0,111.0,0.0
15.0,95.0,111.0,0.0
14.0,91.0,105.0,0.0
15.0,99.0,111.0,0.0
15.0,104.0,113.0,0.0
15.0,110.0,117.0,0.0
14.0,106.0,111.0,0.0
14.0,113.0,116.0,0.0
14.0,117.0,118.0,0.0
14.0,121.0,119.0,0.0
14.0,119.0,115.0,0.0
14.0,123.0,116.0,0.0
19.0,-273.0,82.0,0.0
19.0,-269.0,84.0,0.0
20.0,-269.0,87.0,0.0
22.0,-276.0,93.0,0.0
22.0,-276.0,95.0,0.0
22.0,-274.0,99.0,0.0
24.0,-282.0,105.0,0.0
24.0,-272.0,105.0,0.0
25.0,-275.0,109.0,0.0
26.0,-277.0,113.0,0.0
26.0,-273.0,115.0,0.0
27.0,-270.0,118.0,0.0
28.0,-275.0,123.0,0.0
28.0,-272.0,125.0,0.0
28.0,-268.0,127.0,0.0
29.0,-263.0,128.0,0.0
30.0,-269.0,135.0,0.0
30.0,-264.0,136.0,0.0
31.0,-265.0,140.0,0.0
33.0,-273.0,148.0,0.0
35.0,-283.0,158.0,0.0
37.0,-288.0,164.0,0.0
35.0,-268.0,156.0,0.0
33.0,-246.0,148.0,0.0
32.0,-231.0,142.0,0.0
33.0,-235.0,148.0,0.0
31.0,-212.0,137.0,0.0
31.0,-214.0,142.0,0.0
30.0,-201.0,136.0,0.0
29.0,-189.0,131.0,0.0
30.0,-193.0,136.0,0.0
29.0,-179.0,129.0,0.0
28.0,-172.0,128.0,0.0
26.0,-157.0,120.0,0.0
27.0,-159.0,124.0,0.0
26.0,-153.0,121.0,0.0
24.0,-139.0,112.0,0.0
23.0,-131.0,108.0,0.0
22.0,-119.0,101.0,0.0
23.0,-125.0,108.0,0.0
22.0,-115.0,102.0,0.0
21.0,-110.0,101.0,0.0
21.0,-104.0,96.0,0.0
18.0,-89.0,84.0,0.0
18.0,-87.0,84.0,0.0
15.0,-72.0,71.0,0.0
18.0,-83.0,83.0,0.0
359.0,-1621.0,1678.0,0.0
364.0,-1611.0,1703.0,0.0
368.0,-1596.0,1726.0,0.0
5764.0,-24500.0,27086.0,1.0
5819.0,-24233.0,27390.0,1.0
375.0,-1530.0,1769.0,0.0
377.0,-1508.0,1782.0,0.0
383.0,-1501.0,1814.0,0.0
370.0,-1419.0,1755.0,0.0
377.0,-1416.0,1790.0,0.0
381.0,-1400.0,1811.0,0.0
393.0,-1416.0,1873.0,0.0
381.0,-1343.0,1818.0,0.0
0.0,0.0,0.0,0.0
395.0,-1332.0,1890.0,0.0
398.0,-1315.0,1911.0,0.0
405.0,-1310.0,1948.0,0.0
392.0,-1238.0,1884.0,0.0
6718.0,-20788.0,32420.0,1.0
399.0,-1208.0,1931.0,0.0
404.0,-1195.0,1958.0,0.0
399.0,-1152.0,1936.0,0.0
0.0,0.0,0.0,0.0
6961.0,-19192.0,33913.0,1.0
0.0,0.0,0.0,0.0
420.0,-1102.0,2054.0,0.0
417.0,-1067.0,2042.0,0.0
410.0,-1024.0,2013.0,0.0
414.0,-1007.0,2035.0,0.0
407.0,-964.0,2005.0,0.0
416.0,-961.0,2056.0,0.0
7049.0,-15859.0,34902.0,1.0
0.0,0.0,0.0,0.0
417.0,-886.0,2070.0,0.0
7182.0,-14848.0,35786.0,1.0
423.0,-848.0,2111.0,0.0
423.0,-823.0,2116.0,0.0
418.0,-789.0,2098.0,0.0
0.0,0.0,0.0,0.0
0.0,0.0,0.0,0.0
413.0,-706.0,2086.0,0.0
408.0,-674.0,2065.0,0.0
7529.0,-12005.0,38181.0,1.0
421.0,-646.0,2141.0,0.0
420.0,-620.0,2137.0,0.0
423.0,-601.0,2164.0,0.0
445.0,-606.0,2279.0,0.0
421.0,-549.0,2158.0,0.0
416.0,-518.0,2140.0,0.0
7370.0,-8780.0,38008.0,1.0
426.0,-483.0,2202.0,0.0
7217.0,-7771.0,37404.0,1.0
420.0,-428.0,2183.0,0.0
7139.0,-6870.0,37192.0,1.0
7162.0,-6481.0,37403.0,1.0
416.0,-353.0,2179.0,0.0
7077.0,-5593.0,37160.0,1.0
429.0,-314.0,2256.0,0.0
424.0,-286.0,2238.0,0.0
6948.0,-4291.0,36782.0,1.0
6915.0,-3871.0,36712.0,1.0
6851.0,-3437.0,36471.0,1.0
3912.0,-1735.0,20888.0,0.0
3631.0,-1398.0,19442.0,0.0
6.0,-2.0,33.0,0.0
5.0,-1.0,26.0,0.0
2.0,0.0,10.0,0.0
2.0,-1.0,13.0,0.0
7.0,-1.0,39.0,0.0
3.0,0.0,16.0,0.0
8.0,0.0,45.0,0.0
6.0,0.0,31.0,0.0
5.0,0.0,30.0,0.0
8.0,1.0,43.0,0.0
7.0,1.0,37.0,0.0
7.0,2.0,40.0,0.0
9.0,3.0,52.0,0.0
10.0,4.0,57.0,0.0
11.0,5.0,59.0,0.0
12.0,7.0,69.0,0.0
12.0,7.0,68.0,0.0
15.0,10.0,86.0,0.0
14.0,10.0,80.0,0.0
14.0,12.0,82.0,0.0
14.0,12.0,79.0,0.0
11.0,11.0,67.0,0.0
15.0,15.0,86.0,0.0
14.0,15.0,80.0,0.0
15.0,18.0,89.0,0.0
16.0,20.0,94.0,0.0
16.0,21.0,94.0,0.0
15.0,21.0,90.0,0.0
16.0,24.0,97.0,0.0
17.0,27.0,105.0,0.0
19.0,30.0,111.0,0.0
17.0,29.0,100.0,0.0
19.0,33.0,111.0,0.0
19.0,34.0,111.0,0.0
18.0,36.0,109.0,0.0
20.0,41.0,123.0,0.0
19.0,41.0,118.0,0.0
18.0,39.0,110.0,0.0
18.0,43.0,115.0,0.0
17.0,41.0,107.0,0.0
18.0,46.0,115.0,0.0
16.0,43.0,104.0,0.0
15.0,42.0,100.0,0.0
15.0,43.0,99.0,0.0
15.0,43.0,97.0,0.0
15.0,45.0,98.0,0.0
15.0,49.0,101.0,0.0
15.0,50.0,101.0,0.0
13.0,45.0,90.0,0.0
13.0,45.0,87.0,0.0
14.0,51.0,98.0,0.0
13.0,48.0,88.0,0.0
14.0,53.0,95.0,0.0
13.0,52.0,91.0,0.0
14.0,55.0,94.0,0.0
13.0,53.0,88.0,0.0
13.0,57.0,91.0,0.0
12.0,55.0,87.0,0.0
14.0,62.0,94.0,0.0
13.0,61.0,92.0,0.0
13.0,66.0,96.0,0.0
12.0,66.0,94.0,0.0
13.0,70.0,97.0,0.0
12.0,69.0,95.0,0.0
13.0,74.0,98.0,0.0
13.0,77.0,101.0,0.0
13.0,79.0,100.0,0.0
13.0,85.0,106.0,0.0
14.0,88.0,109.0,0.0
13.0,89.0,107.0,0.0
12.0,87.0,101.0,0.0
12.0,89.0,103.0,0.0
12.0,87.0,98.0,0.0
13.0,100.0,110.0,0.0
12.0,99.0,106.0,0.0
13.0,102.0,108.0,0.0
13.0,110.0,114.0,0.0
13.0,115.0,116.0,0.0
13.0,118.0,116.0,0.0
12.0,114.0,111.0,0.0
12.0,122.0,114.0,0.0
18.0,-286.0,87.0,0.0
18.0,-291.0,91.0,0.0
18.0,-287.0,93.0,0.0
19.0,-283.0,96.0,0.0
21.0,-292.0,102.0,0.0
20.0,-281.0,102.0,0.0
22.0,-286.0,107.0,0.0
22.0,-287.0,111.0,0.0
23.0,-288.0,116.0,0.0
23.0,-282.0,116.0,0.0
24.0,-280.0,119.0,0.0
25.0,-285.0,124.0,0.0
26.0,-282.0,126.0,0.0
26.0,-277.0,128.0,0.0
27.0,-283.0,135.0,0.0
28.0,-278.0,136.0,0.0
28.0,-275.0,138.0,0.0
29.0,-278.0,144.0,0.0
30.0,-276.0,146.0,0.0
32.0,-286.0,156.0,0.0
34.0,-295.0,164.0,0.0
32.0,-279.0,159.0,0.0
33.0,-280.0,164.0,0.0
31.0,-253.0,152.0,0.0
29.0,-235.0,145.0,0.0
30.0,-234.0,148.0,0.0
30.0,-225.0,146.0,0.0
29.0,-212.0,141.0,0.0
28.0,-206.0,139.0,0.0
29.0,-200.0,139.0,0.0
27.0,-188.0,133.0,0.0
27.0,-183.0,133.0,0.0
26.0,-177.0,132.0,0.0
25.0,-162.0,123.0,0.0
24.0,-154.0,120.0,0.0
24.0,-151.0,121.0,0.0
24.0,-144.0,118.0,0.0
26.0,-155.0,129.0,0.0
23.0,-138.0,118.0,0.0
20.0,-119.0,103.0,0.0
21.0,-116.0,103.0,0.0
23.0,-121.0,110.0,0.0
21.0,-112.0,103.0,0.0
19.0,-98.0,93.0,0.0
18.0,-93.0,90.0,0.0
17.0,-86.0,86.0,0.0
15.0,-72.0,73.0,0.0
16.0,-78.0,81.0,0.0
339.0,-1607.0,1704.0,0.0
5333.0,-24789.0,26867.0,1.0
5391.0,-24543.0,27192.0,1.0
5454.0,-24317.0,27542.0,1.0
5531.0,-24153.0,27970.0,1.0
5590.0,-23902.0,28300.0,1.0
5641.0,-23620.0,28598.0,1.0
356.0,-1459.0,1807.0,0.0
360.0,-1447.0,1833.0,0.0
5862.0,-23039.0,29844.0,1.0
349.0,-1345.0,1783.0,0.0
379.0,-1425.0,1932.0,0.0
0.0,0.0,0.0,0.0
6109.0,-22024.0,31281.0,1.0
380.0,-1339.0,1947.0,0.0
6185.0,-21336.0,31767.0,1.0
374.0,-1260.0,1923.0,0.0
386.0,-1272.0,1988.0,0.0
375.0,-1208.0,1934.0,0.0
375.0,-1182.0,1941.0,0.0
370.0,-1138.0,1916.0,0.0
0.0,0.0,0.0,0.0
382.0,-1122.0,1986.0,0.0
6571.0,-18828.0,34196.0,1.0
6614.0,-18494.0,34485.0,1.0
6699.0,-18273.0,34992.0,1.0
389.0,-1035.0,2038.0,0.0
388.0,-1004.0,2032.0,0.0
390.0,-984.0,2049.0,0.0
6755.0,-16608.0,35546.0,1.0
6744.0,-16137.0,35556.0,1.0
380.0,-885.0,2011.0,0.0
394.0,-891.0,2086.0,0.0
6757.0,-14852.0,35838.0,1.0
6805.0,-14522.0,36166.0,1.0
386.0,-798.0,2054.0,0.0
6904.0,-13857.0,36842.0,1.0
0.0,0.0,0.0,0.0
6987.0,-13145.0,37446.0,1.0
398.0,-723.0,2137.0,0.0
0.0,0.0,0.0,0.0
0.0,0.0,0.0,0.0
399.0,-651.0,2159.0,0.0
7133.0,-11212.0,38653.0,1.0
7130.0,-10771.0,38729.0,1.0
7101.0,-10292.0,38659.0,1.0
7060.0,-9801.0,38529.0,1.0
402.0,-534.0,2200.0,0.0
421.0,-533.0,2309.0,0.0
6832.0,-8240.0,37563.0,1.0
392.0,-449.0,2161.0,0.0
6765.0,-7337.0,37379.0,1.0
6800.0,-6962.0,37671.0,1.0
6768.0,-6518.0,37595.0,1.0
6752.0,-6092.0,37602.0,1.0
406.0,-341.0,2267.0,0.0
399.0,-312.0,2234.0,0.0
6600.0,-4749.0,37064.0,1.0
396.0,-260.0,2230.0,0.0
398.0,-238.0,2252.0,0.0
399.0,-213.0,2258.0,0.0
3672.0,-1740.0,20861.0,0.0
3414.0,-1406.0,19449.0,0.0
3365.0,-1176.0,19227.0,0.0
4.0,-1.0,24.0,0.0
3663.0,-822.0,21068.0,0.0
6.0,-1.0,37.0,0.0
7.0,0.0,44.0,0.0
6.0,0.0,36.0,0.0
9.0,0.0,52.0,0.0
7.0,0.0,41.0,0.0
10.0,1.0,58.0,0.0
13.0,2.0,79.0,0.0
10.0,2.0,58.0,0.0
12.0,3.0,66.0,0.0
11.0,4.0,63.0,0.0
13.0,6.0,77.0,0.0
12.0,6.0,73.0,0.0
13.0,7.0,79.0,0.0
14.0,9.0,86.0,0.0
16.0,12.0,96.0,0.0
14.0,11.0,84.0,0.0
13.0,11.0,78.0,0.0
16.0,16.0,102.0,0.0
15.0,16.0,95.0,0.0
17.0,19.0,107.0,0.0
17.0,18.0,100.0,0.0
17.0,21.0,106.0,0.0
16.0,22.0,103.0,0.0
17.0,26.0,113.0,0.0
16.0,25.0,103.0,0.0
19.0,31.0,124.0,0.0
18.0,29.0,110.0,0.0
18.0,30.0,111.0,0.0
20.0,35.0,123.0,0.0
19.0,36.0,122.0,0.0
19.0,37.0,120.0,0.0
18.0,38.0,117.0,0.0
19.0,42.0,127.0,0.0
20.0,46.0,132.0,0.0
18.0,43.0,121.0,0.0
19.0,46.0,126.0,0.0
18.0,48.0,125.0,0.0
17.0,46.0,117.0,0.0
20.0,53.0,131.0,0.0
17.0,49.0,117.0,0.0
17.0,50.0,117.0,0.0
17.0,53.0,118.0,0.0
17.0,54.0,117.0,0.0
17.0,55.0,117.0,0.0
16.0,52.0,108.0,0.0
15.0,56.0,111.0,0.0
15.0,54.0,105.0,0.0
14.0,53.0,101.0,0.0
14.0,59.0,108.0,0.0
15.0,62.0,112.0,0.0
14.0,60.0,104.0,0.0
13.0,60.0,101.0,0.0
14.0,63.0,105.0,0.0
13.0,61.0,98.0,0.0
15.0,70.0,112.0,0.0
14.0,68.0,104.0,0.0
13.0,68.0,104.0,0.0
13.0,72.0,106.0,0.0
13.0,73.0,106.0,0.0
14.0,78.0,111.0,0.0
14.0,80.0,110.0,0.0
14.0,89.0,119.0,0.0
13.0,84.0,110.0,0.0
13.0,86.0,110.0,0.0
14.0,95.0,119.0,0.0
13.0,93.0,114.0,0.0
13.0,97.0,116.0,0.0
13.0,100.0,118.0,0.0
12.0,97.0,112.0,0.0
12.0,101.0,114.0,0.0
13.0,106.0,116.0,0.0
12.0,109.0,118.0,0.0
12.0,109.0,115.0,0.0
11.0,113.0,117.0,0.0
12.0,124.0,126.0,0.0
12.0,123.0,122.0,0.0
11.0,127.0,123.0,0.0
11.0,129.0,123.0,0.0
15.0,-291.0,89.0,0.0
15.0,-281.0,89.0,0.0
15.0,-278.0,91.0,0.0
17.0,-285.0,97.0,0.0
18.0,-282.0,100.0,0.0
17.0,-281.0,102.0,0.0
18.0,-281.0,106.0,0.0
19.0,-282.0,110.0,0.0
21.0,-285.0,114.0,0.0
20.0,-278.0,115.0,0.0
21.0,-275.0,117.0,0.0
22.0,-279.0,123.0,0.0
22.0,-276.0,124.0,0.0
23.0,-272.0,127.0,0.0
24.0,-270.0,129.0,0.0
24.0,-274.0,134.0,0.0
24.0,-269.0,136.0,0.0
26.0,-275.0,143.0,0.0
26.0,-272.0,145.0,0.0
27.0,-279.0,153.0,0.0
29.0,-287.0,161.0,0.0
29.0,-279.0,160.0,0.0
28.0,-259.0,153.0,0.0
27.0,-245.0,148.0,0.0
27.0,-238.0,147.0,0.0
26.0,-223.0,141.0,0.0
26.0,-217.0,141.0,0.0
25.0,-205.0,136.0,0.0
23.0,-191.0,130.0,0.0
26.0,-209.0,145.0,0.0
25.0,-187.0,132.0,0.0
23.0,-177.0,129.0,0.0
24.0,-177.0,133.0,0.0
24.0,-172.0,132.0,0.0
22.0,-157.0,122.0,0.0
23.0,-160.0,128.0,0.0
22.0,-146.0,119.0,0.0
20.0,-133.0,111.0,0.0
20.0,-125.0,106.0,0.0
19.0,-121.0,106.0,0.0
19.0,-117.0,104.0,0.0
19.0,-114.0,104.0,0.0
18.0,-100.0,93.0,0.0
19.0,-105.0,100.0,0.0
17.0,-94.0,92.0,0.0
14.0,-77.0,77.0,0.0
14.0,-76.0,77.0,0.0
317.0,-1659.0,1725.0,0.0
318.0,-1625.0,1727.0,0.0
315.0,-1577.0,1712.0,0.0
5016.0,-24584.0,27294.0,1.0
5087.0,-24407.0,27700.0,1.0
322.0,-1510.0,1752.0,0.0
327.0,-1503.0,1784.0,0.0
5282.0,-23764.0,28828.0,1.0
5341.0,-23518.0,29176.0,1.0
333.0,-1436.0,1823.0,0.0
5476.0,-23094.0,29972.0,1.0
342.0,-1410.0,1873.0,0.0
340.0,-1375.0,1868.0,0.0
336.0,-1328.0,1847.0,0.0
341.0,-1317.0,1875.0,0.0
356.0,-1346.0,1960.0,0.0
350.0,-1294.0,1931.0,0.0
348.0,-1256.0,1919.0,0.0
5833.0,-20597.0,32228.0,1.0
0.0,0.0,0.0,0.0
5942.0,-20031.0,32915.0,1.0
352.0,-1156.0,1947.0,0.0
354.0,-1137.0,1964.0,0.0
352.0,-1106.0,1960.0,0.0
367.0,-1124.0,2045.0,0.0
0.0,0.0,0.0,0.0
6256.0,-18231.0,34962.0,1.0
359.0,-1020.0,2009.0,0.0
365.0,-1009.0,2046.0,0.0
350.0,-942.0,1964.0,0.0
368.0,-965.0,2069.0,0.0
371.0,-946.0,2086.0,0.0
361.0,-896.0,2036.0,0.0
373.0,-902.0,2114.0,0.0
371.0,-870.0,2103.0,0.0
6379.0,-14530.0,36220.0,1.0
359.0,-793.0,2043.0,0.0
378.0,-810.0,2158.0,0.0
6496.0,-13477.0,37103.0,1.0
373.0,-748.0,2135.0,0.0
373.0,-723.0,2139.0,0.0
0.0,0.0,0.0,0.0
6672.0,-12069.0,38435.0,1.0
6672.0,-11627.0,38512.0,1.0
6688.0,-11218.0,38696.0,1.0
378.0,-609.0,2193.0,0.0
376.0,-582.0,2189.0,0.0
6585.0,-9757.0,38365.0,1.0
377.0,-532.0,2198.0,0.0
385.0,-520.0,2256.0,0.0
0.0,0.0,0.0,0.0
376.0,-460.0,2212.0,0.0
375.0,-435.0,2212.0,0.0
374.0,-409.0,2213.0,0.0
375.0,-385.0,2221.0,0.0
6349.0,-6122.0,37750.0,1.0
369.0,-331.0,2199.0,0.0
6299.0,-5256.0,37663.0,1.0
372.0,-286.0,2232.0,0.0
371.0,-262.0,2231.0,0.0
6168.0,-3942.0,37198.0,1.0
369.0,-212.0,2232.0,0.0
3450.0,-1752.0,20934.0,0.0
3204.0,-1415.0,19501.0,0.0
3155.0,-1184.0,19262.0,0.0
3166.0,-978.0,19396.0,0.0
6.0,-1.0,41.0,0.0
7.0,-1.0,45.0,0.0
7.0,-1.0,38.0,0.0
6.0,0.0,35.0,0.0
9.0,0.0,55.0,0.0
10.0,0.0,58.0,0.0
8.0,1.0,49.0,0.0
9.0,1.0,61.0,0.0
9.0,2.0,61.0,0.0
10.0,3.0,58.0,0.0
10.0,4.0,63.0,0.0
13.0,6.0,79.0,0.0
12.0,6.0,75.0,0.0
10.0,6.0,59.0,0.0
13.0,9.0,84.0,0.0
10.0,8.0,65.0,0.0
13.0,11.0,85.0,0.0
14.0,13.0,88.0,0.0
12.0,12.0,77.0,0.0
14.0,16.0,93.0,0.0
12.0,14.0,79.0,0.0
14.0,16.0,89.0,0.0
15.0,20.0,98.0,0.0
17.0,24.0,114.0,0.0
15.0,22.0,101.0,0.0
16.0,25.0,107.0,0.0
16.0,27.0,111.0,0.0
16.0,29.0,112.0,0.0
16.0,30.0,109.0,0.0
19.0,36.0,127.0,0.0
17.0,35.0,120.0,0.0
18.0,38.0,126.0,0.0
18.0,39.0,124.0,0.0
18.0,43.0,131.0,0.0
17.0,43.0,123.0,0.0
18.0,46.0,128.0,0.0
17.0,47.0,128.0,0.0
16.0,45.0,117.0,0.0
16.0,47.0,120.0,0.0
15.0,46.0,114.0,0.0
15.0,45.0,106.0,0.0
16.0,52.0,121.0,0.0
16.0,52.0,116.0,0.0
14.0,47.0,103.0,0.0
13.0,51.0,107.0,0.0
14.0,53.0,109.0,0.0
14.0,53.0,105.0,0.0
14.0,54.0,105.0,0.0
12.0,52.0,98.0,0.0
12.0,53.0,97.0,0.0
13.0,59.0,107.0,0.0
12.0,56.0,98.0,0.0
13.0,63.0,109.0,0.0
11.0,59.0,97.0,0.0
11.0,59.0,96.0,0.0
11.0,61.0,97.0,0.0
11.0,64.0,98.0,0.0
11.0,63.0,96.0,0.0
11.0,68.0,99.0,0.0
12.0,73.0,106.0,0.0
13.0,78.0,110.0,0.0
11.0,75.0,103.0,0.0
12.0,78.0,106.0,0.0
12.0,82.0,108.0,0.0
11.0,83.0,107.0,0.0
11.0,84.0,106.0,0.0
11.0,87.0,108.0,0.0
10.0,86.0,104.0,0.0
11.0,98.0,117.0,0.0
10.0,93.0,108.0,0.0
11.0,99.0,112.0,0.0
10.0,103.0,114.0,0.0
10.0,107.0,116.0,0.0
10.0,104.0,110.0,0.0
10.0,114.0,117.0,0.0
10.0,117.0,119.0,0.0
10.0,120.0,120.0,0.0
9.0,118.0,114.0,0.0
9.0,127.0,121.0,0.0
12.0,-287.0,88.0,0.0
13.0,-291.0,92.0,0.0
13.0,-286.0,94.0,0.0
14.0,-286.0,97.0,0.0
15.0,-289.0,102.0,0.0
15.0,-277.0,101.0,0.0
16.0,-288.0,109.0,0.0
17.0,-288.0,112.0,0.0
17.0,-287.0,116.0,0.0
18.0,-281.0,117.0,0.0
19.0,-281.0,121.0,0.0
19.0,-279.0,122.0,0.0
20.0,-282.0,128.0,0.0
21.0,-288.0,134.0,0.0
21.0,-275.0,132.0,0.0
22.0,-280.0,138.0,0.0
22.0,-278.0,141.0,0.0
23.0,-271.0,141.0,0.0
24.0,-280.0,149.0,0.0
26.0,-292.0,160.0,0.0
28.0,-299.0,168.0,0.0
26.0,-276.0,159.0,0.0
26.0,-266.0,157.0,0.0
26.0,-259.0,157.0,0.0
26.0,-252.0,156.0,0.0
24.0,-233.0,148.0,0.0
23.0,-214.0,139.0,0.0
24.0,-220.0,146.0,0.0
23.0,-206.0,140.0,0.0
23.0,-192.0,134.0,0.0
22.0,-186.0,133.0,0.0
23.0,-182.0,133.0,0.0
21.0,-168.0,125.0,0.0
22.0,-171.0,130.0,0.0
20.0,-154.0,121.0,0.0
21.0,-150.0,121.0,0.0
21.0,-148.0,121.0,0.0
18.0,-129.0,108.0,0.0
20.0,-142.0,121.0,0.0
18.0,-119.0,105.0,0.0
20.0,-136.0,123.0,0.0
16.0,-106.0,97.0,0.0
17.0,-107.0,100.0,0.0
15.0,-92.0,88.0,0.0
15.0,-91.0,89.0,0.0
15.0,-88.0,88.0,0.0
14.0,-83.0,84.0,0.0
288.0,-1635.0,1703.0,0.0
290.0,-1607.0,1711.0,0.0
4566.0,-24770.0,26955.0,1.0
287.0,-1523.0,1694.0,0.0
301.0,-1560.0,1774.0,0.0
299.0,-1518.0,1765.0,0.0
305.0,-1514.0,1800.0,0.0
308.0,-1497.0,1819.0,0.0
4936.0,-23476.0,29177.0,1.0
305.0,-1419.0,1803.0,0.0
321.0,-1459.0,1898.0,0.0
313.0,-1390.0,1849.0,0.0
5167.0,-22493.0,30608.0,1.0
321.0,-1366.0,1903.0,0.0
5248.0,-21844.0,31132.0,1.0
311.0,-1266.0,1848.0,0.0
0.0,0.0,0.0,0.0
319.0,-1241.0,1899.0,0.0
5402.0,-20520.0,32157.0,1.0
321.0,-1191.0,1914.0,0.0
0.0,0.0,0.0,0.0
5551.0,-19647.0,33145.0,1.0
0.0,0.0,0.0,0.0
0.0,0.0,0.0,0.0
332.0,-1094.0,1995.0,0.0
0.0,0.0,0.0,0.0
335.0,-1049.0,2015.0,0.0
338.0,-1030.0,2033.0,0.0
0.0,0.0,0.0,0.0
5965.0,-17262.0,35996.0,1.0
5982.0,-16850.0,36151.0,1.0
348.0,-953.0,2107.0,0.0
0.0,0.0,0.0,0.0
6004.0,-15550.0,36457.0,1.0
6017.0,-15138.0,36601.0,1.0
0.0,0.0,0.0,0.0
0.0,0.0,0.0,0.0
6059.0,-13913.0,37059.0,1.0
6080.0,-13521.0,37256.0,1.0
0.0,0.0,0.0,0.0
6091.0,-12673.0,37475.0,1.0
0.0,0.0,0.0,0.0
6196.0,-12011.0,38275.0,1.0
359.0,-669.0,2222.0,0.0
6175.0,-11101.0,38308.0,1.0
357.0,-615.0,2217.0,0.0
343.0,-567.0,2132.0,0.0
6137.0,-9748.0,38336.0,1.0
336.0,-508.0,2100.0,0.0
6101.0,-8844.0,38293.0,1.0
351.0,-485.0,2206.0,0.0
357.0,-467.0,2247.0,0.0
0.0,0.0,0.0,0.0
347.0,-407.0,2199.0,0.0
345.0,-381.0,2194.0,0.0
354.0,-367.0,2261.0,0.0
348.0,-336.0,2225.0,0.0
346.0,-310.0,2218.0,0.0
349.0,-288.0,2244.0,0.0
339.0,-257.0,2189.0,0.0
350.0,-240.0,2262.0,0.0
5746.0,-3545.0,37282.0,1.0
3223.0,-1762.0,20979.0,0.0
2985.0,-1421.0,19492.0,0.0
5.0,-1.0,32.0,0.0
6.0,-2.0,38.0,0.0
3197.0,-839.0,21086.0,0.0
6.0,-1.0,45.0,0.0
8.0,-1.0,51.0,0.0
6.0,0.0,38.0,0.0
11.0,0.0,74.0,0.0
10.0,0.0,67.0,0.0
9.0,1.0,63.0,0.0
11.0,2.0,75.0,0.0
10.0,3.0,73.0,0.0
9.0,3.0,65.0,0.0
10.0,3.0,62.0,0.0
10.0,5.0,73.0,0.0
9.0,5.0,65.0,0.0
10.0,7.0,73.0,0.0
13.0,10.0,91.0,0.0
12.0,10.0,85.0,0.0
10.0,9.0,72.0,0.0
15.0,14.0,104.0,0.0
13.0,13.0,90.0,0.0
15.0,18.0,111.0,0.0
12.0,15.0,87.0,0.0
15.0,20.0,106.0,0.0
14.0,20.0,102.0,0.0
14.0,20.0,97.0,0.0
16.0,25.0,114.0,0.0
16.0,28.0,119.0,0.0
16.0,29.0,119.0,0.0
16.0,31.0,119.0,0.0
14.0,28.0,103.0,0.0
15.0,31.0,112.0,0.0
16.0,34.0,116.0,0.0
17.0,40.0,131.0,0.0
16.0,41.0,128.0,0.0
17.0,44.0,133.0,0.0
17.0,45.0,134.0,0.0
15.0,44.0,125.0,0.0
17.0,48.0,132.0,0.0
14.0,43.0,116.0,0.0
16.0,50.0,128.0,0.0
15.0,48.0,119.0,0.0
14.0,47.0,112.0,0.0
15.0,52.0,121.0,0.0
15.0,54.0,122.0,0.0
12.0,48.0,105.0,0.0
13.0,54.0,114.0,0.0
13.0,50.0,104.0,0.0
13.0,55.0,111.0,0.0
12.0,55.0,107.0,0.0
12.0,55.0,105.0,0.0
12.0,57.0,105.0,0.0
12.0,59.0,108.0,0.0
12.0,62.0,107.0,0.0
11.0,61.0,105.0,0.0
12.0,65.0,109.0,0.0
10.0,60.0,98.0,0.0
12.0,68.0,108.0,0.0
11.0,67.0,105.0,0.0
11.0,71.0,107.0,0.0
11.0,71.0,106.0,0.0
11.0,78.0,113.0,0.0
11.0,75.0,106.0,0.0
10.0,80.0,110.0,0.0
11.0,83.0,111.0,0.0
10.0,83.0,111.0,0.0
10.0,84.0,109.0,0.0
10.0,88.0,112.0,0.0
10.0,90.0,111.0,0.0
11.0,99.0,119.0,0.0
10.0,94.0,111.0,0.0
10.0,101.0,117.0,0.0
9.0,98.0,111.0,0.0
9.0,105.0,116.0,0.0
9.0,109.0,118.0,0.0
9.0,108.0,115.0,0.0
8.0,111.0,115.0,0.0
9.0,119.0,121.0,0.0
8.0,119.0,118.0,0.0
8.0,126.0,123.0,0.0
8.0,128.0,122.0,0.0
9.0,-283.0,87.0,0.0
10.0,-281.0,89.0,0.0
10.0,-276.0,91.0,0.0
11.0,-283.0,97.0,0.0
11.0,-272.0,96.0,0.0
13.0,-290.0,107.0,0.0
13.0,-281.0,106.0,0.0
13.0,-282.0,110.0,0.0
14.0,-275.0,111.0,0.0
15.0,-279.0,117.0,0.0
16.0,-279.0,120.0,0.0
16.0,-274.0,121.0,0.0
17.0,-279.0,127.0,0.0
17.0,-274.0,128.0,0.0
18.0,-272.0,130.0,0.0
19.0,-277.0,137.0,0.0
19.0,-272.0,139.0,0.0
20.0,-272.0,142.0,0.0
20.0,-273.0,146.0,0.0
21.0,-279.0,153.0,0.0
23.0,-289.0,162.0,0.0
24.0,-284.0,164.0,0.0
24.0,-278.0,165.0,0.0
22.0,-251.0,152.0,0.0
23.0,-255.0,158.0,0.0
23.0,-244.0,155.0,0.0
21.0,-222.0,145.0,0.0
21.0,-215.0,143.0,0.0
21.0,-211.0,144.0,0.0
21.0,-203.0,143.0,0.0
21.0,-197.0,141.0,0.0
20.0,-184.0,134.0,0.0
20.0,-175.0,131.0,0.0
18.0,-156.0,120.0,0.0
19.0,-158.0,124.0,0.0
19.0,-157.0,126.0,0.0
19.0,-153.0,126.0,0.0
17.0,-137.0,115.0,0.0
17.0,-132.0,113.0,0.0
17.0,-123.0,108.0,0.0
18.0,-130.0,115.0,0.0
16.0,-115.0,106.0,0.0
15.0,-108.0,101.0,0.0
15.0,-106.0,102.0,0.0
15.0,-95.0,94.0,0.0
14.0,-88.0,88.0,0.0
12.0,-78.0,81.0,0.0
268.0,-1658.0,1730.0,0.0
264.0,-1599.0,1705.0,0.0
4187.0,-24780.0,27018.0,1.0
4238.0,-24522.0,27330.0,1.0
270.0,-1522.0,1735.0,0.0
280.0,-1549.0,1805.0,0.0
280.0,-1513.0,1802.0,0.0
4488.0,-23732.0,28895.0,1.0
4528.0,-23408.0,29142.0,1.0
285.0,-1437.0,1831.0,0.0
286.0,-1411.0,1839.0,0.0
282.0,-1362.0,1816.0,0.0
291.0,-1371.0,1869.0,0.0
4763.0,-21985.0,30664.0,1.0
296.0,-1337.0,1909.0,0.0
297.0,-1310.0,1916.0,0.0
4906.0,-21127.0,31609.0,1.0
0.0,0.0,0.0,0.0
303.0,-1246.0,1956.0,0.0
303.0,-1216.0,1956.0,0.0
5062.0,-19839.0,32696.0,1.0
0.0,0.0,0.0,0.0
308.0,-1146.0,1987.0,0.0
306.0,-1117.0,1985.0,0.0
304.0,-1078.0,1968.0,0.0
5281.0,-18298.0,34257.0,1.0
0.0,0.0,0.0,0.0
312.0,-1026.0,2026.0,0.0
5539.0,-17757.0,36051.0,1.0
311.0,-971.0,2028.0,0.0
0.0,0.0,0.0,0.0
317.0,-938.0,2073.0,0.0
319.0,-916.0,2088.0,0.0
321.0,-895.0,2103.0,0.0
316.0,-857.0,2076.0,0.0
319.0,-838.0,2095.0,0.0
321.0,-818.0,2111.0,0.0
321.0,-794.0,2119.0,0.0
0.0,0.0,0.0,0.0
5713.0,-13245.0,37817.0,1.0
317.0,-710.0,2102.0,0.0
5727.0,-12396.0,38054.0,1.0
5715.0,-11935.0,38054.0,1.0
326.0,-654.0,2171.0,0.0
0.0,0.0,0.0,0.0
328.0,-610.0,2201.0,0.0
5772.0,-10307.0,38755.0,1.0
0.0,0.0,0.0,0.0
5724.0,-9365.0,38611.0,1.0
326.0,-507.0,2199.0,0.0
323.0,-481.0,2191.0,0.0
5644.0,-7976.0,38361.0,1.0
323.0,-432.0,2201.0,0.0
317.0,-401.0,2167.0,0.0
5555.0,-6610.0,38053.0,1.0
318.0,-355.0,2183.0,0.0
328.0,-341.0,2255.0,0.0
326.0,-315.0,2256.0,0.0
315.0,-281.0,2186.0,0.0
331.0,-271.0,2300.0,0.0
323.0,-240.0,2253.0,0.0
323.0,-216.0,2263.0,0.0
2987.0,-1766.0,20964.0,0.0
5.0,-2.0,31.0,0.0
2729.0,-1200.0,19287.0,0.0
5.0,-2.0,37.0,0.0
7.0,-2.0,47.0,0.0
5.0,-1.0,40.0,0.0
5.0,-1.0,37.0,0.0
8.0,0.0,53.0,0.0
6.0,0.0,38.0,0.0
7.0,0.0,51.0,0.0
7.0,0.0,47.0,0.0
11.0,2.0,73.0,0.0
10.0,2.0,70.0,0.0
9.0,3.0,65.0,0.0
11.0,5.0,80.0,0.0
7.0,4.0,54.0,0.0
9.0,5.0,65.0,0.0
11.0,8.0,82.0,0.0
9.0,7.0,68.0,0.0
10.0,9.0,78.0,0.0
10.0,10.0,77.0,0.0
12.0,13.0,88.0,0.0
13.0,15.0,101.0,0.0
13.0,16.0,100.0,0.0
11.0,15.0,86.0,0.0
14.0,20.0,109.0,0.0
13.0,20.0,104.0,0.0
14.0,23.0,110.0,0.0
14.0,24.0,110.0,0.0
14.0,25.0,106.0,0.0
14.0,27.0,111.0,0.0
13.0,26.0,105.0,0.0
14.0,31.0,113.0,0.0
15.0,33.0,120.0,0.0
14.0,33.0,114.0,0.0
14.0,38.0,124.0,0.0
15.0,40.0,126.0,0.0
15.0,42.0,127.0,0.0
15.0,45.0,132.0,0.0
14.0,43.0,120.0,0.0
15.0,46.0,127.0,0.0
14.0,47.0,124.0,0.0
13.0,47.0,122.0,0.0
13.0,45.0,112.0,0.0
13.0,46.0,111.0,0.0
12.0,49.0,114.0,0.0
11.0,46.0,104.0,0.0
11.0,47.0,103.0,0.0
11.0,48.0,104.0,0.0
11.0,48.0,99.0,0.0
11.0,51.0,102.0,0.0
10.0,49.0,97.0,0.0
11.0,55.0,105.0,0.0
11.0,58.0,108.0,0.0
11.0,61.0,111.0,0.0
10.0,56.0,97.0,0.0
9.0,56.0,96.0,0.0
10.0,62.0,104.0,0.0
10.0,60.0,98.0,0.0
9.0,60.0,96.0,0.0
9.0,62.0,97.0,0.0
8.0,62.0,94.0,0.0
9.0,67.0,101.0,0.0
8.0,68.0,98.0,0.0
9.0,75.0,107.0,0.0
9.0,72.0,101.0,0.0
9.0,76.0,103.0,0.0
8.0,76.0,101.0,0.0
8.0,81.0,105.0,0.0
8.0,87.0,111.0,0.0
8.0,85.0,106.0,0.0
8.0,92.0,111.0,0.0
8.0,93.0,110.0,0.0
8.0,93.0,108.0,0.0
8.0,94.0,106.0,0.0
7.0,104.0,116.0,0.0
8.0,104.0,113.0,0.0
7.0,108.0,115.0,0.0
7.0,114.0,118.0,0.0
6.0,110.0,112.0,0.0
7.0,117.0,117.0,0.0
6.0,122.0,118.0,0.0
7.0,128.0,122.0,0.0
6.0,-290.0,89.0,0.0
8.0,-286.0,92.0,0.0
7.0,-286.0,95.0,0.0
8.0,-279.0,96.0,0.0
9.0,-277.0,99.0,0.0
9.0,-281.0,103.0,0.0
11.0,-283.0,108.0,0.0
10.0,-276.0,108.0,0.0
12.0,-278.0,113.0,0.0
13.0,-286.0,119.0,0.0
12.0,-272.0,117.0,0.0
14.0,-279.0,124.0,0.0
14.0,-276.0,126.0,0.0
15.0,-281.0,132.0,0.0
15.0,-277.0,134.0,0.0
15.0,-273.0,136.0,0.0
16.0,-270.0,138.0,0.0
17.0,-275.0,144.0,0.0
18.0,-269.0,145.0,0.0
20.0,-290.0,160.0,0.0
20.0,-285.0,161.0,0.0
20.0,-283.0,164.0,0.0
20.0,-277.0,165.0,0.0
20.0,-256.0,156.0,0.0
19.0,-244.0,152.0,0.0
20.0,-242.0,155.0,0.0
19.0,-233.0,152.0,0.0
19.0,-222.0,150.0,0.0
20.0,-218.0,149.0,0.0
19.0,-211.0,148.0,0.0
18.0,-194.0,140.0,0.0
17.0,-175.0,129.0,0.0
17.0,-173.0,130.0,0.0
17.0,-169.0,130.0,0.0
16.0,-161.0,126.0,0.0
17.0,-155.0,125.0,0.0
17.0,-152.0,125.0,0.0
16.0,-140.0,118.0,0.0
16.0,-134.0,115.0,0.0
16.0,-129.0,114.0,0.0
14.0,-120.0,108.0,0.0
14.0,-109.0,100.0,0.0
13.0,-103.0,96.0,0.0
14.0,-110.0,106.0,0.0
13.0,-96.0,94.0,0.0
13.0,-89.0,89.0,0.0
11.0,-83.0,85.0,0.0
240.0,-1637.0,1712.0,0.0
245.0,-1633.0,1746.0,0.0
246.0,-1601.0,1749.0,0.0
247.0,-1574.0,1757.0,0.0
251.0,-1559.0,1779.0,0.0
247.0,-1495.0,1744.0,0.0
4037.0,-23942.0,28559.0,1.0
4072.0,-23599.0,28781.0,1.0
4124.0,-23353.0,29124.0,1.0
256.0,-1414.0,1804.0,0.0
260.0,-1406.0,1835.0,0.0
264.0,-1394.0,1861.0,0.0
263.0,-1358.0,1854.0,0.0
4371.0,-22026.0,30770.0,1.0
265.0,-1304.0,1865.0,0.0
270.0,-1296.0,1897.0,0.0
267.0,-1254.0,1880.0,0.0
4536.0,-20800.0,31914.0,1.0
0.0,0.0,0.0,0.0
0.0,0.0,0.0,0.0
285.0,-1216.0,2007.0,0.0
279.0,-1160.0,1964.0,0.0
4702.0,-19092.0,33123.0,1.0
294.0,-1162.0,2068.0,0.0
4759.0,-18377.0,33557.0,1.0
288.0,-1084.0,2033.0,0.0
295.0,-1082.0,2084.0,0.0
5049.0,-18047.0,35689.0,1.0
0.0,0.0,0.0,0.0
280.0,-950.0,1986.0,0.0
5156.0,-16994.0,36540.0,1.0
296.0,-947.0,2096.0,0.0
5195.0,-16188.0,36900.0,1.0
300.0,-908.0,2135.0,0.0
5149.0,-15137.0,36671.0,1.0
299.0,-853.0,2134.0,0.0
301.0,-831.0,2147.0,0.0
299.0,-802.0,2141.0,0.0
5241.0,-13609.0,37556.0,1.0
0.0,0.0,0.0,0.0
5302.0,-12875.0,38123.0,1.0
301.0,-706.0,2170.0,0.0
304.0,-687.0,2195.0,0.0
5212.0,-11361.0,37689.0,1.0
5248.0,-11008.0,38023.0,1.0
0.0,0.0,0.0,0.0
306.0,-590.0,2222.0,0.0
0.0,0.0,0.0,0.0
303.0,-537.0,2217.0,0.0
299.0,-504.0,2188.0,0.0
299.0,-482.0,2193.0,0.0
299.0,-458.0,2202.0,0.0
302.0,-439.0,2232.0,0.0
303.0,-416.0,2245.0,0.0
5121.0,-6609.0,38023.0,1.0
309.0,-374.0,2302.0,0.0
300.0,-339.0,2243.0,0.0
310.0,-325.0,2321.0,0.0
298.0,-289.0,2242.0,0.0
4985.0,-4426.0,37570.0,1.0
295.0,-238.0,2228.0,0.0
296.0,-214.0,2243.0,0.0
2751.0,-1770.0,20941.0,0.0
2558.0,-1436.0,19540.0,0.0
2513.0,-1204.0,19264.0,0.0
2513.0,-995.0,19335.0,0.0
5.0,-2.0,38.0,0.0
4.0,0.0,27.0,0.0
6.0,-1.0,43.0,0.0
6.0,0.0,44.0,0.0
8.0,0.0,60.0,0.0
6.0,0.0,43.0,0.0
5.0,1.0,41.0,0.0
7.0,1.0,61.0,0.0
7.0,2.0,54.0,0.0
7.0,2.0,55.0,0.0
9.0,4.0,67.0,0.0
11.0,7.0,88.0,0.0
10.0,7.0,85.0,0.0
9.0,7.0,78.0,0.0
9.0,8.0,76.0,0.0
11.0,11.0,93.0,0.0
12.0,13.0,98.0,0.0
11.0,13.0,92.0,0.0
10.0,12.0,84.0,0.0
11.0,16.0,99.0,0.0
11.0,17.0,94.0,0.0
13.0,19.0,105.0,0.0
13.0,21.0,110.0,0.0
15.0,27.0,127.0,0.0
11.0,22.0,101.0,0.0
12.0,24.0,102.0,0.0
13.0,28.0,116.0,0.0
13.0,28.0,111.0,0.0
13.0,32.0,117.0,0.0
13.0,35.0,123.0,0.0
12.0,33.0,114.0,0.0
14.0,38.0,126.0,0.0
14.0,41.0,130.0,0.0
15.0,44.0,133.0,0.0
14.0,43.0,126.0,0.0
13.0,43.0,122.0,0.0
13.0,47.0,128.0,0.0
13.0,47.0,124.0,0.0
12.0,47.0,122.0,0.0
12.0,47.0,118.0,0.0
11.0,44.0,107.0,0.0
12.0,50.0,115.0,0.0
11.0,49.0,111.0,0.0
11.0,52.0,115.0,0.0
11.0,55.0,118.0,0.0
11.0,55.0,114.0,0.0
10.0,54.0,107.0,0.0
10.0,54.0,107.0,0.0
11.0,59.0,114.0,0.0
10.0,58.0,107.0,0.0
10.0,59.0,106.0,0.0
9.0,61.0,109.0,0.0
9.0,57.0,98.0,0.0
9.0,63.0,106.0,0.0
8.0,56.0,91.0,0.0
9.0,68.0,109.0,0.0
8.0,61.0,96.0,0.0
8.0,71.0,108.0,0.0
8.0,67.0,100.0,0.0
7.0,72.0,105.0,0.0
8.0,79.0,112.0,0.0
7.0,76.0,106.0,0.0
7.0,78.0,105.0,0.0
7.0,78.0,104.0,0.0
7.0,85.0,110.0,0.0
7.0,85.0,108.0,0.0
7.0,90.0,111.0,0.0
7.0,100.0,121.0,0.0
7.0,94.0,112.0,0.0
6.0,88.0,102.0,0.0
6.0,102.0,116.0,0.0
7.0,106.0,117.0,0.0
7.0,113.0,122.0,0.0
5.0,106.0,113.0,0.0
5.0,109.0,113.0,0.0
5.0,119.0,122.0,0.0
5.0,124.0,123.0,0.0
5.0,123.0,121.0,0.0
5.0,130.0,124.0,0.0
4.0,-278.0,86.0,0.0
5.0,-272.0,87.0,0.0
5.0,-273.0,91.0,0.0
5.0,-272.0,94.0,0.0
7.0,-274.0,98.0,0.0
7.0,-280.0,103.0,0.0
7.0,-274.0,105.0,0.0
7.0,-277.0,109.0,0.0
8.0,-274.0,111.0,0.0
9.0,-274.0,114.0,0.0
9.0,-270.0,117.0,0.0
10.0,-269.0,120.0,0.0
11.0,-268.0,123.0,0.0
12.0,-268.0,127.0,0.0
12.0,-265.0,128.0,0.0
12.0,-266.0,132.0,0.0
13.0,-266.0,136.0,0.0
13.0,-263.0,138.0,0.0
14.0,-268.0,145.0,0.0
15.0,-279.0,154.0,0.0
16.0,-272.0,154.0,0.0
16.0,-269.0,156.0,0.0
17.0,-265.0,158.0,0.0
16.0,-251.0,153.0,0.0
16.0,-238.0,149.0,0.0
16.0,-224.0,144.0,0.0
17.0,-232.0,152.0,0.0
16.0,-214.0,144.0,0.0
15.0,-200.0,136.0,0.0
15.0,-191.0,134.0,0.0
15.0,-181.0,130.0,0.0
16.0,-185.0,136.0,0.0
15.0,-169.0,127.0,0.0
15.0,-166.0,128.0,0.0
15.0,-159.0,125.0,0.0
15.0,-154.0,124.0,0.0
13.0,-136.0,112.0,0.0
15.0,-145.0,122.0,0.0
13.0,-130.0,112.0,0.0
14.0,-128.0,112.0,0.0
13.0,-115.0,104.0,0.0
11.0,-104.0,95.0,0.0
12.0,-96.0,90.0,0.0
12.0,-98.0,94.0,0.0
8.0,-70.0,68.0,0.0
12.0,-93.0,92.0,0.0
10.0,-75.0,77.0,0.0
3336.0,-25366.0,26571.0,1.0
215.0,-1598.0,1711.0,0.0
223.0,-1617.0,1770.0,0.0
3467.0,-24488.0,27388.0,1.0
225.0,-1550.0,1772.0,0.0
3570.0,-24023.0,28075.0,1.0
234.0,-1538.0,1838.0,0.0
226.0,-1447.0,1767.0,0.0
230.0,-1438.0,1796.0,0.0
233.0,-1424.0,1820.0,0.0
233.0,-1389.0,1815.0,0.0
241.0,-1407.0,1882.0,0.0
3907.0,-22214.0,30371.0,1.0
241.0,-1336.0,1869.0,0.0
3985.0,-21590.0,30912.0,1.0
4029.0,-21306.0,31224.0,1.0
246.0,-1271.0,1907.0,0.0
254.0,-1280.0,1966.0,0.0
245.0,-1206.0,1899.0,0.0
4181.0,-20055.0,32336.0,1.0
250.0,-1170.0,1934.0,0.0
0.0,0.0,0.0,0.0
0.0,0.0,0.0,0.0
257.0,-1112.0,1982.0,0.0
4387.0,-18550.0,33915.0,1.0
4482.0,-18471.0,34663.0,1.0
262.0,-1054.0,2033.0,0.0
4601.0,-17987.0,35612.0,1.0
0.0,0.0,0.0,0.0
0.0,0.0,0.0,0.0
269.0,-968.0,2085.0,0.0
0.0,0.0,0.0,0.0
4775.0,-16254.0,37087.0,1.0
4764.0,-15754.0,37045.0,1.0
4710.0,-15120.0,36660.0,1.0
266.0,-826.0,2070.0,0.0
4679.0,-14131.0,36510.0,1.0
4732.0,-13846.0,36970.0,1.0
0.0,0.0,0.0,0.0
270.0,-739.0,2116.0,0.0
267.0,-707.0,2097.0,0.0
4849.0,-12405.0,38127.0,1.0
0.0,0.0,0.0,0.0
275.0,-655.0,2175.0,0.0
0.0,0.0,0.0,0.0
278.0,-611.0,2204.0,0.0
282.0,-593.0,2233.0,0.0
275.0,-554.0,2183.0,0.0
271.0,-523.0,2161.0,0.0
280.0,-517.0,2239.0,0.0
284.0,-499.0,2275.0,0.0
272.0,-455.0,2189.0,0.0
282.0,-448.0,2275.0,0.0
272.0,-407.0,2200.0,0.0
276.0,-388.0,2234.0,0.0
274.0,-362.0,2224.0,0.0
276.0,-341.0,2252.0,0.0
273.0,-314.0,2235.0,0.0
272.0,-287.0,2224.0,0.0
275.0,-267.0,2262.0,0.0
278.0,-245.0,2294.0,0.0
3.0,-2.0,25.0,0.0
2528.0,-1782.0,21014.0,0.0
2354.0,-1449.0,19633.0,0.0
2306.0,-1213.0,19314.0,0.0
5.0,-2.0,43.0,0.0
1.0,-1.0,15.0,0.0
4.0,-1.0,35.0,0.0
5.0,-1.0,42.0,0.0
5.0,0.0,49.0,0.0
3.0,0.0,29.0,0.0
5.0,0.0,49.0,0.0
5.0,0.0,39.0,0.0
7.0,1.0,61.0,0.0
6.0,2.0,58.0,0.0
7.0,3.0,62.0,0.0
6.0,3.0,58.0,0.0
8.0,4.0,70.0,0.0
8.0,7.0,78.0,0.0
7.0,6.0,67.0,0.0
9.0,7.0,75.0,0.0
8.0,8.0,72.0,0.0
8.0,9.0,72.0,0.0
9.0,11.0,84.0,0.0
9.0,12.0,82.0,0.0
8.0,12.0,77.0,0.0
9.0,14.0,85.0,0.0
9.0,17.0,92.0,0.0
10.0,17.0,90.0,0.0
11.0,22.0,106.0,0.0
9.0,20.0,92.0,0.0
10.0,23.0,101.0,0.0
10.0,25.0,105.0,0.0
11.0,28.0,112.0,0.0
12.0,32.0,120.0,0.0
10.0,29.0,104.0,0.0
11.0,33.0,113.0,0.0
11.0,36.0,120.0,0.0
12.0,39.0,123.0,0.0
11.0,39.0,121.0,0.0
12.0,42.0,123.0,0.0
11.0,43.0,121.0,0.0
11.0,44.0,120.0,0.0
11.0,42.0,110.0,0.0
11.0,47.0,119.0,0.0
9.0,43.0,106.0,0.0
10.0,44.0,107.0,0.0
9.0,44.0,104.0,0.0
10.0,47.0,108.0,0.0
9.0,46.0,101.0,0.0
8.0,46.0,99.0,0.0
9.0,48.0,100.0,0.0
8.0,51.0,103.0,0.0
8.0,47.0,93.0,0.0
7.0,52.0,100.0,0.0
8.0,52.0,98.0,0.0
8.0,57.0,103.0,0.0
8.0,61.0,107.0,0.0
7.0,54.0,93.0,0.0
7.0,56.0,95.0,0.0
7.0,60.0,98.0,0.0
6.0,61.0,98.0,0.0
7.0,63.0,100.0,0.0
5.0,59.0,91.0,0.0
6.0,65.0,97.0,0.0
6.0,64.0,95.0,0.0
6.0,69.0,99.0,0.0
6.0,75.0,106.0,0.0
6.0,73.0,99.0,0.0
6.0,74.0,99.0,0.0
6.0,81.0,106.0,0.0
6.0,82.0,104.0,0.0
5.0,85.0,106.0,0.0
5.0,88.0,108.0,0.0
5.0,94.0,111.0,0.0
5.0,97.0,113.0,0.0
5.0,94.0,107.0,0.0
4.0,98.0,109.0,0.0
4.0,100.0,110.0,0.0
4.0,107.0,115.0,0.0
3.0,104.0,109.0,0.0
4.0,108.0,110.0,0.0
3.0,114.0,114.0,0.0
3.0,111.0,109.0,0.0
2.0,121.0,116.0,0.0
1.0,-296.0,93.0,0.0
2.0,-285.0,93.0,0.0
3.0,-282.0,94.0,0.0
3.0,-279.0,97.0,0.0
4.0,-277.0,99.0,0.0
4.0,-282.0,104.0,0.0
5.0,-277.0,106.0,0.0
5.0,-281.0,112.0,0.0
6.0,-282.0,115.0,0.0
7.0,-281.0,118.0,0.0
7.0,-277.0,120.0,0.0
7.0,-284.0,127.0,0.0
9.0,-280.0,129.0,0.0
9.0,-276.0,131.0,0.0
9.0,-273.0,133.0,0.0
10.0,-272.0,136.0,0.0
11.0,-276.0,141.0,0.0
11.0,-269.0,141.0,0.0
11.0,-273.0,148.0,0.0
13.0,-283.0,157.0,0.0
14.0,-291.0,165.0,0.0
13.0,-278.0,162.0,0.0
15.0,-280.0,168.0,0.0
13.0,-247.0,152.0,0.0
14.0,-258.0,161.0,0.0
14.0,-243.0,156.0,0.0
15.0,-238.0,157.0,0.0
13.0,-220.0,148.0,0.0
14.0,-210.0,144.0,0.0
14.0,-206.0,144.0,0.0
13.0,-191.0,138.0,0.0
13.0,-183.0,135.0,0.0
13.0,-180.0,136.0,0.0
12.0,-163.0,125.0,0.0
12.0,-155.0,122.0,0.0
13.0,-155.0,126.0,0.0
13.0,-145.0,120.0,0.0
13.0,-147.0,123.0,0.0
13.0,-145.0,125.0,0.0
13.0,-146.0,129.0,0.0
12.0,-126.0,114.0,0.0
11.0,-115.0,105.0,0.0
9.0,-95.0,89.0,0.0
9.0,-93.0,91.0,0.0
11.0,-100.0,99.0,0.0
8.0,-77.0,78.0,0.0
9.0,-75.0,77.0,0.0
191.0,-1638.0,1720.0,0.0
196.0,-1638.0,1757.0,0.0
196.0,-1592.0,1745.0,0.0
3085.0,-24497.0,27442.0,1.0
200.0,-1550.0,1776.0,0.0
203.0,-1527.0,1788.0,0.0
207.0,-1520.0,1819.0,0.0
3260.0,-23384.0,28609.0,1.0
206.0,-1443.0,1804.0,0.0
3353.0,-22875.0,29263.0,1.0
0.0,0.0,0.0,0.0
217.0,-1404.0,1879.0,0.0
219.0,-1385.0,1897.0,0.0
3538.0,-21852.0,30614.0,1.0
222.0,-1338.0,1920.0,0.0
3606.0,-21187.0,31093.0,1.0
3650.0,-20920.0,31430.0,1.0
224.0,-1253.0,1928.0,0.0
0.0,0.0,0.0,0.0
230.0,-1222.0,1975.0,0.0
3793.0,-19656.0,32521.0,1.0
236.0,-1193.0,2024.0,0.0
3826.0,-18836.0,32757.0,1.0
232.0,-1108.0,1978.0,0.0
0.0,0.0,0.0,0.0
0.0,0.0,0.0,0.0
4117.0,-18249.0,35207.0,1.0
4166.0,-17972.0,35619.0,1.0
4196.0,-17618.0,35885.0,1.0
247.0,-1011.0,2119.0,0.0
0.0,0.0,0.0,0.0
0.0,0.0,0.0,0.0
0.0,0.0,0.0,0.0
0.0,0.0,0.0,0.0
4268.0,-15090.0,36618.0,1.0
247.0,-845.0,2119.0,0.0
4242.0,-14102.0,36463.0,1.0
244.0,-787.0,2103.0,0.0
252.0,-783.0,2167.0,0.0
0.0,0.0,0.0,0.0
254.0,-741.0,2198.0,0.0
243.0,-683.0,2102.0,0.0
0.0,0.0,0.0,0.0
4317.0,-11289.0,37484.0,1.0
0.0,0.0,0.0,0.0
0.0,0.0,0.0,0.0
257.0,-596.0,2244.0,0.0
247.0,-550.0,2168.0,0.0
4385.0,-9325.0,38462.0,1.0
247.0,-501.0,2174.0,0.0
4345.0,-8404.0,38295.0,1.0
4330.0,-7959.0,38261.0,1.0
246.0,-428.0,2179.0,0.0
249.0,-411.0,2218.0,0.0
254.0,-393.0,2258.0,0.0
0.0,0.0,0.0,0.0
252.0,-343.0,2261.0,0.0
248.0,-313.0,2231.0,0.0
243.0,-285.0,2200.0,0.0
4140.0,-4431.0,37492.0,1.0
247.0,-240.0,2244.0,0.0
252.0,-220.0,2293.0,0.0
2278.0,-1774.0,20857.0,0.0
2132.0,-1450.0,19590.0,0.0
2091.0,-1217.0,19299.0,0.0
2086.0,-1008.0,19331.0,0.0
2267.0,-868.0,21088.0,0.0
3.0,-1.0,33.0,0.0
4.0,0.0,46.0,0.0
3.0,0.0,28.0,0.0
1920.0,45.0,18204.0,0.0
6.0,0.0,55.0,0.0
6.0,1.0,50.0,0.0
4.0,0.0,42.0,0.0
6.0,2.0,61.0,0.0
7.0,3.0,64.0,0.0
7.0,4.0,67.0,0.0
8.0,5.0,75.0,0.0
8.0,6.0,76.0,0.0
10.0,9.0,100.0,0.0
9.0,9.0,88.0,0.0
7.0,7.0,67.0,0.0
9.0,11.0,94.0,0.0
9.0,13.0,92.0,0.0
10.0,15.0,100.0,0.0
9.0,15.0,93.0,0.0
10.0,17.0,97.0,0.0
10.0,20.0,108.0,0.0
10.0,20.0,105.0,0.0
12.0,26.0,122.0,0.0
10.0,24.0,108.0,0.0
11.0,27.0,118.0,0.0
10.0,27.0,112.0,0.0
11.0,30.0,119.0,0.0
10.0,32.0,118.0,0.0
11.0,34.0,122.0,0.0
11.0,37.0,127.0,0.0
11.0,41.0,136.0,0.0
11.0,38.0,122.0,0.0
11.0,41.0,126.0,0.0
11.0,44.0,130.0,0.0
11.0,46.0,132.0,0.0
