//X,Y,Z,Classification
-17592,-3243,40877,0.0
0,0,0,0.0
-17571,-4194,40653,0.0
-17524,-4658,40456,0.0
-17621,-5160,40590,0.0
0,0,0,0.0
0,0,0,0.0
0,0,0,0.0
-17578,-7041,40116,0.0
0,0,0,0.0
0,0,0,0.0
-17526,-8429,39702,0.0
0,0,0,0.0
0,0,0,0.0
-17546,-9848,39437,0.0
0,0,0,0.0
-17514,-10767,39155,0.0
-17572,-11272,39174,0.0
-17512,-11702,38932,0.0
-17601,-12233,39018,0.0
0,0,0,0.0
0,0,0,0.0
-17549,-13607,38557,0.0
-17557,-14084,38457,0.0
-17563,-14561,38353,0.0
0,0,0,0.0
0,0,0,0.0
0,0,0,0.0
0,0,0,0.0
-17598,-16964,37803,0.0
0,0,0,0.0
-17571,-17892,37482,0.0
0,0,0,0.0
0,0,0,0.0
-17653,-19422,37250,0.0
0,0,0,0.0
-17669,-20412,37002,0.0
0,0,0,0.0
0,0,0,0.0
0,0,0,0.0
-17769,-22497,36616,0.0
0,0,0,0.0
-17612,-23288,35987,0.0
-17474,-23597,35548,0.0
-17292,-23841,35023,0.0
-17188,-24188,34655,0.0
-17047,-24475,34212,0.0
-16894,-24741,33746,0.0
-10078,-15050,20035,0.0
-9867,-15021,19521,0.0
-9615,-14918,18928,0.0
-9345,-14773,18302,0.0
-9178,-14779,17881,0.0
-8958,-14690,17361,0.0
-8790,-14677,16944,0.0
-8744,-14862,16762,0.0
-8730,-15100,16639,0.0
-8775,-15446,16631,0.0
-8799,-15756,16578,0.0
-8819,-16062,16515,0.0
-8832,-16361,16439,0.0
-8855,-16679,16379,0.0
-8862,-16971,16286,0.0
-8873,-17274,16200,0.0
-8911,-17631,16160,0.0
-8934,-17965,16091,0.0
-8964,-18316,16033,0.0
-8995,-18671,15971,0.0
-9012,-19003,15883,0.0
-9033,-19348,15802,0.0
-9057,-19706,15723,0.0
-9080,-20061,15636,0.0
-9107,-20433,15558,0.0
-9135,-20810,15475,0.0
-9166,-21199,15396,0.0
-9187,-21570,15296,0.0
-9208,-21948,15195,0.0
-9160,-22161,14976,0.0
-768,-1886,1244,0.0
-777,-1938,1247,0.0
-768,-1946,1221,0.0
-752,-1933,1184,0.0
-754,-1966,1174,0.0
-754,-1992,1159,0.0
-740,-1988,1127,0.0
-751,-2045,1130,0.0
-61,-169,91,0.0
-53,-149,78,0.0
-57,-164,83,0.0
-62,-181,89,0.0
-51,-150,73,0.0
-56,-168,78,0.0
-58,-177,81,0.0
-64,-197,87,0.0
-67,-208,89,0.0
-74,-236,98,0.0
-78,-249,100,0.0
-82,-269,105,0.0
-91,-301,114,0.0
-99,-332,121,0.0
-97,-332,117,0.0
-95,-327,111,0.0
-95,-332,109,0.0
-93,-330,104,0.0
-93,-333,102,0.0
-90,-329,96,0.0
-89,-331,93,0.0
-89,-336,90,0.0
-88,-339,87,0.0
-86,-332,82,0.0
-6062,17775,15550,0.0
-6101,17518,15660,0.0
-6109,17176,15691,0.0
-6111,16823,15704,0.0
-5817,15679,14956,0.0
-6031,15914,15513,0.0
-6107,15776,15716,0.0
-6948,17566,17883,0.0
-6939,17171,17866,0.0
-6928,16778,17843,0.0
-6944,16455,17887,0.0
-12378,28698,31888,0.0
-12455,28247,32089,0.0
-6833,15160,17607,0.0
-6945,15068,17895,0.0
-12199,25880,31431,0.0
-7231,15000,18632,0.0
-7276,14753,18746,0.0
-12238,24249,31522,0.0
-12322,23858,31734,0.0
-11866,22444,30553,0.0
-11893,21969,30616,0.0
-11879,21427,30571,0.0
-11774,20730,30290,0.0
-11844,20351,30461,0.0
0,0,0,0.0
-11999,19617,30834,0.0
-12116,19313,31120,0.0
-13225,20547,33954,0.0
0,0,0,0.0
-13055,19245,33481,0.0
-13091,18787,33553,0.0
0,0,0,0.0
-13052,17729,33412,0.0
-13011,17182,33285,0.0
0,0,0,0.0
-12969,16160,33129,0.0
-12918,15623,32975,0.0
-12927,15165,32973,0.0
-12917,14689,32921,0.0
0,0,0,0.0
-12767,13614,32483,0.0
-12718,13117,32329,0.0
-12736,12693,32343,0.0
-12786,12304,32440,0.0
-8653,8032,21932,0.0
-8657,7744,21922,0.0
-8635,7434,21842,0.0
-8614,7130,21765,0.0
-8603,6838,21716,0.0
-8585,6542,21644,0.0
-8565,6249,21569,0.0
-8556,5967,21522,0.0
-8537,5679,21447,0.0
-8509,5390,21351,0.0
-8505,5119,21312,0.0
-8481,4840,21226,0.0
-8470,4570,21172,0.0
-8466,4305,21133,0.0
-8455,4038,21075,0.0
-8432,3770,20991,0.0
-8423,3509,20937,0.0
-8414,3252,20885,0.0
-8391,2990,20796,0.0
-8383,2736,20743,0.0
-8372,2482,20685,0.0
-8373,2235,20654,0.0
-8353,1983,20571,0.0
-8335,1734,20495,0.0
-8335,1491,20459,0.0
-8313,1245,20372,0.0
-8315,1005,20342,0.0
-8301,763,20270,0.0
-8302,525,20235,0.0
-8653,299,21054,0.0
-8888,53,21587,0.0
-9370,-210,22713,0.0
0,0,0,0.0
-17105,-1352,41298,0.0
-17078,-1831,41153,0.0
0,0,0,0.0
-17021,-2780,40848,0.0
0,0,0,0.0
-17077,-3745,40811,0.0
0,0,0,0.0
0,0,0,0.0
-17053,-5161,40485,0.0
0,0,0,0.0
-16973,-6077,40114,0.0
0,0,0,0.0
0,0,0,0.0
0,0,0,0.0
0,0,0,0.0
-17044,-8451,39796,0.0
0,0,0,0.0
0,0,0,0.0
-16998,-9829,39382,0.0
0,0,0,0.0
-16985,-10754,39142,0.0
-17000,-11230,39068,0.0
-17005,-11701,38970,0.0
-16970,-12144,38782,0.0
0,0,0,0.0
-16991,-13093,38605,0.0
0,0,0,0.0
0,0,0,0.0
0,0,0,0.0
0,0,0,0.0
0,0,0,0.0
-17029,-15946,37977,0.0
0,0,0,0.0
0,0,0,0.0
0,0,0,0.0
0,0,0,0.0
0,0,0,0.0
0,0,0,0.0
0,0,0,0.0
0,0,0,0.0
-17158,-20394,37069,0.0
0,0,0,0.0
0,0,0,0.0
0,0,0,0.0
0,0,0,0.0
-17236,-22951,36501,0.0
-17109,-23277,36081,0.0
-16950,-23552,35593,0.0
-16821,-23864,35168,0.0
-16660,-24123,34676,0.0
-16519,-24405,34227,0.0
-16399,-24714,33822,0.0
-16265,-24995,33387,0.0
-9601,-15042,19615,0.0
-9347,-14925,19003,0.0
-9100,-14805,18408,0.0
-8890,-14733,17891,0.0
-8715,-14710,17449,0.0
-8563,-14716,17054,0.0
-8473,-14823,16783,0.0
-8449,-15044,16642,0.0
-8494,-15392,16640,0.0
-8516,-15701,16586,0.0
-8533,-16003,16521,0.0
-8554,-16315,16461,0.0
-8579,-16639,16408,0.0
-8573,-16908,16295,0.0
-8591,-17222,16222,0.0
-8602,-17529,16137,0.0
-8644,-17902,16108,0.0
-8662,-18230,16031,0.0
-8692,-18589,15974,0.0
-8710,-18924,15892,0.0
-8732,-19272,15814,0.0
-8755,-19627,15736,0.0
-8774,-19976,15649,0.0
-8803,-20353,15576,0.0
-8824,-20720,15487,0.0
-8853,-21106,15408,0.0
-8878,-21489,15320,0.0
-8902,-21877,15227,0.0
-8837,-22044,14978,0.0
0,0,0,0.0
-743,-1911,1237,0.0
-754,-1967,1242,0.0
-749,-1984,1221,0.0
-731,-1966,1180,0.0
-727,-1983,1161,0.0
-726,-2009,1147,0.0
-729,-2049,1139,0.0
-60,-171,93,0.0
-64,-187,98,0.0
-68,-200,103,0.0
-66,-198,99,0.0
-65,-197,95,0.0
-62,-191,89,0.0
-64,-202,92,0.0
-64,-206,91,0.0
-70,-228,98,0.0
-71,-231,96,0.0
-77,-258,105,0.0
-84,-284,111,0.0
-88,-304,116,0.0
-93,-325,120,0.0
-93,-329,118,0.0
-90,-325,112,0.0
-91,-329,109,0.0
-89,-327,104,0.0
-88,-331,101,0.0
-86,-326,96,0.0
-85,-330,94,0.0
-85,-334,91,0.0
-82,-327,85,0.0
-85,-341,85,0.0
-6070,18411,16200,0.0
-6089,18081,16256,0.0
-6091,17703,16264,0.0
-6095,17342,16281,0.0
-6086,16950,16261,0.0
-6082,16578,16251,0.0
-6054,16152,16180,0.0
-5993,15645,16018,0.0
-6039,15428,16143,0.0
-6900,17246,18443,0.0
-6884,16835,18402,0.0
-6934,16587,18534,0.0
-7006,16393,18726,0.0
-6625,15161,17706,0.0
-6744,15090,18019,0.0
-6857,15002,18319,0.0
-6972,14907,18618,0.0
-11768,24592,31419,0.0
-11789,24074,31467,0.0
-11847,23633,31609,0.0
-11465,22339,30579,0.0
-11449,21784,30525,0.0
0,0,0,0.0
0,0,0,0.0
-11422,20204,30409,0.0
-11357,19597,30220,0.0
-11591,19505,30827,0.0
-11695,19185,31087,0.0
-12762,20400,33900,0.0
-12650,19700,33583,0.0
-12590,19091,33400,0.0
0,0,0,0.0
-12656,18174,33527,0.0
-12609,17609,33376,0.0
-12618,17130,33376,0.0
-12532,16529,33121,0.0
-12534,16052,33099,0.0
0,0,0,0.0
-12459,15018,32846,0.0
-12406,14493,32675,0.0
0,0,0,0.0
-12421,13602,32652,0.0
-12323,13051,32363,0.0
-12327,12615,32340,0.0
0,0,0,0.0
-8379,7983,21935,0.0
-8364,7678,21875,0.0
-8351,7379,21818,0.0
-8328,7072,21731,0.0
-8326,6788,21699,0.0
-8309,6494,21629,0.0
-8292,6203,21559,0.0
-8282,5922,21508,0.0
-8256,5631,21411,0.0
-8245,5353,21355,0.0
-8231,5077,21294,0.0
-8215,4802,21223,0.0
-8213,4537,21188,0.0
-8197,4267,21116,0.0
-8187,4003,21060,0.0
-8176,3739,21001,0.0
-8155,3475,20915,0.0
-8145,3218,20862,0.0
-8130,2960,20790,0.0
-8127,2708,20749,0.0
-8109,2455,20671,0.0
-8102,2205,20621,0.0
-8092,1957,20559,0.0
-8085,1712,20509,0.0
-8073,1467,20442,0.0
-8072,1225,20403,0.0
-8062,984,20342,0.0
-8046,743,20267,0.0
-8065,507,20279,0.0
-8416,281,21120,0.0
-8649,35,21666,0.0
-9123,-229,22807,0.0
0,0,0,0.0
0,0,0,0.0
-16578,-1861,41201,0.0
0,0,0,0.0
-16560,-2814,40991,0.0
0,0,0,0.0
-16548,-3762,40788,0.0
-16517,-4228,40625,0.0
-16573,-4716,40672,0.0
-16555,-5183,40536,0.0
0,0,0,0.0
0,0,0,0.0
-16528,-6583,40193,0.0
0,0,0,0.0
0,0,0,0.0
0,0,0,0.0
-16506,-8442,39752,0.0
0,0,0,0.0
0,0,0,0.0
0,0,0,0.0
0,0,0,0.0
-16469,-10747,39149,0.0
-16507,-11238,39132,0.0
-16452,-11665,38893,0.0
-16490,-12158,38876,0.0
-16479,-12616,38739,0.0
0,0,0,0.0
-16508,-13571,38579,0.0
0,0,0,0.0
0,0,0,0.0
0,0,0,0.0
0,0,0,0.0
-16539,-15948,38059,0.0
0,0,0,0.0
0,0,0,0.0
-16578,-17409,37772,0.0
0,0,0,0.0
0,0,0,0.0
0,0,0,0.0
0,0,0,0.0
0,0,0,0.0
-16574,-20283,36965,0.0
0,0,0,0.0
0,0,0,0.0
-16665,-21862,36741,0.0
-16664,-22353,36592,0.0
0,0,0,0.0
-16592,-23245,36139,0.0
-16436,-23517,35647,0.0
-16306,-23822,35216,0.0
-16168,-24109,34765,0.0
-16038,-24401,34331,0.0
-15899,-24675,33879,0.0
-15769,-24957,33448,0.0
-9340,-15070,19719,0.0
-9107,-14977,19135,0.0
-8849,-14827,18500,0.0
-8615,-14707,17924,0.0
-8492,-14765,17578,0.0
-8322,-14733,17137,0.0
-8207,-14792,16809,0.0
-8185,-15015,16673,0.0
-8225,-15356,16664,0.0
-8245,-15660,16608,0.0
-8260,-15962,16545,0.0
-8272,-16258,16470,0.0
-8289,-16570,16406,0.0
-8314,-16897,16353,0.0
-8308,-17169,16242,0.0
-8335,-17507,16188,0.0
-8349,-17826,16110,0.0
-8376,-18174,16053,0.0
-8402,-18525,15992,0.0
-8420,-18862,15914,0.0
-8433,-19193,15824,0.0
-8457,-19554,15753,0.0
-8481,-19917,15679,0.0
-8501,-20277,15593,0.0
-8525,-20648,15512,0.0
-8546,-21022,15425,0.0
-8570,-21404,15338,0.0
-8597,-21800,15254,0.0
-8603,-22149,15131,0.0
-735,-1922,1282,0.0
0,0,0,0.0
-724,-1952,1240,0.0
-720,-1971,1221,0.0
-709,-1969,1190,0.0
0,0,0,0.0
-707,-2023,1162,0.0
-58,-171,95,0.0
-69,-206,111,0.0
-68,-206,109,0.0
-68,-207,107,0.0
-68,-214,107,0.0
-63,-200,97,0.0
-63,-203,97,0.0
-58,-189,88,0.0
-62,-202,91,0.0
-62,-210,92,0.0
-68,-233,98,0.0
-75,-258,105,0.0
-82,-286,113,0.0
-85,-298,115,0.0
-93,-335,125,0.0
-92,-336,120,0.0
-89,-330,114,0.0
-93,-347,116,0.0
-89,-340,110,0.0
-87,-338,105,0.0
-87,-342,102,0.0
-86,-345,98,0.0
-84,-338,93,0.0
-83,-343,91,0.0
-82,-346,87,0.0
-5945,18671,16520,0.0
-5976,18369,16608,0.0
-5942,17876,16515,0.0
-5912,17407,16433,0.0
-5884,16953,16354,0.0
-5855,16509,16273,0.0
-5816,16046,16163,0.0
-5768,15571,16029,0.0
-6861,18119,19062,0.0
-6875,17762,19098,0.0
-6865,17345,19063,0.0
-6836,16892,18976,0.0
-6810,16458,18902,0.0
-6771,16000,18786,0.0
-6521,15063,18085,0.0
-6699,15124,18569,0.0
-6739,14870,18673,0.0
-11441,24669,31687,0.0
-11368,23948,31470,0.0
-11015,22665,30478,0.0
-11046,22196,30547,0.0
-11052,21683,30547,0.0
-11010,21086,30414,0.0
-10994,20546,30352,0.0
-11096,20230,30612,0.0
-11160,19845,30769,0.0
-11193,19406,30838,0.0
-11276,19055,31045,0.0
0,0,0,0.0
0,0,0,0.0
0,0,0,0.0
-12237,18595,33583,0.0
-12219,18063,33505,0.0
-12169,17491,33338,0.0
-12186,17023,33355,0.0
-10992,14916,30060,0.0
-10942,14417,29896,0.0
-10941,13987,29863,0.0
-10925,13544,29790,0.0
-10978,13188,29904,0.0
-11986,13945,32619,0.0
0,0,0,0.0
-11930,12987,32395,0.0
-11922,12539,32338,0.0
-11896,12077,32234,0.0
-8115,7944,21961,0.0
-8090,7629,21869,0.0
-8078,7331,21812,0.0
-8065,7034,21751,0.0
-8055,6743,21696,0.0
-8038,6449,21622,0.0
-8027,6164,21565,0.0
-8017,5882,21511,0.0
-7989,5590,21407,0.0
-7976,5313,21343,0.0
-7959,5034,21265,0.0
-7948,4764,21209,0.0
-7944,4499,21166,0.0
-7932,4232,21107,0.0
-7924,3969,21053,0.0
-7906,3703,20972,0.0
-7893,3444,20906,0.0
-7885,3188,20853,0.0
-7882,2935,20812,0.0
-7871,2682,20751,0.0
-7863,2431,20694,0.0
-7840,2179,20599,0.0
-7844,1935,20575,0.0
-7830,1689,20506,0.0
-7825,1445,20457,0.0
-7813,1203,20388,0.0
-7806,963,20334,0.0
-7784,723,20239,0.0
-7817,488,20290,0.0
-8184,263,21200,0.0
-8397,17,21710,0.0
-8854,-247,22849,0.0
0,0,0,0.0
0,0,0,0.0
0,0,0,0.0
-16092,-2369,41196,0.0
-16026,-2834,40943,0.0
0,0,0,0.0
-16023,-3780,40760,0.0
-16036,-4254,40706,0.0
-16017,-4720,40566,0.0
0,0,0,0.0
-15994,-5649,40327,0.0
-16003,-6120,40259,0.0
-15970,-6573,40080,0.0
-15974,-7041,39998,0.0
-15991,-7513,39946,0.0
0,0,0,0.0
0,0,0,0.0
0,0,0,0.0
-15954,-9350,39457,0.0
-15949,-9810,39342,0.0
-15992,-10300,39345,0.0
-15946,-10733,39127,0.0
-15963,-11208,39064,0.0
-15975,-11680,38986,0.0
0,0,0,0.0
-15958,-12596,38728,0.0
-15965,-13066,38635,0.0
0,0,0,0.0
0,0,0,0.0
0,0,0,0.0
0,0,0,0.0
0,0,0,0.0
-16029,-15929,38089,0.0
0,0,0,0.0
-16023,-16867,37829,0.0
0,0,0,0.0
0,0,0,0.0
0,0,0,0.0
-16049,-18797,37381,0.0
0,0,0,0.0
0,0,0,0.0
-16055,-20247,36994,0.0
-16087,-20772,36929,0.0
-16090,-21263,36798,0.0
-16130,-21806,36748,0.0
0,0,0,0.0
-16101,-22750,36392,0.0
-16078,-23212,36193,0.0
-15911,-23462,35669,0.0
-15816,-23812,35307,0.0
0,0,0,0.0
-15512,-24326,34333,0.0
-15394,-24625,33919,0.0
-15281,-24929,33519,0.0
-9057,-15063,19775,0.0
-8836,-14980,19203,0.0
-8582,-14824,18560,0.0
-8349,-14694,17970,0.0
-8240,-14772,17648,0.0
-8076,-14741,17206,0.0
-7929,-14734,16805,0.0
-7913,-14969,16683,0.0
-7944,-15293,16659,0.0
-7963,-15600,16607,0.0
-7979,-15902,16546,0.0
-7985,-16188,16464,0.0
-8003,-16500,16403,0.0
-8022,-16821,16345,0.0
-8038,-17136,16277,0.0
-8053,-17452,16205,0.0
-8070,-17778,16135,0.0
-8087,-18108,16063,0.0
-8097,-18425,15975,0.0
-8117,-18767,15904,0.0
-8138,-19116,15833,0.0
-8161,-19478,15764,0.0
-8176,-19822,15675,0.0
-8202,-20199,15608,0.0
-8214,-20548,15511,0.0
-8241,-20935,15437,0.0
-8262,-21313,15349,0.0
-8286,-21706,15265,0.0
-8306,-22094,15171,0.0
-8236,-22245,14912,0.0
0,0,0,0.0
0,0,0,0.0
-698,-1974,1230,0.0
-704,-2021,1228,0.0
-693,-2019,1196,0.0
0,0,0,0.0
-691,-2078,1170,0.0
-60,-185,102,0.0
-65,-201,107,0.0
-65,-208,108,0.0
-62,-202,102,0.0
-64,-211,104,0.0
-65,-216,102,0.0
-65,-217,100,0.0
-63,-214,96,0.0
-66,-228,100,0.0
-68,-238,101,0.0
-71,-253,104,0.0
-77,-280,112,0.0
-82,-301,116,0.0
-88,-331,124,0.0
-90,-339,122,0.0
-87,-338,118,0.0
-85,-332,113,0.0
-85,-338,110,0.0
-83,-332,104,0.0
-82,-337,101,0.0
-82,-340,99,0.0
-79,-336,94,0.0
-79,-338,90,0.0
-78,-343,88,0.0
-5725,18651,16594,0.0
-5223,16647,15133,0.0
-5688,17738,16476,0.0
-5666,17287,16407,0.0
-5251,15675,15201,0.0
-5435,15872,15729,0.0
-5563,15891,16092,0.0
-5559,15534,16075,0.0
-6629,18117,19161,0.0
-6621,17700,19132,0.0
-6587,17220,19025,0.0
-6553,16750,18917,0.0
-6517,16286,18802,0.0
-6408,15655,18478,0.0
-6326,15105,18230,0.0
-6429,15002,18515,0.0
-6478,14771,18646,0.0
-10820,24102,31121,0.0
-10825,23554,31116,0.0
-10623,22572,30512,0.0
-10651,22098,30571,0.0
-10602,21472,30408,0.0
0,0,0,0.0
0,0,0,0.0
-10737,20197,30721,0.0
-10786,19785,30838,0.0
-10869,19437,31050,0.0
-10891,18980,31087,0.0
-11867,20145,33838,0.0
-11879,19639,33842,0.0
-11805,18999,33600,0.0
-11762,18420,33446,0.0
0,0,0,0.0
-11739,17386,33315,0.0
-11718,16864,33223,0.0
-10741,15015,30423,0.0
-10945,14850,30964,0.0
-10964,14433,30988,0.0
-10951,13978,30918,0.0
-10913,13497,30777,0.0
-10909,13064,30729,0.0
-11048,12800,31083,0.0
-11485,12864,32275,0.0
-11560,12508,32448,0.0
-11499,12008,32239,0.0
-7827,7880,21918,0.0
-7817,7580,21858,0.0
-7802,7279,21789,0.0
-7790,6984,21728,0.0
-7773,6688,21654,0.0
-7753,6393,21567,0.0
-7729,6099,21474,0.0
-7739,5833,21471,0.0
-7721,5549,21391,0.0
-7713,5274,21338,0.0
-7694,4996,21255,0.0
-7698,4735,21234,0.0
-7674,4458,21135,0.0
-7662,4193,21072,0.0
-7648,3928,21002,0.0
-7644,3671,20956,0.0
-7646,3418,20931,0.0
-7622,3156,20831,0.0
-7612,2902,20771,0.0
-7607,2652,20724,0.0
-7595,2402,20654,0.0
-7577,2152,20573,0.0
-7581,1909,20546,0.0
-7574,1665,20492,0.0
-7563,1422,20428,0.0
-7570,1183,20407,0.0
-7548,942,20312,0.0
-7515,702,20187,0.0
-7597,473,20366,0.0
-7918,245,21188,0.0
-8158,0,21788,0.0
-8601,-265,22928,0.0
0,0,0,0.0
0,0,0,0.0
0,0,0,0.0
-15516,-2383,41026,0.0
-15516,-2857,40941,0.0
-15483,-3321,40769,0.0
-15521,-3800,40781,0.0
-15481,-4259,40588,0.0
-15491,-4730,40526,0.0
-15516,-5204,40498,0.0
-15455,-5650,40250,0.0
-15486,-6126,40237,0.0
-15455,-6579,40064,0.0
-15489,-7056,40057,0.0
-15495,-7525,39979,0.0
-15454,-7966,39776,0.0
-15468,-8436,39714,0.0
-15464,-8897,39604,0.0
0,0,0,0.0
0,0,0,0.0
0,0,0,0.0
-15471,-10748,39215,0.0
-15428,-11180,39003,0.0
-15461,-11666,38979,0.0
0,0,0,0.0
-15502,-12624,38865,0.0
-15453,-13048,38634,0.0
0,0,0,0.0
-15454,-13976,38413,0.0
0,0,0,0.0
0,0,0,0.0
-15506,-15425,38194,0.0
0,0,0,0.0
0,0,0,0.0
0,0,0,0.0
0,0,0,0.0
0,0,0,0.0
-15551,-18307,37570,0.0
-15542,-18774,37420,0.0
-15544,-19256,37297,0.0
0,0,0,0.0
-15545,-20219,37034,0.0
-15563,-20725,36940,0.0
-15591,-21249,36869,0.0
-15620,-21780,36801,0.0
-15605,-22248,36623,0.0
0,0,0,0.0
-15594,-23222,36311,0.0
-15435,-23476,35794,0.0
-15322,-23796,35386,0.0
-15169,-24048,34887,0.0
-15032,-24316,34424,0.0
-14910,-24605,33997,0.0
-14794,-24898,33583,0.0
-8812,-15121,19914,0.0
-8575,-14999,19292,0.0
-8346,-14876,18687,0.0
-8116,-14739,18086,0.0
-8007,-14811,17756,0.0
-7835,-14759,17288,0.0
-7669,-14708,16835,0.0
-7648,-14931,16701,0.0
-7680,-15261,16684,0.0
-7696,-15562,16629,0.0
-7708,-15859,16563,0.0
-7714,-16144,16482,0.0
-7733,-16462,16429,0.0
-7747,-16773,16364,0.0
-7758,-17078,16287,0.0
-7771,-17394,16216,0.0
-7797,-17741,16169,0.0
-7804,-18048,16078,0.0
-7822,-18388,16011,0.0
-7841,-18731,15943,0.0
-7847,-19047,15846,0.0
-7868,-19404,15776,0.0
-7877,-19737,15680,0.0
-7907,-20126,15624,0.0
-7920,-20478,15531,0.0
-7945,-20864,15459,0.0
-7966,-21248,15377,0.0
-7986,-21634,15291,0.0
-8006,-22025,15202,0.0
-7972,-22270,15006,0.0
-679,-1930,1269,0.0
-667,-1923,1234,0.0
-673,-1972,1235,0.0
-675,-2006,1226,0.0
-652,-1967,1172,0.0
-656,-2010,1168,0.0
-664,-2066,1170,0.0
-662,-2092,1154,0.0
-52,-168,90,0.0
-51,-170,89,0.0
-55,-182,92,0.0
-53,-183,90,0.0
-57,-195,94,0.0
-58,-202,95,0.0
-54,-190,85,0.0
-63,-225,99,0.0
-63,-233,99,0.0
-70,-258,108,0.0
-73,-273,110,0.0
-78,-297,116,0.0
-84,-325,123,0.0
-86,-339,123,0.0
-84,-335,118,0.0
-84,-341,116,0.0
-84,-345,114,0.0
-81,-341,108,0.0
-80,-338,103,0.0
-78,-339,99,0.0
-78,-344,96,0.0
-76,-339,91,0.0
-75,-342,88,0.0
-4945,16733,14965,0.0
-5031,16655,15220,0.0
-5390,17451,16294,0.0
-5329,16875,16100,0.0
-5298,16409,15997,0.0
-5242,15881,15820,0.0
-5266,15602,15883,0.0
-5345,15486,16108,0.0
-6365,18032,19169,0.0
-6343,17568,19088,0.0
-6314,17098,18987,0.0
-5987,15850,17991,0.0
-6150,15913,18465,0.0
-6220,15731,18664,0.0
-6226,15388,18667,0.0
-6207,14990,18595,0.0
-6266,14783,18756,0.0
-10440,24055,31218,0.0
-10581,23811,31614,0.0
-10248,22517,30592,0.0
-10252,21988,30574,0.0
-10217,21386,30442,0.0
-10249,20933,30508,0.0
-10234,20391,30435,0.0
-10386,20182,30857,0.0
-10448,19794,31009,0.0
-10479,19352,31074,0.0
-10503,18899,31113,0.0
-11450,20066,33879,0.0
-11414,19477,33737,0.0
0,0,0,0.0
0,0,0,0.0
0,0,0,0.0
0,0,0,0.0
-10236,15192,30088,0.0
-11289,16271,33145,0.0
-10256,14348,30079,0.0
-10237,13891,29986,0.0
-10245,13477,29973,0.0
-10465,13336,30577,0.0
-10529,12992,30729,0.0
-11130,13285,32441,0.0
-11150,12864,32456,0.0
-11126,12398,32345,0.0
-11105,11941,32242,0.0
-7555,7832,21908,0.0
-7546,7533,21849,0.0
-7535,7235,21789,0.0
-7527,6943,21733,0.0
-7496,6636,21618,0.0
-7499,6360,21593,0.0
-7458,6053,21447,0.0
-7470,5790,21450,0.0
-7463,5514,21399,0.0
-7449,5237,21326,0.0
-7441,4966,21271,0.0
-7429,4695,21204,0.0
-7422,4430,21152,0.0
-7394,4154,21036,0.0
-7403,3903,21029,0.0
-7392,3643,20964,0.0
-7383,3386,20905,0.0
-7373,3131,20843,0.0
-7362,2877,20776,0.0
-7367,2631,20755,0.0
-7352,2380,20676,0.0
-7316,2124,20538,0.0
-7330,1887,20544,0.0
-7326,1644,20496,0.0
-7312,1401,20420,0.0
-7305,1161,20362,0.0
-7304,924,20324,0.0
-7274,685,20200,0.0
-7368,456,20424,0.0
-7659,228,21189,0.0
-7914,-16,21854,0.0
-8307,-282,22892,0.0
-15014,-985,41290,0.0
-15041,-1463,41284,0.0
0,0,0,0.0
0,0,0,0.0
-14982,-2873,40866,0.0
-14962,-3337,40726,0.0
0,0,0,0.0
-14960,-4271,40547,0.0
-14976,-4741,40498,0.0
0,0,0,0.0
-14980,-5671,40326,0.0
0,0,0,0.0
-14958,-6589,40083,0.0
-14959,-7051,39992,0.0
0,0,0,0.0
-14965,-7977,39816,0.0
0,0,0,0.0
-14955,-8893,39594,0.0
-14934,-9340,39440,0.0
-14960,-9817,39406,0.0
0,0,0,0.0
-14928,-10714,39120,0.0
-14931,-11175,39023,0.0
0,0,0,0.0
-14947,-12109,38854,0.0
-14909,-12539,38650,0.0
0,0,0,0.0
0,0,0,0.0
0,0,0,0.0
-14964,-14438,38349,0.0
0,0,0,0.0
0,0,0,0.0
-14991,-15862,38071,0.0
0,0,0,0.0
0,0,0,0.0
-15019,-17304,37783,0.0
0,0,0,0.0
0,0,0,0.0
0,0,0,0.0
-15016,-19201,37277,0.0
0,0,0,0.0
0,0,0,0.0
0,0,0,0.0
0,0,0,0.0
-15084,-21711,36780,0.0
0,0,0,0.0
-15070,-22673,36467,0.0
-15041,-23123,36256,0.0
-14914,-23419,35807,0.0
-14793,-23720,35375,0.0
-14653,-23984,34896,0.0
-14540,-24285,34481,0.0
-14406,-24548,34020,0.0
-14294,-24841,33609,0.0
-8512,-15083,19927,0.0
-8310,-15010,19366,0.0
-8074,-14863,18730,0.0
-7863,-14748,18156,0.0
-7752,-14811,17815,0.0
-7577,-14745,17329,0.0
-7406,-14674,16854,0.0
-7387,-14899,16724,0.0
-7404,-15200,16676,0.0
-7420,-15505,16627,0.0
-7426,-15787,16550,0.0
-7443,-16099,16497,0.0
-7446,-16384,16413,0.0
-7461,-16695,16350,0.0
-7475,-17011,16287,0.0
-7494,-17340,16231,0.0
-7502,-17647,16148,0.0
-7510,-17961,16066,0.0
-7522,-18284,15988,0.0
-7545,-18642,15934,0.0
-7560,-18981,15858,0.0
-7565,-19301,15760,0.0
-7589,-19673,15699,0.0
-7602,-20020,15612,0.0
-7622,-20394,15539,0.0
-7646,-20785,15472,0.0
-7650,-21121,15358,0.0
-7678,-21533,15293,0.0
-7695,-21920,15203,0.0
-7670,-22189,15026,0.0
-658,-1934,1279,0.0
0,0,0,0.0
-650,-1971,1242,0.0
-642,-1977,1215,0.0
-645,-2018,1209,0.0
-631,-2004,1170,0.0
-628,-2027,1155,0.0
-643,-2108,1170,0.0
-637,-2118,1145,0.0
-622,-2100,1105,0.0
-56,-192,98,0.0
-51,-183,91,0.0
-55,-197,96,0.0
-58,-212,99,0.0
-60,-219,100,0.0
-59,-222,98,0.0
-62,-238,103,0.0
-63,-243,101,0.0
-68,-268,109,0.0
-73,-292,115,0.0
-79,-317,121,0.0
-80,-329,121,0.0
-80,-332,118,0.0
-79,-335,115,0.0
-77,-334,111,0.0
-75,-328,104,0.0
-74,-330,102,0.0
-75,-336,99,0.0
-74,-339,97,0.0
-71,-333,91,0.0
-71,-336,88,0.0
-4351,16678,15141,0.0
-4439,16625,15420,0.0
-4525,16563,15696,0.0
-4596,16437,15915,0.0
-4702,16436,16260,0.0
-4788,16349,16527,0.0
-4759,15880,16402,0.0
-4796,15636,16504,0.0
-4835,15397,16608,0.0
-5176,16103,17751,0.0
-5268,16011,18039,0.0
-5381,15976,18399,0.0
-5433,15754,18547,0.0
-5557,15738,18943,0.0
-5421,14990,18448,0.0
-5617,15166,19085,0.0
-5640,14864,19132,0.0
-5692,14644,19280,0.0
-9039,22690,30565,0.0
-6990,17123,23602,0.0
-9059,21648,30539,0.0
-9009,20997,30322,0.0
-7283,16553,24476,0.0
-7283,16138,24438,0.0
-7284,15730,24403,0.0
-7271,15300,24322,0.0
-7275,14913,24297,0.0
-7259,14491,24207,0.0
-7233,14055,24081,0.0
-7246,13703,24087,0.0
0,0,0,0.0
-10119,18099,33528,0.0
-10091,17544,33384,0.0
0,0,0,0.0
-10060,16502,33177,0.0
-9273,14763,30531,0.0
-9244,14277,30390,0.0
-9228,13819,30289,0.0
-9207,13358,30170,0.0
-9390,13193,30722,0.0
-9428,12817,30796,0.0
-9712,12766,31670,0.0
-9902,12576,32239,0.0
-9908,12147,32205,0.0
-6758,7992,21933,0.0
-6805,7753,22049,0.0
-6812,7470,22034,0.0
-6804,7174,21972,0.0
-6801,6886,21925,0.0
-6824,6624,21959,0.0
-6827,6347,21931,0.0
-6811,6056,21847,0.0
-6836,5800,21886,0.0
-6795,5493,21718,0.0
-6816,5239,21748,0.0
-6844,4991,21800,0.0
-6841,4722,21754,0.0
-6824,4444,21660,0.0
-6844,4193,21686,0.0
-6825,3920,21586,0.0
-6847,3672,21618,0.0
-6843,3412,21565,0.0
-6854,3159,21559,0.0
-6857,2904,21528,0.0
-6884,2661,21576,0.0
-6853,2396,21440,0.0
-6814,2133,21276,0.0
-6847,1893,21338,0.0
-7478,1797,23262,0.0
-7479,1527,23219,0.0
-6754,1137,20928,0.0
-6606,876,20430,0.0
-6588,638,20333,0.0
-6773,416,20863,0.0
-6901,181,21213,0.0
-6893,-61,21149,0.0
-6898,-303,21120,0.0
-6898,-544,21077,0.0
-6894,-784,21022,0.0
-6884,-1021,20945,0.0
-6887,-1260,20911,0.0
-6892,-1499,20880,0.0
-6900,-1738,20859,0.0
-6874,-1967,20737,0.0
-6869,-2201,20675,0.0
-6880,-2440,20661,0.0
-6878,-2673,20611,0.0
-6861,-2901,20515,0.0
-6861,-3134,20466,0.0
-6873,-3373,20454,0.0
-6885,-3613,20443,0.0
-6863,-3834,20331,0.0
-6871,-4071,20307,0.0
-6870,-4304,20255,0.0
-6868,-4535,20198,0.0
-6866,-4766,20143,0.0
-6876,-5005,20121,0.0
-6873,-5235,20063,0.0
-6867,-5463,19995,0.0
-6860,-5690,19922,0.0
-6868,-5930,19893,0.0
-6867,-6162,19839,0.0
-6868,-6396,19789,0.0
-6847,-6610,19675,0.0
-6851,-6848,19633,0.0
-6856,-7086,19593,0.0
-6861,-7327,19554,0.0
-6855,-7555,19480,0.0
-6848,-7782,19403,0.0
-6852,-8023,19359,0.0
-6872,-8284,19358,0.0
-6868,-8516,19289,0.0
-6869,-8756,19233,0.0
-6877,-9005,19196,0.0
-6871,-9238,19120,0.0
-6882,-9495,19090,0.0
-6876,-9728,19012,0.0
-6882,-9980,18966,0.0
-6889,-10235,18924,0.0
-6884,-10473,18847,0.0
-6894,-10733,18806,0.0
-6889,-10974,18730,0.0
-6889,-11223,18664,0.0
-6883,-11465,18584,0.0
-6894,-11733,18543,0.0
-6893,-11986,18474,0.0
-6904,-12260,18433,0.0
-6907,-12522,18370,0.0
-6918,-12800,18329,0.0
-6922,-13068,18267,0.0
-6927,-13341,18209,0.0
-6933,-13616,18148,0.0
-6921,-13858,18043,0.0
-6919,-14123,17962,0.0
-6939,-14434,17935,0.0
-6940,-14707,17859,0.0
-6885,-14864,17640,0.0
-6777,-14901,17283,0.0
-6642,-14872,16861,0.0
-6738,-15360,17023,0.0
-7543,-17504,18964,0.0
-7555,-17845,18902,0.0
-6869,-16509,17098,0.0
-7576,-18529,18763,0.0
-7588,-18881,18693,0.0
-7609,-19260,18645,0.0
-7615,-19605,18558,0.0
-7626,-19967,18480,0.0
-6910,-18401,16652,0.0
-7655,-20727,18338,0.0
-6903,-19006,16440,0.0
-7673,-21476,18162,0.0
-6915,-19677,16267,0.0
-6940,-20074,16222,0.0
-6945,-20417,16125,0.0
-6986,-20872,16111,0.0
-6987,-21215,16002,0.0
-6897,-21286,15687,0.0
-6891,-21613,15562,0.0
-6991,-22279,15668,0.0
-587,-1901,1305,0.0
-582,-1919,1287,0.0
-589,-1974,1293,0.0
-585,-1992,1272,0.0
-558,-1927,1202,0.0
-565,-1984,1207,0.0
-571,-2036,1208,0.0
-558,-2025,1172,0.0
-560,-2063,1164,0.0
-548,-2052,1128,0.0
-40,-158,84,0.0
-45,-174,90,0.0
-39,-154,78,0.0
-46,-186,92,0.0
-42,-176,84,0.0
-44,-181,85,0.0
-48,-203,92,0.0
-48,-209,93,0.0
-50,-220,93,0.0
-55,-247,102,0.0
-61,-278,111,0.0
-60,-278,108,0.0
-68,-318,119,0.0
-69,-330,120,0.0
-68,-329,116,0.0
-68,-335,114,0.0
-66,-329,108,0.0
-66,-333,106,0.0
-65,-337,103,0.0
-65,-341,100,0.0
-62,-334,94,0.0
-61,-339,91,0.0
-3555,16614,15354,0.0
-3634,16566,15642,0.0
-3711,16500,15916,0.0
-3792,16441,16203,0.0
-3870,16368,16480,0.0
-3955,16316,16784,0.0
-3881,15617,16416,0.0
-4106,16119,17313,0.0
-4121,15779,17319,0.0
-4106,15334,17201,0.0
-4373,15930,18262,0.0
-4473,15894,18625,0.0
-4567,15829,18962,0.0
-4660,15750,19288,0.0
-4757,15677,19629,0.0
-4680,15043,19261,0.0
-4861,15231,19947,0.0
-4871,14880,19933,0.0
-5129,15272,20931,0.0
-5263,15273,21419,0.0
-5374,15198,21813,0.0
-5487,15117,22213,0.0
-5604,15036,22624,0.0
-5718,14945,23029,0.0
-5834,14846,23436,0.0
-5954,14747,23854,0.0
-6075,14643,24279,0.0
-6049,14184,24116,0.0
-6131,13983,24384,0.0
-6174,13688,24490,0.0
-6597,14216,26108,0.0
-8446,17679,33341,0.0
-7081,14397,27892,0.0
-8429,16634,33119,0.0
-8433,16148,33059,0.0
-8425,15645,32951,0.0
-7813,14062,30486,0.0
-7838,13665,30512,0.0
-7966,13447,30942,0.0
-8139,13293,31542,0.0
-8218,12978,31779,0.0
-8397,12810,32394,0.0
-8383,12347,32267,0.0
-8375,11898,32165,0.0
-8379,11473,32113,0.0
-6253,8243,23913,0.0
-6467,8200,24679,0.0
-6539,7964,24897,0.0
-6531,7633,24812,0.0
-6523,7305,24727,0.0
-6515,6981,24645,0.0
-6507,6662,24565,0.0
-6504,6350,24498,0.0
-6489,6031,24388,0.0
-6493,5733,24353,0.0
-6480,5422,24251,0.0
-6409,5070,23935,0.0
-6454,4814,24055,0.0
-6460,4527,24023,0.0
-6450,4233,23935,0.0
-6449,3946,23879,0.0
-6435,3655,23777,0.0
-6431,3372,23712,0.0
-6142,2955,22602,0.0
-6189,2711,22723,0.0
-6204,2452,22732,0.0
-6167,2175,22547,0.0
-6273,1948,22888,0.0
-6379,1713,23226,0.0
-6375,1446,23162,0.0
-6377,1180,23118,0.0
-6363,915,23018,0.0
-6359,653,22953,0.0
-6356,392,22896,0.0
-6351,133,22826,0.0
-6274,-122,22503,0.0
-6342,-380,22694,0.0
-6181,-620,22071,0.0
-6148,-863,21907,0.0
-6143,-1108,21842,0.0
-6076,-1338,21557,0.0
-6316,-1643,22360,0.0
-6316,-1893,22304,0.0
-6311,-2142,22241,0.0
-6294,-2384,22133,0.0
-6296,-2633,22089,0.0
-6294,-2880,22030,0.0
-6296,-3128,21987,0.0
-6293,-3374,21930,0.0
-5298,-3048,18419,0.0
-6273,-3855,21756,0.0
-5277,-3449,18260,0.0
-6273,-4345,21655,0.0
-6260,-4581,21561,0.0
-5509,-4247,18929,0.0
-5523,-4473,18933,0.0
-6245,-5302,21352,0.0
-6248,-5547,21312,0.0
-6233,-5779,21211,0.0
-6237,-6026,21170,0.0
-6235,-6270,21114,0.0
-6243,-6523,21086,0.0
-6161,-6681,20759,0.0
-6235,-7006,20951,0.0
-5300,-6165,17766,0.0
-6228,-7490,20819,0.0
-6239,-7751,20803,0.0
-6246,-8008,20770,0.0
-6240,-8249,20696,0.0
-6233,-8489,20617,0.0
-6241,-8751,20588,0.0
-6242,-9005,20536,0.0
-6233,-9244,20449,0.0
-6234,-9496,20392,0.0
-6227,-9741,20315,0.0
-6241,-10018,20300,0.0
-6250,-10290,20271,0.0
-5305,-8954,17158,0.0
-6263,-10831,20195,0.0
-6262,-11089,20127,0.0
-6264,-11356,20072,0.0
-6267,-11627,20024,0.0
-6268,-11896,19963,0.0
-6256,-12141,19864,0.0
-6278,-12452,19868,0.0
-6278,-12724,19803,0.0
-6291,-13024,19777,0.0
-6298,-13316,19733,0.0
-6302,-13604,19680,0.0
-6299,-13877,19600,0.0
-6091,-13692,18887,0.0
-6106,-14005,18869,0.0
-6247,-14614,19235,0.0
-6293,-15011,19304,0.0
-6333,-15402,19356,0.0
-6339,-15712,19298,0.0
-6342,-16022,19235,0.0
-6347,-16338,19174,0.0
-6350,-16654,19108,0.0
-6353,-16969,19036,0.0
-6363,-17311,18988,0.0
-6370,-17649,18930,0.0
-6374,-17981,18860,0.0
-6385,-18339,18811,0.0
-6388,-18677,18735,0.0
-6391,-19017,18656,0.0
-6398,-19376,18590,0.0
-6407,-19748,18529,0.0
-6416,-20124,18466,0.0
-6422,-20497,18393,0.0
-21,-70,60,0.0
-6435,-21256,18241,0.0
-22,-77,65,0.0
-6448,-22045,18085,0.0
-18,-68,55,0.0
-22,-79,62,0.0
-25,-93,71,0.0
-28,-104,78,0.0
-28,-107,79,0.0
-24,-93,67,0.0
-491,-1894,1324,0.0
-491,-1923,1312,0.0
-490,-1956,1303,0.0
-479,-1942,1263,0.0
-488,-2011,1277,0.0
-484,-2032,1259,0.0
-472,-2018,1220,0.0
-467,-2032,1199,0.0
-474,-2093,1204,0.0
-30,-139,78,0.0
-26,-124,67,0.0
-32,-153,82,0.0
-31,-151,78,0.0
-33,-165,83,0.0
-36,-180,88,0.0
-37,-185,89,0.0
-39,-202,94,0.0
-42,-218,98,0.0
-42,-222,97,0.0
-44,-244,104,0.0
-46,-254,105,0.0
-47,-267,107,0.0
-52,-297,115,0.0
-56,-323,121,0.0
-57,-341,124,0.0
-56,-339,119,0.0
-54,-336,113,0.0
-53,-337,110,0.0
-53,-342,107,0.0
-52,-338,103,0.0
-51,-339,98,0.0
-50,-344,96,0.0
-1652,15613,14897,0.0
-3688,33634,32782,0.0
-3737,32900,32757,0.0
-1982,16848,17137,0.0
-3837,31514,32748,0.0
-2265,17980,19089,0.0
-2287,17551,19037,0.0
-2299,17063,18911,0.0
-2317,16642,18847,0.0
-2333,16214,18766,0.0
-2345,15784,18670,0.0
-2330,15183,18355,0.0
-2366,14934,18455,0.0
-2792,17078,21576,0.0
-2711,16060,20747,0.0
0,0,0,0.0
-2851,15868,21438,0.0
-2736,14754,20391,0.0
-2863,14963,21158,0.0
-2896,14676,21236,0.0
-2915,14318,21206,0.0
-4231,20148,30548,0.0
-4224,19493,30264,0.0
-4326,19348,30767,0.0
-4388,19024,30993,0.0
-3886,16326,27259,0.0
-3978,16193,27716,0.0
-4002,15784,27703,0.0
-4063,15519,27940,0.0
-4081,15097,27892,0.0
-3929,14067,26681,0.0
-3933,13636,26561,0.0
-4006,13434,26886,0.0
-3982,12918,26577,0.0
-4321,13556,28681,0.0
-3967,12028,26187,0.0
-4586,13433,30110,0.0
-4679,13233,30556,0.0
-4800,13102,31184,0.0
-4937,12999,31914,0.0
-5022,12745,32299,0.0
-5044,12334,32291,0.0
-5051,11891,32187,0.0
-5032,11395,31918,0.0
-3793,8254,23944,0.0
-3933,8218,24719,0.0
-3975,7967,24874,0.0
-3979,7639,24785,0.0
-3982,7319,24705,0.0
-3987,7003,24634,0.0
-3988,6685,24539,0.0
-3989,6373,24449,0.0
-3993,6067,24372,0.0
-4002,5774,24336,0.0
-4004,5473,24255,0.0
-4003,5172,24158,0.0
-4010,4887,24116,0.0
-4007,4589,24007,0.0
-4010,4304,23944,0.0
-4007,4015,23843,0.0
-4010,3734,23773,0.0
-4014,3457,23716,0.0
-3983,3156,23458,0.0
-3855,2791,22633,0.0
-4003,2627,23425,0.0
-3956,2329,23070,0.0
-3905,2040,22705,0.0
-3924,1790,22746,0.0
-4016,1568,23204,0.0
-4014,1306,23124,0.0
-4017,1048,23077,0.0
-4016,790,23002,0.0
-4017,534,22941,0.0
-4015,279,22868,0.0
-4018,26,22817,0.0
-4015,-225,22739,0.0
-4014,-474,22670,0.0
-4009,-722,22582,0.0
-4012,-971,22540,0.0
-4012,-1218,22484,0.0
-4009,-1462,22405,0.0
-4008,-1707,22344,0.0
-4007,-1951,22282,0.0
-4008,-2195,22230,0.0
-4005,-2436,22159,0.0
-4004,-2677,22102,0.0
-4003,-2918,22042,0.0
-3998,-3156,21963,0.0
-3997,-3396,21909,0.0
-3650,-3320,19958,0.0
-3655,-3545,19937,0.0
-3650,-3760,19870,0.0
-3672,-4002,19938,0.0
-3656,-4206,19811,0.0
-3655,-4425,19762,0.0
-3655,-4645,19719,0.0
-3650,-4859,19650,0.0
-3568,-4965,19167,0.0
-3570,-5183,19135,0.0
-3680,-5568,19689,0.0
-3670,-5776,19591,0.0
-3681,-6017,19606,0.0
-3667,-6220,19496,0.0
-3666,-6444,19450,0.0
-3670,-6677,19433,0.0
-3671,-6907,19399,0.0
-3675,-7143,19383,0.0
-3677,-7377,19351,0.0
-3669,-7595,19281,0.0
-3689,-7870,19348,0.0
-3682,-8087,19268,0.0
-3659,-8272,19117,0.0
-3668,-8531,19131,0.0
-3681,-8798,19156,0.0
-3677,-9029,19100,0.0
-3685,-9294,19111,0.0
-3684,-9537,19074,0.0
-3604,-9571,18624,0.0
-3666,-9984,18911,0.0
-3685,-10287,18975,0.0
-3675,-10514,18893,0.0
-3678,-10780,18877,0.0
-3670,-11012,18799,0.0
-3876,-11909,19824,0.0
-3896,-12250,19893,0.0
-3894,-12527,19850,0.0
-3889,-12799,19793,0.0
-3889,-13086,19757,0.0
-3887,-13371,19712,0.0
-3882,-13654,19660,0.0
-3878,-13938,19605,0.0
-3871,-14215,19535,0.0
-3870,-14523,19504,0.0
-3863,-14808,19436,0.0
-3855,-15095,19367,0.0
-3855,-15415,19336,0.0
-3845,-15701,19256,0.0
-3840,-16009,19200,0.0
-3835,-16324,19146,0.0
-3830,-16643,19092,0.0
-3822,-16952,19020,0.0
-3814,-17272,18956,0.0
-3812,-17617,18915,0.0
-3808,-17962,18866,0.0
-3796,-18278,18781,0.0
-3787,-18612,18709,0.0
-3779,-18953,18640,0.0
-3773,-19314,18583,0.0
-3763,-19663,18509,0.0
-3761,-20056,18469,0.0
-15,-80,72,0.0
-15,-82,72,0.0
-14,-81,70,0.0
-13,-74,63,0.0
-15,-87,71,0.0
-14,-85,69,0.0
-14,-87,68,0.0
-18,-113,87,0.0
-17,-104,78,0.0
-16,-107,79,0.0
-18,-122,88,0.0
-15,-105,73,0.0
-280,-1963,1350,0.0
-274,-1963,1319,0.0
-274,-2008,1317,0.0
-261,-1952,1250,0.0
-16,-121,75,0.0
-262,-2050,1251,0.0
-19,-150,89,0.0
-18,-150,87,0.0
-18,-153,87,0.0
-20,-172,95,0.0
-22,-191,103,0.0
-21,-192,100,0.0
-22,-200,101,0.0
-22,-207,103,0.0
-22,-213,102,0.0
-21,-212,100,0.0
-22,-230,105,0.0
-23,-239,106,0.0
-23,-248,107,0.0
-24,-269,112,0.0
-23,-261,106,0.0
-25,-296,116,0.0
-26,-315,120,0.0
-26,-331,122,0.0
-25,-329,118,0.0
-25,-334,115,0.0
-24,-337,112,0.0
-24,-341,109,0.0
-22,-337,104,0.0
-23,-349,104,0.0
-542,16999,16467,0.0
-581,16789,16613,0.0
-547,14598,14757,0.0
-1267,31376,32399,0.0
0,0,0,0.0
-1378,29710,32019,0.0
-1437,29062,32001,0.0
-1526,29026,32657,0.0
-1536,27547,31669,0.0
-1564,26493,31125,0.0
-1622,26009,31228,0.0
-1675,25459,31243,0.0
-1716,24764,31066,0.0
-1156,15858,20337,0.0
-1170,15280,20037,0.0
-1209,15066,20203,0.0
-1297,15416,21143,0.0
-1337,15179,21297,0.0
-1375,14921,21417,0.0
-1970,20445,30031,0.0
-2030,20171,30328,0.0
-2057,19576,30133,0.0
-2151,19632,30948,0.0
-2193,19185,30976,0.0
-2441,20481,33880,0.0
-2461,19822,33607,0.0
-1986,15358,26693,0.0
-2147,15943,28418,0.0
-2120,15117,27642,0.0
-2162,14809,27792,0.0
-2184,14370,27686,0.0
-2207,13949,27605,0.0
-2242,13613,27680,0.0
-2262,13192,27575,0.0
-2272,12728,27366,0.0
-2208,11885,26296,0.0
-2307,11921,27157,0.0
-2630,13047,30621,0.0
-2534,12063,29190,0.0
-2836,12951,32331,0.0
-2855,12506,32231,0.0
-2872,12057,32105,0.0
-2877,11569,31857,0.0
-2175,8373,23863,0.0
-2233,8222,24274,0.0
-2302,8107,24822,0.0
-2323,7812,24833,0.0
-2335,7495,24763,0.0
-2340,7158,24617,0.0
-2357,6863,24600,0.0
-2365,6550,24505,0.0
-2373,6238,24401,0.0
-2387,5950,24378,0.0
-2394,5643,24275,0.0
-2404,5353,24216,0.0
-2410,5056,24121,0.0
-2416,4763,24023,0.0
-2423,4477,23952,0.0
-2433,4197,23900,0.0
-2210,3548,21582,0.0
-2214,3295,21507,0.0
-2453,3365,23689,0.0
-2269,2854,21800,0.0
-2357,2698,22523,0.0
-2396,2477,22780,0.0
-2344,2166,22164,0.0
-2429,1982,22864,0.0
-2479,1757,23223,0.0
-2486,1500,23181,0.0
-2490,1242,23121,0.0
-2495,986,23062,0.0
-2501,732,23012,0.0
-2502,479,22934,0.0
-2508,228,22895,0.0
-2508,-22,22809,0.0
-2508,-271,22715,0.0
-2513,-519,22685,0.0
-2513,-764,22602,0.0
-2515,-1009,22542,0.0
-2515,-1251,22462,0.0
-2515,-1494,22400,0.0
-2519,-1737,22356,0.0
-2518,-1977,22278,0.0
-2517,-2216,22204,0.0
-2514,-2452,22123,0.0
-2518,-2694,22092,0.0
-2516,-2929,22010,0.0
-2514,-3163,21936,0.0
-2510,-3396,21851,0.0
-2518,-3644,21868,0.0
-2577,-3972,22325,0.0
-2476,-4051,21408,0.0
-2507,-4338,21624,0.0
-2504,-4569,21549,0.0
-2502,-4804,21494,0.0
-2499,-5037,21431,0.0
-2497,-5271,21374,0.0
-2495,-5504,21316,0.0
-2491,-5734,21245,0.0
-2490,-5972,21203,0.0
-2486,-6207,21143,0.0
-2482,-6437,21073,0.0
-2478,-6673,21019,0.0
-2410,-6726,20409,0.0
-2403,-6949,20335,0.0
-2399,-7179,20278,0.0
-2460,-7609,20769,0.0
-2461,-7867,20766,0.0
-2401,-7922,20241,0.0
-2401,-8171,20222,0.0
-2393,-8397,20144,0.0
-2440,-8824,20534,0.0
-2436,-9071,20489,0.0
-2432,-9323,20450,0.0
-2424,-9557,20371,0.0
-2346,-9516,19720,0.0
-2340,-9756,19665,0.0
-2401,-10284,20172,0.0
-2403,-10579,20203,0.0
-2395,-10827,20139,0.0
-2391,-11094,20105,0.0
-2380,-11341,20033,0.0
-2379,-11626,20022,0.0
-2367,-11873,19944,0.0
-2362,-12149,19912,0.0
-2312,-12199,19509,0.0
-2279,-12331,19251,0.0
-2269,-12588,19188,0.0
-2304,-13100,19502,0.0
-2319,-13520,19660,0.0
-2308,-13798,19602,0.0
-2297,-14080,19546,0.0
-2291,-14393,19529,0.0
-2279,-14670,19458,0.0
-2266,-14951,19387,0.0
-2252,-15233,19314,0.0
-2244,-15562,19295,0.0
-2231,-15855,19226,0.0
-2217,-16156,19162,0.0
-2204,-16469,19107,0.0
-2191,-16781,19047,0.0
-2177,-17102,18990,0.0
-2164,-17432,18937,0.0
-2149,-17767,18885,0.0
-2132,-18079,18803,0.0
-2116,-18418,18742,0.0
-2100,-18761,18682,0.0
-2084,-19109,18618,0.0
-2067,-19467,18560,0.0
-8,-79,73,0.0
-7,-77,71,0.0
-7,-79,71,0.0
-8,-88,77,0.0
-8,-89,76,0.0
-9,-103,86,0.0
-9,-98,81,0.0
-9,-105,84,0.0
-10,-120,95,0.0
-8,-112,85,0.0
-9,-121,91,0.0
-9,-113,82,0.0
-9,-129,92,0.0
-138,-1963,1371,0.0
-135,-2000,1365,0.0
-130,-1980,1320,0.0
-129,-2044,1331,0.0
-124,-2038,1296,0.0
-118,-2018,1253,0.0
-117,-2075,1257,0.0
-8,-139,81,0.0
-9,-162,93,0.0
-8,-166,93,0.0
-8,-163,89,0.0
-9,-182,97,0.0
-8,-193,100,0.0
-9,-200,102,0.0
-8,-221,109,0.0
-8,-224,107,0.0
-8,-234,109,0.0
-7,-237,107,0.0
-7,-244,107,0.0
-7,-250,107,0.0
-7,-258,107,0.0
-6,-270,108,0.0
-6,-286,111,0.0
-6,-306,115,0.0
-6,-332,121,0.0
-5,-339,119,0.0
-5,-340,116,0.0
-4,-337,111,0.0
-4,-340,108,0.0
-3,-342,104,0.0
295,16337,15944,0.0
256,16019,15971,0.0
228,16409,16712,0.0
165,14037,14604,0.0
155,16085,17095,0.0
119,15981,17352,0.0
81,15671,17383,0.0
45,15439,17501,0.0
11,17623,20411,0.0
-29,17304,20480,0.0
-69,16774,20292,0.0
-108,16499,20399,0.0
-146,16230,20514,0.0
-184,15942,20598,0.0
-221,15651,20678,0.0
-257,15343,20729,0.0
-301,15454,21355,0.0
-335,15061,21290,0.0
-371,14789,21390,0.0
-576,20605,30498,0.0
-625,20200,30603,0.0
-665,19591,30388,0.0
-720,19417,30842,0.0
-764,18977,30875,0.0
-882,20231,33727,0.0
-927,19727,33705,0.0
-762,15097,26446,0.0
-794,14680,26372,0.0
-838,14476,26680,0.0
-903,14636,27684,0.0
-936,14239,27652,0.0
-965,13822,27571,0.0
-960,12960,26563,0.0
-1010,12851,27079,0.0
-1050,12616,27343,0.0
-1077,12229,27277,0.0
-1099,11804,27112,0.0
-1276,12965,30682,0.0
-1344,12936,31564,0.0
-1405,12810,32246,0.0
-1432,12376,32169,0.0
-1462,11978,32169,0.0
-1475,11448,31797,0.0
-1128,8297,23856,0.0
-1534,10689,31838,0.0
-1218,8044,24849,0.0
-1234,7715,24750,0.0
-1250,7401,24681,0.0
-1264,7074,24555,0.0
-1283,6778,24528,0.0
-1296,6470,24445,0.0
-1314,6181,24418,0.0
-1325,5875,24315,0.0
-1338,5576,24231,0.0
-1351,5287,24173,0.0
-1363,4994,24084,0.0
-1375,4710,24024,0.0
-1386,4426,23947,0.0
-1397,4143,23870,0.0
-1405,3860,23765,0.0
-1414,3583,23684,0.0
-1355,3151,22476,0.0
-1365,2897,22431,0.0
-1374,2643,22388,0.0
-1402,2426,22656,0.0
-1407,2165,22531,0.0
-1441,1949,22895,0.0
-1473,1722,23212,0.0
-1469,1455,22993,0.0
-1461,1189,22703,0.0
-1475,944,22759,0.0
-1497,702,22943,0.0
-1503,451,22902,0.0
-1509,202,22853,0.0
-1513,-45,22781,0.0
-1518,-293,22731,0.0
-1520,-537,22632,0.0
-1524,-782,22575,0.0
-1527,-1025,22519,0.0
-1489,-1233,21845,0.0
-1532,-1508,22388,0.0
-1534,-1748,22319,0.0
-1536,-1987,22258,0.0
-1538,-2224,22191,0.0
-1538,-2461,22124,0.0
-1541,-2701,22090,0.0
-1541,-2934,22011,0.0
-1540,-3166,21928,0.0
-1534,-3388,21784,0.0
-1443,-3409,20450,0.0
-1444,-3632,20418,0.0
-1517,-4044,21383,0.0
-1537,-4335,21627,0.0
-1511,-4496,21227,0.0
-1532,-4794,21481,0.0
-1531,-5030,21438,0.0
-1528,-5258,21360,0.0
-1524,-5487,21293,0.0
-1523,-5722,21247,0.0
-1518,-5950,21172,0.0
-1514,-6182,21114,0.0
-1514,-6427,21096,0.0
-1510,-6660,21041,0.0
-1506,-6894,20984,0.0
-1500,-7124,20911,0.0
-1496,-7364,20873,0.0
-1491,-7600,20814,0.0
-1486,-7838,20763,0.0
-1481,-8078,20712,0.0
-1474,-8307,20637,0.0
-1468,-8548,20586,0.0
-1461,-8788,20531,0.0
-1456,-9037,20492,0.0
-1449,-9281,20442,0.0
-1441,-9524,20386,0.0
-1423,-9701,20190,0.0
-1425,-10015,20276,0.0
-1418,-10269,20233,0.0
-1409,-10530,20202,0.0
-1400,-10784,20151,0.0
-1392,-11039,20100,0.0
-1383,-11309,20070,0.0
-1373,-11568,20020,0.0
-1364,-11835,19977,0.0
-1353,-12103,19933,0.0
-1341,-12356,19861,0.0
-1330,-12633,19824,0.0
-1318,-12907,19776,0.0
-1307,-13193,19743,0.0
-1294,-13463,19683,0.0
-1281,-13746,19635,0.0
-1266,-14012,19560,0.0
-1251,-14297,19508,0.0
-1236,-14578,19444,0.0
-1221,-14874,19398,0.0
-1206,-15167,19342,0.0
-1190,-15460,19281,0.0
-1173,-15770,19236,0.0
-1156,-16079,19186,0.0
-1138,-16392,19133,0.0
-1120,-16697,19067,0.0
-1100,-16998,18991,0.0
-1082,-17332,18948,0.0
-6,-88,96,0.0
-6,-108,113,0.0
-6,-106,109,0.0
-996,-18658,18701,0.0
-974,-19005,18640,0.0
-951,-19355,18578,0.0
-927,-19717,18519,0.0
-901,-20058,18435,0.0
-875,-20414,18358,0.0
-3,-92,81,0.0
-3,-73,63,0.0
-3,-95,81,0.0
-3,-106,87,0.0
-4,-104,85,0.0
-4,-119,94,0.0
-3,-118,91,0.0
-3,-110,83,0.0
-3,-120,88,0.0
-3,-124,89,0.0
-44,-2028,1428,0.0
-39,-2014,1387,0.0
-36,-2006,1348,0.0
-32,-2036,1337,0.0
-2,-152,97,0.0
-2,-164,103,0.0
-2,-180,110,0.0
-2,-164,98,0.0
-1,-191,111,0.0
-1,-200,114,0.0
-1,-197,109,0.0
0,-208,112,0.0
0,-207,108,0.0
0,-208,106,0.0
0,-210,105,0.0
0,-211,102,0.0
1,-227,107,0.0
2,-235,107,0.0
2,-237,106,0.0
2,-254,110,0.0
3,-265,111,0.0
3,-266,108,0.0
4,-283,112,0.0
5,-305,117,0.0
6,-337,125,0.0
6,-334,120,0.0
7,-347,120,0.0
8,-344,115,0.0
9,-345,111,0.0
9,-348,108,0.0
1218,15001,14737,0.0
1173,14651,14701,0.0
1113,14095,14448,0.0
1077,13844,14497,0.0
1061,13844,14809,0.0
1030,13653,14921,0.0
1117,15037,16790,0.0
1079,14762,16841,0.0
978,13604,15859,0.0
951,13447,16020,0.0
922,13263,16148,0.0
1286,18805,23403,0.0
1669,24850,31614,0.0
1231,18666,24278,0.0
1204,18599,24735,0.0
951,14967,20355,0.0
940,15089,20990,0.0
898,14719,20946,0.0
880,14724,21440,0.0
1181,20204,30106,0.0
978,17094,26073,0.0
949,16970,26500,0.0
917,16795,26859,0.0
870,16329,26750,0.0
833,16043,26928,0.0
796,15757,27109,0.0
761,15463,27275,0.0
698,14605,26420,0.0
657,14174,26305,0.0
601,13372,25471,0.0
577,13293,25996,0.0
581,13847,27815,0.0
548,13558,27989,0.0
526,13511,28674,0.0
446,11944,26075,0.0
424,11884,26702,0.0
399,11724,27126,0.0
421,13033,31074,0.0
394,12887,31681,0.0
365,12681,32164,0.0
330,12255,32096,0.0
295,11815,31977,0.0
262,11376,31841,0.0
173,8241,23878,0.0
154,8179,24556,0.0
133,7969,24816,0.0
109,7652,24746,0.0
88,7323,24624,0.0
66,7025,24589,0.0
45,6716,24508,0.0
25,6407,24415,0.0
6,6104,24328,0.0
-12,5821,24309,0.0
-30,5524,24225,0.0
-48,5236,24161,0.0
-64,4943,24067,0.0
-81,4657,23988,0.0
-96,4379,23934,0.0
-112,4098,23850,0.0
-126,3822,23786,0.0
-140,3545,23695,0.0
-153,3275,23631,0.0
-159,2874,22535,0.0
-171,2641,22650,0.0
-184,2395,22668,0.0
-193,2123,22416,0.0
-208,1915,22848,0.0
-222,1692,23196,0.0
-232,1436,23142,0.0
-241,1182,23073,0.0
-249,930,23005,0.0
-259,678,22961,0.0
-266,429,22892,0.0
-273,180,22813,0.0
-280,-65,22753,0.0
-286,-310,22663,0.0
-292,-554,22638,0.0
-298,-797,22556,0.0
-303,-1037,22476,0.0
-308,-1278,22421,0.0
-313,-1518,22370,0.0
-316,-1756,22311,0.0
-320,-1994,22246,0.0
-322,-2231,22188,0.0
-325,-2465,22120,0.0
-328,-2701,22065,0.0
-329,-2934,21985,0.0
-330,-3165,21907,0.0
-332,-3402,21880,0.0
-332,-3636,21820,0.0
-333,-3865,21745,0.0
-332,-4099,21695,0.0
-331,-4323,21601,0.0
-330,-4558,21557,0.0
-330,-4791,21511,0.0
-327,-5021,21446,0.0
-325,-5248,21373,0.0
-323,-5477,21309,0.0
-320,-5709,21257,0.0
-316,-5938,21191,0.0
-313,-6168,21129,0.0
-300,-6222,20487,0.0
-296,-6436,20396,0.0
-291,-6673,20377,0.0
-294,-7096,20901,0.0
-289,-7337,20868,0.0
-283,-7571,20810,0.0
-276,-7806,20755,0.0
-270,-8054,20732,0.0
-262,-8291,20677,0.0
-255,-8529,20624,0.0
-247,-8762,20555,0.0
-238,-9000,20496,0.0
-229,-9248,20457,0.0
-220,-9482,20384,0.0
-209,-9736,20354,0.0
-199,-9985,20306,0.0
-188,-10227,20243,0.0
-177,-10485,20207,0.0
-165,-10743,20168,0.0
-153,-10996,20118,0.0
-140,-11249,20062,0.0
-128,-11511,20020,0.0
-114,-11771,19968,0.0
-99,-12030,19914,0.0
-84,-12306,19881,0.0
-69,-12586,19851,0.0
-54,-12844,19784,0.0
-37,-13104,19713,0.0
-19,-13390,19679,0.0
-2,-13655,19609,0.0
15,-13866,19460,0.0
33,-13810,18947,0.0
52,-14077,18880,0.0
73,-14599,19145,0.0
94,-15036,19284,0.0
116,-15396,19311,0.0
138,-15678,19234,0.0
161,-15952,19146,0.0
184,-16197,19018,0.0
208,-16536,18997,0.0
234,-16832,18921,0.0
261,-17235,18956,0.0
287,-17555,18895,0.0
314,-17878,18831,0.0
343,-18214,18775,0.0
372,-18547,18709,0.0
402,-18880,18638,0.0
434,-19231,18578,0.0
465,-19592,18523,0.0
498,-19929,18438,0.0
532,-20301,18380,0.0
568,-20677,18319,0.0
603,-21040,18239,0.0
640,-21405,18154,0.0
679,-21811,18097,0.0
718,-22198,18018,0.0
2,-97,78,0.0
800,-22988,17852,0.0
839,-23298,17693,0.0
4,-115,85,0.0
73,-1912,1388,0.0
77,-1959,1390,0.0
80,-1963,1361,0.0
85,-2024,1372,0.0
88,-2036,1348,0.0
90,-2049,1325,0.0
94,-2082,1315,0.0
95,-2015,1242,0.0
99,-2056,1237,0.0
104,-2105,1237,0.0
6,-126,71,0.0
6,-135,75,0.0
7,-161,87,0.0
8,-163,86,0.0
9,-184,95,0.0
10,-193,97,0.0
11,-200,97,0.0
13,-219,104,0.0
12,-214,99,0.0
14,-228,103,0.0
14,-233,101,0.0
15,-236,100,0.0
16,-253,104,0.0
17,-263,105,0.0
18,-274,106,0.0
21,-314,118,0.0
23,-329,119,0.0
24,-336,117,0.0
24,-338,115,0.0
25,-330,108,0.0
24,-333,104,0.0
2038,14061,13857,0.0
2023,13977,14072,0.0
2080,14386,14795,0.0
1997,13824,14522,0.0
1993,13813,14825,0.0
1979,13723,15047,0.0
2067,14343,16069,0.0
1838,12760,14606,0.0
1827,12687,14840,0.0
2036,14132,16892,0.0
2047,14211,17362,0.0
2048,14210,17745,0.0
2049,14207,18137,0.0
2046,14177,18503,0.0
1806,12499,16679,0.0
2061,14248,19446,0.0
2053,14165,19775,0.0
2046,14094,20128,0.0
2042,14030,20502,0.0
1844,12637,18899,0.0
1838,12561,19230,0.0
1832,12483,19566,0.0
1830,12421,19939,0.0
1825,12343,20296,0.0
1820,12255,20646,0.0
1816,12171,21018,0.0
1812,12076,21382,0.0
1810,11995,21783,0.0
1807,11905,22179,0.0
1803,11799,22562,0.0
1802,11707,22985,0.0
1802,11613,23421,0.0
1801,11511,23858,0.0
1801,11414,24321,0.0
1802,11314,24799,0.0
1806,11220,25314,0.0
1804,11087,25759,0.0
1805,10964,26250,0.0
1805,10828,26730,0.0
2015,11924,30373,0.0
2092,12207,32106,0.0
2046,11752,31943,0.0
2007,11342,31884,0.0
1962,10897,31713,0.0
1350,7361,22200,0.0
1482,7923,24785,0.0
1455,7619,24750,0.0
1422,7280,24588,0.0
1400,6996,24602,0.0
1374,6690,24529,0.0
1235,5850,22400,0.0
1212,5573,22318,0.0
1192,5309,22282,0.0
1178,5074,22363,0.0
0,0,0,0.0
1205,4812,23550,0.0
1209,4625,23952,0.0
1190,4353,23920,0.0
1171,4073,23843,0.0
1151,3796,23762,0.0
1134,3525,23700,0.0
1116,3252,23612,0.0
1054,2859,22555,0.0
1068,2680,23139,0.0
1032,2373,22628,0.0
1016,2115,22494,0.0
1023,1904,22893,0.0
1018,1666,23044,0.0
1005,1412,22956,0.0
935,1092,21561,0.0
924,856,21479,0.0
974,664,22831,0.0
968,418,22872,0.0
958,172,22826,0.0
939,-72,22509,0.0
934,-316,22539,0.0
866,-520,21007,0.0
900,-781,21959,0.0
892,-1014,21880,0.0
886,-1248,21837,0.0
885,-1488,21888,0.0
898,-1755,22276,0.0
893,-1993,22234,0.0
888,-2228,22161,0.0
884,-2463,22099,0.0
879,-2691,21995,0.0
877,-2927,21961,0.0
874,-3159,21895,0.0
873,-3395,21857,0.0
871,-3626,21796,0.0
870,-3855,21726,0.0
869,-4083,21651,0.0
869,-4314,21594,0.0
870,-4543,21535,0.0
870,-4770,21461,0.0
871,-5001,21406,0.0
873,-5225,21327,0.0
866,-5393,21035,0.0
878,-5682,21208,0.0
879,-5897,21101,0.0
869,-6033,20725,0.0
884,-6332,20906,0.0
896,-6607,20996,0.0
862,-6547,20050,0.0
894,-6964,20573,0.0
900,-7195,20522,0.0
921,-7535,20777,0.0
928,-7766,20713,0.0
937,-8016,20699,0.0
937,-8169,20437,0.0
954,-8477,20560,0.0
965,-8723,20528,0.0
975,-8965,20482,0.0
975,-9094,20182,0.0
992,-9389,20253,0.0
997,-9558,20047,0.0
963,-9348,19076,0.0
1027,-10090,20041,0.0
1050,-10432,20177,0.0
1065,-10674,20111,0.0
1078,-10921,20050,0.0
1092,-11153,19962,0.0
1109,-11405,19907,0.0
1127,-11675,19877,0.0
1142,-11903,19774,0.0
1151,-12074,19580,0.0
1128,-11888,18819,0.0
1127,-11929,18442,0.0
1147,-12185,18401,0.0
1165,-12428,18335,0.0
1182,-12646,18231,0.0
1205,-12930,18218,0.0
1226,-13173,18143,0.0
1247,-13424,18075,0.0
1271,-13694,18030,0.0
1294,-13957,17972,0.0
1318,-14216,17903,0.0
1344,-14496,17858,0.0
1368,-14745,17769,0.0
1390,-14969,17649,0.0
1385,-14901,17190,0.0
1379,-14821,16729,0.0
1404,-15061,16635,0.0
1430,-15301,16539,0.0
1460,-15587,16488,0.0
1490,-15873,16432,0.0
1524,-16174,16387,0.0
1552,-16426,16288,0.0
1589,-16766,16269,0.0
1624,-17066,16207,0.0
1659,-17359,16133,0.0
1693,-17659,16060,0.0
1730,-17965,15989,0.0
1768,-18275,15915,0.0
1806,-18585,15836,0.0
1848,-18928,15779,0.0
1889,-19241,15693,0.0
1932,-19583,15623,0.0
1976,-19933,15554,0.0
