//X,Y,Z,Classification
-57.0,-157.0,86.0,0.0
-60.0,-167.0,90.0,0.0
-58.0,-164.0,87.0,0.0
-59.0,-169.0,86.0,0.0
-59.0,-173.0,86.0,0.0
-64.0,-190.0,91.0,0.0
-64.0,-192.0,90.0,0.0
-63.0,-192.0,87.0,0.0
-61.0,-190.0,83.0,0.0
-58.0,-183.0,78.0,0.0
-61.0,-196.0,81.0,0.0
-62.0,-200.0,80.0,0.0
-62.0,-201.0,78.0,0.0
-62.0,-208.0,79.0,0.0
-82.0,-277.0,102.0,0.0
-84.0,-288.0,102.0,0.0
-84.0,-290.0,99.0,0.0
-82.0,-287.0,94.0,0.0
-80.0,-284.0,89.0,0.0
-77.0,-279.0,84.0,0.0
-79.0,-288.0,84.0,0.0
-77.0,-285.0,80.0,0.0
-76.0,-289.0,78.0,0.0
-75.0,-289.0,74.0,0.0
-73.0,-284.0,70.0,0.0
-13191.0,38676.0,33837.0,0.0
-13228.0,37982.0,33954.0,0.0
-13318.0,37444.0,34207.0,0.0
-12950.0,35650.0,33279.0,0.0
-12930.0,34846.0,33241.0,0.0
0.0,0.0,0.0,0.0
-13008.0,33598.0,33470.0,0.0
-12623.0,31914.0,32491.0,0.0
-12634.0,31263.0,32528.0,0.0
-12664.0,30666.0,32612.0,0.0
-12593.0,29840.0,32436.0,0.0
-12550.0,29097.0,32332.0,0.0
0.0,0.0,0.0,0.0
0.0,0.0,0.0,0.0
0.0,0.0,0.0,0.0
-12372.0,26248.0,31877.0,0.0
-12513.0,25954.0,32238.0,0.0
-12587.0,25519.0,32425.0,0.0
-12509.0,24786.0,32220.0,0.0
-13617.0,26363.0,35067.0,0.0
-13579.0,25682.0,34962.0,0.0
-13546.0,25022.0,34869.0,0.0
-13485.0,24323.0,34704.0,0.0
-13453.0,23686.0,34609.0,0.0
-13392.0,23011.0,34441.0,0.0
-13371.0,22415.0,34375.0,0.0
-13343.0,21815.0,34288.0,0.0
-13272.0,21155.0,34088.0,0.0
0.0,0.0,0.0,0.0
0.0,0.0,0.0,0.0
-13139.0,19368.0,33694.0,0.0
-13104.0,18807.0,33589.0,0.0
-13066.0,18246.0,33468.0,0.0
-13062.0,17742.0,33437.0,0.0
-10412.0,13749.0,26637.0,0.0
-9494.0,12182.0,24272.0,0.0
-9470.0,11800.0,24193.0,0.0
-9443.0,11420.0,24106.0,0.0
-9418.0,11048.0,24020.0,0.0
-9397.0,10686.0,23949.0,0.0
-9382.0,10335.0,23891.0,0.0
-9356.0,9976.0,23805.0,0.0
-9329.0,9622.0,23714.0,0.0
-9312.0,9281.0,23650.0,0.0
-9293.0,8942.0,23579.0,0.0
-9269.0,8605.0,23495.0,0.0
-9244.0,8269.0,23408.0,0.0
-9235.0,7951.0,23358.0,0.0
-9230.0,7640.0,23323.0,0.0
-9206.0,7317.0,23238.0,0.0
-9180.0,6996.0,23145.0,0.0
-9171.0,6692.0,23098.0,0.0
-9161.0,6388.0,23042.0,0.0
-9129.0,6074.0,22934.0,0.0
-9121.0,5779.0,22886.0,0.0
-9109.0,5483.0,22828.0,0.0
-9086.0,5184.0,22741.0,0.0
-9076.0,4896.0,22686.0,0.0
-9061.0,4607.0,22617.0,0.0
-9048.0,4322.0,22555.0,0.0
-9031.0,4038.0,22481.0,0.0
-9027.0,3762.0,22439.0,0.0
-9009.0,3481.0,22361.0,0.0
-9006.0,3209.0,22320.0,0.0
-8997.0,2936.0,22263.0,0.0
-8972.0,2661.0,22169.0,0.0
-8966.0,2393.0,22118.0,0.0
-9152.0,2174.0,22540.0,0.0
-9389.0,1954.0,23084.0,0.0
-9586.0,1714.0,23529.0,0.0
-9986.0,1495.0,24468.0,0.0
-13319.0,1609.0,32580.0,2.0
-13425.0,1235.0,32781.0,2.0
-13480.0,852.0,32858.0,2.0
-13551.0,469.0,32972.0,2.0
0.0,0.0,0.0,0.0
-13366.0,-299.0,32399.0,2.0
-13260.0,-673.0,32080.0,2.0
-13186.0,-1042.0,31837.0,2.0
0.0,0.0,0.0,0.0
-12995.0,-1759.0,31254.0,2.0
-12924.0,-2111.0,31017.0,2.0
-12860.0,-2461.0,30799.0,2.0
0.0,0.0,0.0,0.0
-12805.0,-3165.0,30536.0,2.0
-12786.0,-3515.0,30422.0,2.0
-12800.0,-3875.0,30390.0,2.0
0.0,0.0,0.0,0.0
-13157.0,-4711.0,31096.0,2.0
0.0,0.0,0.0,0.0
0.0,0.0,0.0,0.0
0.0,0.0,0.0,0.0
0.0,0.0,0.0,0.0
0.0,0.0,0.0,0.0
0.0,0.0,0.0,0.0
0.0,0.0,0.0,0.0
0.0,0.0,0.0,0.0
0.0,0.0,0.0,0.0
0.0,0.0,0.0,0.0
-13622.0,-9000.0,31307.0,2.0
-13575.0,-9340.0,31110.0,2.0
-13554.0,-9700.0,30977.0,2.0
0.0,0.0,0.0,0.0
-13377.0,-10309.0,30394.0,2.0
0.0,0.0,0.0,0.0
0.0,0.0,0.0,0.0
-881.0,-752.0,1987.0,0.0
-13146.0,-11581.0,29507.0,2.0
-13030.0,-11840.0,29154.0,2.0
-866.0,-812.0,1934.0,0.0
-860.0,-829.0,1914.0,0.0
-879.0,-872.0,1949.0,0.0
0.0,0.0,0.0,0.0
-860.0,-900.0,1893.0,0.0
-12422.0,-13362.0,27233.0,2.0
-875.0,-965.0,1912.0,0.0
-12399.0,-14035.0,26987.0,2.0
-877.0,-1018.0,1904.0,0.0
-12436.0,-14781.0,26869.0,2.0
-890.0,-1083.0,1916.0,0.0
-850.0,-1059.0,1825.0,0.0
-870.0,-1108.0,1859.0,0.0
-859.0,-1119.0,1828.0,0.0
-858.0,-1142.0,1818.0,0.0
-841.0,-1145.0,1775.0,0.0
-854.0,-1187.0,1795.0,0.0
-855.0,-1214.0,1790.0,0.0
-866.0,-1254.0,1804.0,0.0
-820.0,-1213.0,1701.0,0.0
-865.0,-1303.0,1784.0,0.0
-838.0,-1288.0,1721.0,0.0
-844.0,-1322.0,1724.0,0.0
-840.0,-1342.0,1709.0,0.0
-12352.0,-20094.0,24985.0,2.0
-19.0,-33.0,40.0,0.0
-832.0,-1405.0,1667.0,0.0
-26.0,-45.0,52.0,0.0
-24.0,-42.0,48.0,0.0
-19.0,-34.0,37.0,0.0
-29.0,-53.0,58.0,0.0
-26.0,-50.0,53.0,0.0
-29.0,-56.0,58.0,0.0
-33.0,-63.0,64.0,0.0
-32.0,-63.0,62.0,0.0
-39.0,-78.0,76.0,0.0
-40.0,-82.0,78.0,0.0
-37.0,-75.0,70.0,0.0
-41.0,-86.0,77.0,0.0
-42.0,-91.0,80.0,0.0
-43.0,-92.0,80.0,0.0
-44.0,-98.0,82.0,0.0
-46.0,-105.0,86.0,0.0
-43.0,-98.0,79.0,0.0
-46.0,-106.0,83.0,0.0
-48.0,-114.0,88.0,0.0
-52.0,-125.0,94.0,0.0
-56.0,-134.0,98.0,0.0
-54.0,-131.0,94.0,0.0
-53.0,-131.0,92.0,0.0
-55.0,-139.0,94.0,0.0
-56.0,-142.0,95.0,0.0
-55.0,-142.0,92.0,0.0
-57.0,-148.0,94.0,0.0
-55.0,-148.0,90.0,0.0
-59.0,-160.0,97.0,0.0
-61.0,-167.0,98.0,0.0
-56.0,-158.0,91.0,0.0
-58.0,-166.0,92.0,0.0
-59.0,-169.0,91.0,0.0
-59.0,-172.0,90.0,0.0
-59.0,-175.0,90.0,0.0
-59.0,-177.0,88.0,0.0
-58.0,-176.0,85.0,0.0
-61.0,-190.0,90.0,0.0
-60.0,-188.0,85.0,0.0
-56.0,-180.0,81.0,0.0
-59.0,-193.0,83.0,0.0
-63.0,-208.0,87.0,0.0
-59.0,-195.0,79.0,0.0
-56.0,-191.0,76.0,0.0
-59.0,-203.0,76.0,0.0
-78.0,-272.0,100.0,0.0
-80.0,-283.0,101.0,0.0
-80.0,-288.0,99.0,0.0
-78.0,-284.0,94.0,0.0
-78.0,-288.0,92.0,0.0
-76.0,-285.0,87.0,0.0
-76.0,-286.0,84.0,0.0
-75.0,-289.0,82.0,0.0
-75.0,-292.0,79.0,0.0
-72.0,-286.0,74.0,0.0
-72.0,-291.0,72.0,0.0
-12513.0,37946.0,33390.0,0.0
0.0,0.0,0.0,0.0
-12394.0,36022.0,33094.0,0.0
-7259.0,20651.0,19388.0,0.0
-7339.0,20437.0,19606.0,0.0
-12486.0,34032.0,33362.0,0.0
-12091.0,32253.0,32311.0,0.0
-12175.0,31785.0,32541.0,0.0
-12142.0,31018.0,32455.0,0.0
-12046.0,30107.0,32197.0,0.0
-12189.0,29806.0,32581.0,0.0
-11857.0,28363.0,31691.0,0.0
-11867.0,27766.0,31717.0,0.0
0.0,0.0,0.0,0.0
-11926.0,26683.0,31864.0,0.0
-11925.0,26085.0,31854.0,0.0
-12052.0,25769.0,32185.0,0.0
-12089.0,25263.0,32276.0,0.0
-13170.0,26893.0,35151.0,0.0
-13130.0,26193.0,35033.0,0.0
-13083.0,25490.0,34893.0,0.0
-13050.0,24830.0,34791.0,0.0
-13002.0,24151.0,34649.0,0.0
-12961.0,23497.0,34523.0,0.0
-12908.0,22834.0,34366.0,0.0
-12904.0,22266.0,34336.0,0.0
-12860.0,21639.0,34201.0,0.0
0.0,0.0,0.0,0.0
0.0,0.0,0.0,0.0
-12673.0,19733.0,33641.0,0.0
-12692.0,19246.0,33671.0,0.0
-12649.0,18670.0,33532.0,0.0
-12636.0,18146.0,33475.0,0.0
-12546.0,17521.0,33211.0,0.0
-9191.0,12476.0,24309.0,0.0
-9168.0,12091.0,24231.0,0.0
-9145.0,11713.0,24152.0,0.0
-9133.0,11350.0,24098.0,0.0
-9118.0,10990.0,24038.0,0.0
-9083.0,10611.0,23921.0,0.0
-9070.0,10263.0,23866.0,0.0
-9049.0,9910.0,23789.0,0.0
-9024.0,9557.0,23699.0,0.0
-9011.0,9222.0,23643.0,0.0
-8988.0,8880.0,23558.0,0.0
-8976.0,8553.0,23499.0,0.0
-8954.0,8220.0,23418.0,0.0
-8932.0,7892.0,23334.0,0.0
-8925.0,7579.0,23287.0,0.0
-8911.0,7265.0,23225.0,0.0
-8888.0,6947.0,23138.0,0.0
-8875.0,6639.0,23074.0,0.0
-8858.0,6333.0,23002.0,0.0
-8847.0,6034.0,22945.0,0.0
-8831.0,5733.0,22873.0,0.0
-8813.0,5436.0,22799.0,0.0
-8810.0,5150.0,22760.0,0.0
-8797.0,4860.0,22694.0,0.0
-8783.0,4573.0,22628.0,0.0
-8784.0,4294.0,22595.0,0.0
-8791.0,4021.0,22582.0,0.0
-8785.0,3744.0,22533.0,0.0
-8769.0,3464.0,22458.0,0.0
-8747.0,3185.0,22367.0,0.0
-8793.0,2931.0,22450.0,0.0
-8800.0,2664.0,22431.0,0.0
-8823.0,2402.0,22456.0,0.0
-8834.0,2137.0,22446.0,0.0
-9087.0,1924.0,23051.0,0.0
-9307.0,1691.0,23566.0,0.0
-9699.0,1472.0,24518.0,0.0
-12848.0,1568.0,32420.0,2.0
-9079.0,838.0,22870.0,0.0
-9038.0,568.0,22725.0,0.0
-9059.0,303.0,22734.0,0.0
-9048.0,36.0,22665.0,0.0
-9026.0,-226.0,22566.0,0.0
-9036.0,-490.0,22548.0,0.0
-9023.0,-751.0,22473.0,0.0
-9013.0,-1011.0,22400.0,0.0
-9019.0,-1273.0,22371.0,0.0
-9012.0,-1531.0,22307.0,0.0
-9028.0,-1794.0,22300.0,0.0
-9013.0,-2050.0,22216.0,0.0
-9016.0,-2308.0,22175.0,0.0
-9018.0,-2566.0,22133.0,0.0
-8996.0,-2816.0,22027.0,0.0
-9011.0,-3078.0,22016.0,0.0
-9021.0,-3337.0,21989.0,0.0
-9002.0,-3586.0,21892.0,0.0
-8987.0,-3835.0,21802.0,0.0
-8991.0,-4090.0,21760.0,0.0
-9000.0,-4350.0,21730.0,0.0
-9016.0,-4612.0,21715.0,0.0
-9011.0,-4864.0,21646.0,0.0
-8995.0,-5109.0,21554.0,0.0
-9004.0,-5369.0,21518.0,0.0
-9021.0,-5632.0,21503.0,0.0
-9009.0,-5879.0,21415.0,0.0
-9033.0,-6149.0,21415.0,0.0
-9017.0,-6393.0,21318.0,0.0
-9013.0,-6646.0,21250.0,0.0
-9013.0,-6900.0,21188.0,0.0
-9030.0,-7169.0,21167.0,0.0
-9026.0,-7421.0,21096.0,0.0
-9031.0,-7681.0,21044.0,0.0
-9031.0,-7937.0,20980.0,0.0
-9033.0,-8195.0,20918.0,0.0
-9047.0,-8466.0,20887.0,0.0
-9043.0,-8719.0,20809.0,0.0
-9043.0,-8978.0,20744.0,0.0
-9049.0,-9244.0,20689.0,0.0
-9057.0,-9512.0,20638.0,0.0
-9067.0,-9782.0,20589.0,0.0
-9066.0,-10043.0,20516.0,0.0
-9069.0,-10308.0,20450.0,0.0
-9068.0,-10569.0,20374.0,0.0
-9077.0,-10844.0,20322.0,0.0
-9100.0,-11137.0,20298.0,0.0
-9100.0,-11403.0,20220.0,0.0
-9099.0,-11669.0,20140.0,0.0
-9106.0,-11946.0,20076.0,0.0
-9116.0,-12228.0,20019.0,0.0
-9101.0,-12479.0,19906.0,0.0
-9129.0,-12789.0,19884.0,0.0
-826.0,-1182.0,1793.0,0.0
-816.0,-1194.0,1765.0,0.0
-817.0,-1218.0,1757.0,0.0
-821.0,-1250.0,1759.0,0.0
-12130.0,-18827.0,25849.0,2.0
-817.0,-1294.0,1734.0,0.0
-22.0,-35.0,47.0,0.0
-20.0,-34.0,44.0,0.0
-20.0,-36.0,45.0,0.0
-27.0,-46.0,57.0,0.0
-28.0,-49.0,59.0,0.0
-26.0,-47.0,55.0,0.0
-25.0,-45.0,51.0,0.0
-28.0,-51.0,58.0,0.0
-29.0,-55.0,60.0,0.0
-29.0,-56.0,59.0,0.0
-25.0,-49.0,52.0,0.0
-30.0,-61.0,61.0,0.0
-32.0,-66.0,65.0,0.0
-37.0,-76.0,74.0,0.0
-42.0,-89.0,85.0,0.0
-39.0,-85.0,78.0,0.0
-42.0,-92.0,83.0,0.0
-41.0,-92.0,81.0,0.0
-43.0,-96.0,83.0,0.0
-41.0,-94.0,80.0,0.0
-44.0,-102.0,85.0,0.0
-50.0,-119.0,96.0,0.0
-45.0,-105.0,83.0,0.0
-48.0,-115.0,89.0,0.0
-51.0,-125.0,94.0,0.0
-51.0,-127.0,93.0,0.0
-53.0,-133.0,95.0,0.0
-51.0,-130.0,91.0,0.0
-54.0,-140.0,96.0,0.0
-51.0,-136.0,91.0,0.0
-52.0,-139.0,91.0,0.0
-53.0,-146.0,92.0,0.0
-55.0,-153.0,95.0,0.0
-54.0,-152.0,92.0,0.0
-56.0,-159.0,94.0,0.0
-59.0,-170.0,98.0,0.0
-56.0,-167.0,94.0,0.0
-57.0,-171.0,92.0,0.0
-58.0,-176.0,93.0,0.0
-58.0,-177.0,92.0,0.0
-57.0,-179.0,90.0,0.0
-55.0,-174.0,85.0,0.0
-61.0,-193.0,92.0,0.0
-58.0,-188.0,87.0,0.0
-58.0,-194.0,87.0,0.0
-58.0,-194.0,84.0,0.0
-59.0,-199.0,84.0,0.0
-55.0,-193.0,79.0,0.0
-52.0,-183.0,72.0,0.0
-56.0,-200.0,76.0,0.0
-72.0,-261.0,97.0,0.0
-80.0,-290.0,104.0,0.0
-79.0,-294.0,101.0,0.0
-77.0,-291.0,97.0,0.0
-78.0,-297.0,96.0,0.0
-77.0,-299.0,93.0,0.0
-75.0,-296.0,88.0,0.0
-74.0,-298.0,86.0,0.0
-74.0,-299.0,82.0,0.0
-72.0,-296.0,78.0,0.0
-71.0,-298.0,75.0,0.0
-6664.0,20931.0,18520.0,0.0
-6792.0,20879.0,18878.0,0.0
-6935.0,20864.0,19275.0,0.0
-11957.0,35204.0,33233.0,0.0
-11788.0,33962.0,32761.0,0.0
-11863.0,33444.0,32966.0,0.0
-11654.0,32150.0,32385.0,0.0
-11715.0,31621.0,32549.0,0.0
-11631.0,30714.0,32312.0,0.0
-11817.0,30526.0,32822.0,0.0
-11593.0,29290.0,32191.0,0.0
0.0,0.0,0.0,0.0
0.0,0.0,0.0,0.0
-11318.0,26741.0,31398.0,0.0
-11365.0,26253.0,31519.0,0.0
-11495.0,25955.0,31866.0,0.0
-11675.0,25762.0,32350.0,0.0
-11665.0,25153.0,32309.0,0.0
-12715.0,26785.0,35200.0,0.0
-12658.0,26047.0,35026.0,0.0
-12615.0,25349.0,34887.0,0.0
-12544.0,24610.0,34670.0,0.0
-12550.0,24032.0,34664.0,0.0
-12478.0,23320.0,34448.0,0.0
-12446.0,22690.0,34335.0,0.0
-12426.0,22096.0,34258.0,0.0
-12370.0,21445.0,34077.0,0.0
-12352.0,20873.0,34005.0,0.0
-12312.0,20272.0,33871.0,0.0
-12276.0,19686.0,33743.0,0.0
-12278.0,19172.0,33725.0,0.0
-12230.0,18584.0,33564.0,0.0
-12221.0,18066.0,33512.0,0.0
-12100.0,17393.0,33151.0,0.0
-8879.0,12404.0,24305.0,0.0
-8858.0,12021.0,24224.0,0.0
-8835.0,11641.0,24140.0,0.0
-8822.0,11278.0,24080.0,0.0
-8796.0,10904.0,23984.0,0.0
-8782.0,10550.0,23923.0,0.0
-8758.0,10190.0,23836.0,0.0
-8753.0,9854.0,23794.0,0.0
-8742.0,9517.0,23741.0,0.0
-8740.0,9192.0,23708.0,0.0
-8731.0,8864.0,23658.0,0.0
-8733.0,8550.0,23636.0,0.0
-8742.0,8244.0,23632.0,0.0
-8757.0,7947.0,23644.0,0.0
-8737.0,7620.0,23561.0,0.0
-8749.0,7324.0,23565.0,0.0
-8744.0,7016.0,23520.0,0.0
-8751.0,6721.0,23512.0,0.0
-8757.0,6426.0,23496.0,0.0
-8739.0,6115.0,23416.0,0.0
-8754.0,5831.0,23424.0,0.0
-8753.0,5536.0,23389.0,0.0
-8748.0,5243.0,23341.0,0.0
-8738.0,4948.0,23281.0,0.0
-8748.0,4667.0,23276.0,0.0
-8734.0,4375.0,23204.0,0.0
-8720.0,4085.0,23134.0,0.0
-8728.0,3808.0,23119.0,0.0
-8655.0,3498.0,22886.0,0.0
-8726.0,3249.0,23042.0,0.0
-8733.0,2975.0,23020.0,0.0
-8727.0,2699.0,22968.0,0.0
-8675.0,2411.0,22791.0,0.0
-8690.0,2144.0,22794.0,0.0
-8799.0,1897.0,23042.0,0.0
-8801.0,1626.0,23006.0,0.0
-8798.0,1355.0,22961.0,0.0
-8796.0,1085.0,22913.0,0.0
-8788.0,816.0,22848.0,0.0
-8794.0,549.0,22823.0,0.0
-8789.0,283.0,22769.0,0.0
-8781.0,17.0,22703.0,0.0
-8770.0,-245.0,22634.0,0.0
-8779.0,-508.0,22612.0,0.0
-8766.0,-769.0,22533.0,0.0
-8768.0,-1030.0,22494.0,0.0
-8757.0,-1290.0,22419.0,0.0
-8748.0,-1547.0,22351.0,0.0
-8738.0,-1803.0,22277.0,0.0
-8755.0,-2066.0,22274.0,0.0
-8728.0,-2316.0,22158.0,0.0
-8756.0,-2580.0,22177.0,0.0
-8749.0,-2835.0,22109.0,0.0
-8747.0,-3089.0,22056.0,0.0
-8736.0,-3340.0,21976.0,0.0
-8739.0,-3597.0,21933.0,0.0
-8735.0,-3850.0,21874.0,0.0
-8741.0,-4107.0,21836.0,0.0
-8731.0,-4356.0,21755.0,0.0
-8736.0,-4613.0,21716.0,0.0
-8714.0,-4854.0,21607.0,0.0
-8716.0,-5109.0,21558.0,0.0
-8742.0,-5378.0,21566.0,0.0
-8730.0,-5622.0,21480.0,0.0
-8740.0,-5883.0,21447.0,0.0
-8735.0,-6132.0,21376.0,0.0
-8733.0,-6386.0,21314.0,0.0
-8752.0,-6654.0,21300.0,0.0
-8758.0,-6912.0,21255.0,0.0
-8757.0,-7166.0,21190.0,0.0
-8734.0,-7402.0,21075.0,0.0
-8741.0,-7663.0,21029.0,0.0
-8716.0,-7896.0,20906.0,0.0
-8726.0,-8160.0,20866.0,0.0
-8767.0,-8456.0,20901.0,0.0
-8712.0,-8658.0,20702.0,0.0
-8744.0,-8947.0,20712.0,0.0
-8769.0,-9232.0,20705.0,0.0
-8778.0,-9500.0,20657.0,0.0
-8786.0,-9769.0,20607.0,0.0
-8783.0,-10026.0,20529.0,0.0
-8786.0,-10291.0,20465.0,0.0
-8798.0,-10568.0,20420.0,0.0
-8793.0,-10825.0,20336.0,0.0
-8811.0,-11112.0,20304.0,0.0
-8804.0,-11368.0,20212.0,0.0
-22.0,-29.0,50.0,0.0
-28.0,-38.0,65.0,0.0
-8847.0,-12231.0,20078.0,0.0
-8853.0,-12509.0,20009.0,0.0
-8853.0,-12780.0,19929.0,0.0
-8874.0,-13086.0,19895.0,0.0
-21.0,-32.0,49.0,0.0
-8879.0,-13646.0,19738.0,0.0
-8901.0,-13959.0,19701.0,0.0
-8904.0,-14244.0,19620.0,0.0
-26.0,-44.0,59.0,0.0
-26.0,-44.0,58.0,0.0
-27.0,-47.0,61.0,0.0
-29.0,-50.0,62.0,0.0
-31.0,-55.0,68.0,0.0
-27.0,-49.0,60.0,0.0
-24.0,-45.0,54.0,0.0
-24.0,-45.0,52.0,0.0
-29.0,-57.0,63.0,0.0
-26.0,-51.0,56.0,0.0
-34.0,-66.0,71.0,0.0
-36.0,-73.0,76.0,0.0
-34.0,-72.0,73.0,0.0
-34.0,-73.0,73.0,0.0
-42.0,-89.0,87.0,0.0
-39.0,-84.0,80.0,0.0
-41.0,-90.0,84.0,0.0
-46.0,-100.0,92.0,0.0
-46.0,-105.0,93.0,0.0
-48.0,-110.0,95.0,0.0
-43.0,-102.0,87.0,0.0
-45.0,-108.0,90.0,0.0
-47.0,-114.0,92.0,0.0
-48.0,-117.0,92.0,0.0
-48.0,-119.0,92.0,0.0
-52.0,-130.0,99.0,0.0
-50.0,-130.0,96.0,0.0
-54.0,-141.0,102.0,0.0
-54.0,-143.0,101.0,0.0
-55.0,-148.0,102.0,0.0
-51.0,-141.0,95.0,0.0
-55.0,-151.0,99.0,0.0
-51.0,-144.0,92.0,0.0
-57.0,-164.0,103.0,0.0
-57.0,-166.0,101.0,0.0
-57.0,-170.0,100.0,0.0
-52.0,-154.0,89.0,0.0
-56.0,-169.0,95.0,0.0
-58.0,-179.0,98.0,0.0
-56.0,-178.0,95.0,0.0
-57.0,-180.0,94.0,0.0
-57.0,-187.0,94.0,0.0
-57.0,-186.0,91.0,0.0
-56.0,-186.0,89.0,0.0
-56.0,-189.0,88.0,0.0
-54.0,-188.0,84.0,0.0
-56.0,-195.0,85.0,0.0
-54.0,-190.0,81.0,0.0
-54.0,-194.0,80.0,0.0
-54.0,-197.0,78.0,0.0
-52.0,-193.0,74.0,0.0
-65.0,-243.0,91.0,0.0
-77.0,-293.0,106.0,0.0
-76.0,-291.0,102.0,0.0
-75.0,-294.0,99.0,0.0
-75.0,-300.0,98.0,0.0
-73.0,-294.0,92.0,0.0
-70.0,-289.0,88.0,0.0
-72.0,-302.0,87.0,0.0
-69.0,-295.0,82.0,0.0
-69.0,-299.0,79.0,0.0
-70.0,-302.0,77.0,0.0
-6423.0,20922.0,18614.0,0.0
-6543.0,20854.0,18957.0,0.0
-6666.0,20791.0,19311.0,0.0
-6794.0,20731.0,19676.0,0.0
-6856.0,20468.0,19849.0,0.0
-11484.0,33535.0,33232.0,0.0
-11210.0,32025.0,32432.0,0.0
-11235.0,31394.0,32488.0,0.0
-11163.0,30510.0,32267.0,0.0
-11199.0,29934.0,32356.0,0.0
-11359.0,29693.0,32806.0,0.0
-10987.0,28080.0,31711.0,0.0
0.0,0.0,0.0,0.0
-11112.0,27145.0,32039.0,0.0
-10938.0,26117.0,31520.0,0.0
-11014.0,25701.0,31721.0,0.0
-11081.0,25267.0,31895.0,0.0
-11223.0,25000.0,32281.0,0.0
-12211.0,26570.0,35101.0,0.0
-12205.0,25935.0,35059.0,0.0
-12169.0,25248.0,34931.0,0.0
-12090.0,24485.0,34674.0,0.0
-12070.0,23856.0,34591.0,0.0
-12050.0,23239.0,34509.0,0.0
-10890.0,20486.0,31162.0,0.0
-11968.0,21953.0,34217.0,0.0
-11946.0,21362.0,34126.0,0.0
-10886.0,18970.0,31069.0,0.0
-11907.0,20215.0,33956.0,0.0
-11837.0,19571.0,33726.0,0.0
-11768.0,18940.0,33495.0,0.0
-11791.0,18465.0,33529.0,0.0
-11776.0,17939.0,33455.0,0.0
-11673.0,17287.0,33129.0,0.0
-8647.0,12444.0,24514.0,0.0
-8685.0,12140.0,24597.0,0.0
-8699.0,11802.0,24610.0,0.0
-8662.0,11403.0,24481.0,0.0
-8692.0,11093.0,24538.0,0.0
-8660.0,10710.0,24421.0,0.0
-8688.0,10403.0,24471.0,0.0
-8686.0,10064.0,24439.0,0.0
-9554.0,10701.0,26849.0,0.0
-8558.0,9259.0,24022.0,0.0
-8443.0,8817.0,23672.0,0.0
-8440.0,8497.0,23631.0,0.0
-9428.0,9142.0,26366.0,0.0
-8597.0,8021.0,24010.0,0.0
-9420.0,8446.0,26275.0,0.0
-9387.0,8077.0,26149.0,0.0
-9363.0,7721.0,26049.0,0.0
-9368.0,7392.0,26027.0,0.0
-9322.0,7026.0,25864.0,0.0
-9308.0,6689.0,25785.0,0.0
-9099.0,6223.0,25174.0,0.0
-9259.0,6013.0,25578.0,0.0
-9253.0,5691.0,25522.0,0.0
-9234.0,5365.0,25432.0,0.0
-9228.0,5050.0,25377.0,0.0
-9200.0,4725.0,25263.0,0.0
-8561.0,4112.0,23471.0,0.0
-8549.0,3822.0,23402.0,0.0
-8480.0,3511.0,23175.0,0.0
-8485.0,3236.0,23152.0,0.0
-8538.0,2977.0,23257.0,0.0
-8530.0,2697.0,23197.0,0.0
-8536.0,2423.0,23172.0,0.0
-8531.0,2148.0,23123.0,0.0
-8514.0,1872.0,23035.0,0.0
-8511.0,1600.0,22985.0,0.0
-8504.0,1329.0,22926.0,0.0
-8499.0,1061.0,22873.0,0.0
-8502.0,795.0,22838.0,0.0
-8497.0,528.0,22780.0,0.0
-8491.0,263.0,22721.0,0.0
-8492.0,0.0,22680.0,0.0
-8484.0,-262.0,22616.0,0.0
-8483.0,-524.0,22571.0,0.0
-8485.0,-784.0,22528.0,0.0
-8614.0,-1060.0,22826.0,0.0
-8471.0,-1301.0,22400.0,0.0
-8480.0,-1561.0,22378.0,0.0
-8464.0,-1815.0,22288.0,0.0
-8467.0,-2073.0,22249.0,0.0
-8464.0,-2329.0,22193.0,0.0
-8462.0,-2584.0,22140.0,0.0
-8458.0,-2837.0,22078.0,0.0
-8458.0,-3092.0,22028.0,0.0
-8344.0,-3302.0,21682.0,0.0
-8462.0,-3602.0,21937.0,0.0
-8418.0,-3835.0,21772.0,0.0
-8448.0,-4103.0,21797.0,0.0
-8456.0,-4360.0,21766.0,0.0
-8456.0,-4613.0,21713.0,0.0
-8462.0,-4869.0,21673.0,0.0
-8454.0,-5117.0,21598.0,0.0
-8453.0,-5368.0,21540.0,0.0
-8459.0,-5624.0,21499.0,0.0
-8468.0,-5883.0,21467.0,0.0
-8467.0,-6136.0,21406.0,0.0
-8471.0,-6391.0,21356.0,0.0
-8465.0,-6640.0,21283.0,0.0
-8465.0,-6894.0,21225.0,0.0
-8465.0,-7147.0,21162.0,0.0
-8468.0,-7404.0,21110.0,0.0
-8480.0,-7670.0,21079.0,0.0
-8475.0,-7920.0,21005.0,0.0
-8486.0,-8185.0,20968.0,0.0
-8481.0,-8437.0,20892.0,0.0
-8490.0,-8702.0,20848.0,0.0
-8497.0,-8967.0,20802.0,0.0
-8487.0,-9216.0,20711.0,0.0
-8568.0,-9563.0,20840.0,0.0
-8519.0,-9769.0,20651.0,0.0
-8501.0,-10008.0,20539.0,0.0
-8509.0,-10279.0,20488.0,0.0
-14.0,-18.0,36.0,0.0
-11.0,-14.0,28.0,0.0
-9.0,-12.0,23.0,0.0
-8530.0,-11360.0,20248.0,0.0
-8542.0,-11643.0,20202.0,0.0
-8547.0,-11917.0,20137.0,0.0
-20.0,-28.0,47.0,0.0
-12.0,-19.0,31.0,0.0
-17.0,-26.0,42.0,0.0
-12.0,-20.0,31.0,0.0
-8588.0,-13337.0,19834.0,0.0
-15.0,-25.0,37.0,0.0
-12.0,-21.0,30.0,0.0
-23.0,-39.0,55.0,0.0
-17.0,-31.0,41.0,0.0
-23.0,-41.0,55.0,0.0
-20.0,-36.0,48.0,0.0
-22.0,-39.0,51.0,0.0
-23.0,-43.0,54.0,0.0
-25.0,-47.0,57.0,0.0
-25.0,-48.0,57.0,0.0
-22.0,-43.0,51.0,0.0
-26.0,-53.0,59.0,0.0
-30.0,-60.0,67.0,0.0
-28.0,-59.0,64.0,0.0
-28.0,-60.0,64.0,0.0
-33.0,-71.0,74.0,0.0
-33.0,-72.0,73.0,0.0
-33.0,-72.0,70.0,0.0
-33.0,-73.0,70.0,0.0
-38.0,-88.0,82.0,0.0
-41.0,-96.0,88.0,0.0
-41.0,-96.0,86.0,0.0
-43.0,-103.0,89.0,0.0
-40.0,-97.0,83.0,0.0
-43.0,-106.0,88.0,0.0
-46.0,-115.0,94.0,0.0
-45.0,-115.0,92.0,0.0
-46.0,-119.0,92.0,0.0
-47.0,-121.0,93.0,0.0
-44.0,-116.0,86.0,0.0
-49.0,-132.0,96.0,0.0
-47.0,-129.0,91.0,0.0
-49.0,-137.0,95.0,0.0
-46.0,-129.0,87.0,0.0
-51.0,-148.0,97.0,0.0
-49.0,-144.0,92.0,0.0
-50.0,-147.0,91.0,0.0
-48.0,-146.0,89.0,0.0
-52.0,-158.0,94.0,0.0
-49.0,-152.0,88.0,0.0
-49.0,-155.0,88.0,0.0
-52.0,-168.0,92.0,0.0
-54.0,-175.0,94.0,0.0
-52.0,-171.0,90.0,0.0
-54.0,-181.0,93.0,0.0
-51.0,-174.0,87.0,0.0
-52.0,-181.0,87.0,0.0
-52.0,-184.0,86.0,0.0
-51.0,-182.0,83.0,0.0
-52.0,-187.0,82.0,0.0
-51.0,-185.0,79.0,0.0
-48.0,-178.0,74.0,0.0
-48.0,-181.0,72.0,0.0
-50.0,-192.0,74.0,0.0
-55.0,-216.0,81.0,0.0
-74.0,-292.0,106.0,0.0
-72.0,-289.0,102.0,0.0
-73.0,-293.0,100.0,0.0
-70.0,-291.0,96.0,0.0
-70.0,-295.0,94.0,0.0
-69.0,-292.0,89.0,0.0
-69.0,-301.0,88.0,0.0
-69.0,-304.0,86.0,0.0
-67.0,-300.0,81.0,0.0
-67.0,-301.0,78.0,0.0
-6604.0,22347.0,19987.0,0.0
-6556.0,21701.0,19831.0,0.0
-6447.0,20871.0,19487.0,0.0
-6535.0,20692.0,19742.0,0.0
-6608.0,20467.0,19952.0,0.0
-11008.0,33343.0,33214.0,0.0
-10760.0,31878.0,32449.0,0.0
-10768.0,31197.0,32452.0,0.0
-10896.0,30866.0,32812.0,0.0
-10876.0,30126.0,32730.0,0.0
-10507.0,28453.0,31597.0,0.0
0.0,0.0,0.0,0.0
0.0,0.0,0.0,0.0
-10473.0,26485.0,31421.0,0.0
-10559.0,26095.0,31655.0,0.0
-10622.0,25651.0,31819.0,0.0
-10798.0,25473.0,32318.0,0.0
-10782.0,24844.0,32243.0,0.0
-11738.0,26414.0,35072.0,0.0
-11696.0,25699.0,34915.0,0.0
-11655.0,24999.0,34760.0,0.0
-11679.0,24448.0,34798.0,0.0
-11610.0,23715.0,34562.0,0.0
-11558.0,23030.0,34375.0,0.0
-11562.0,22467.0,34350.0,0.0
-10829.0,20517.0,32143.0,0.0
-10827.0,19993.0,32105.0,0.0
-10752.0,19344.0,31846.0,0.0
-10781.0,18894.0,31901.0,0.0
-10947.0,18680.0,32357.0,0.0
-11408.0,18947.0,33682.0,0.0
-11346.0,18334.0,33464.0,0.0
-11337.0,17816.0,33401.0,0.0
-9026.0,13788.0,26562.0,0.0
-9166.0,13605.0,26945.0,0.0
-9388.0,13530.0,27562.0,0.0
-9376.0,13117.0,27498.0,0.0
-9357.0,12697.0,27408.0,0.0
-9328.0,12270.0,27289.0,0.0
-9309.0,11864.0,27202.0,0.0
-9290.0,11462.0,27112.0,0.0
-9253.0,11045.0,26971.0,0.0
-8418.0,9713.0,24506.0,0.0
-8120.0,9048.0,23606.0,0.0
-8151.0,8765.0,23666.0,0.0
-8162.0,8461.0,23666.0,0.0
-8431.0,8417.0,24415.0,0.0
-8415.0,8081.0,24334.0,0.0
-8401.0,7751.0,24260.0,0.0
-8399.0,7434.0,24219.0,0.0
-8381.0,7108.0,24132.0,0.0
-8372.0,6794.0,24076.0,0.0
-8353.0,6473.0,23984.0,0.0
-8344.0,6164.0,23921.0,0.0
-8330.0,5855.0,23846.0,0.0
-8329.0,5558.0,23806.0,0.0
-8335.0,5267.0,23790.0,0.0
-8318.0,4964.0,23704.0,0.0
-8322.0,4676.0,23678.0,0.0
-8337.0,4396.0,23680.0,0.0
-8332.0,4107.0,23629.0,0.0
-8332.0,3821.0,23591.0,0.0
-8325.0,3534.0,23531.0,0.0
-8315.0,3249.0,23465.0,0.0
-8334.0,2977.0,23480.0,0.0
-8326.0,2695.0,23417.0,0.0
-8336.0,2421.0,23404.0,0.0
-8330.0,2144.0,23345.0,0.0
-8340.0,1871.0,23331.0,0.0
-8686.0,1665.0,24254.0,0.0
-8722.0,1387.0,24311.0,0.0
-8712.0,1102.0,24239.0,0.0
-8699.0,819.0,24159.0,0.0
-8703.0,539.0,24124.0,0.0
-8697.0,259.0,24061.0,0.0
-8355.0,-17.0,23071.0,0.0
-8683.0,-294.0,23929.0,0.0
-8690.0,-571.0,23902.0,0.0
-8537.0,-831.0,23434.0,0.0
-8680.0,-1118.0,23774.0,0.0
-8670.0,-1391.0,23701.0,0.0
-8495.0,-1628.0,23172.0,0.0
-8661.0,-1932.0,23576.0,0.0
-8666.0,-2204.0,23537.0,0.0
-8661.0,-2473.0,23474.0,0.0
-8654.0,-2739.0,23402.0,0.0
-8656.0,-3009.0,23355.0,0.0
-8644.0,-3274.0,23273.0,0.0
-8075.0,-3308.0,21688.0,0.0
-8177.0,-3602.0,21915.0,0.0
-8137.0,-3836.0,21755.0,0.0
-8661.0,-4350.0,23098.0,0.0
-8656.0,-4614.0,23031.0,0.0
-8654.0,-4881.0,22971.0,0.0
-8360.0,-4972.0,22135.0,0.0
-8651.0,-5411.0,22849.0,0.0
-8658.0,-5682.0,22808.0,0.0
-8661.0,-5950.0,22758.0,0.0
-8647.0,-6206.0,22661.0,0.0
-8662.0,-6483.0,22639.0,0.0
-8623.0,-6720.0,22478.0,0.0
-8639.0,-6998.0,22458.0,0.0
-8664.0,-7287.0,22461.0,0.0
-8628.0,-7523.0,22306.0,0.0
-8355.0,-7543.0,21538.0,0.0
-8558.0,-7991.0,21997.0,0.0
-8570.0,-8268.0,21963.0,0.0
-8343.0,-8308.0,21318.0,0.0
-8533.0,-8764.0,21740.0,0.0
-8621.0,-9123.0,21897.0,0.0
-8514.0,-9276.0,21556.0,0.0
-8644.0,-9687.0,21816.0,0.0
-12.0,-14.0,32.0,0.0
-12.0,-14.0,31.0,0.0
-7.0,-9.0,21.0,0.0
-12.0,-15.0,31.0,0.0
-12.0,-16.0,31.0,0.0
-13.0,-18.0,34.0,0.0
-10.0,-14.0,26.0,0.0
-16.0,-23.0,42.0,0.0
-13.0,-19.0,35.0,0.0
-12.0,-16.0,29.0,0.0
-22.0,-33.0,55.0,0.0
-14.0,-22.0,36.0,0.0
-19.0,-30.0,47.0,0.0
-12.0,-19.0,30.0,0.0
-10.0,-18.0,26.0,0.0
-20.0,-33.0,50.0,0.0
-25.0,-42.0,60.0,0.0
-16.0,-29.0,41.0,0.0
-22.0,-40.0,55.0,0.0
-30.0,-54.0,71.0,0.0
-24.0,-44.0,56.0,0.0
-24.0,-44.0,56.0,0.0
-27.0,-51.0,63.0,0.0
-30.0,-58.0,70.0,0.0
-28.0,-56.0,66.0,0.0
-28.0,-57.0,66.0,0.0
-27.0,-54.0,62.0,0.0
-30.0,-61.0,69.0,0.0
-33.0,-72.0,77.0,0.0
-35.0,-77.0,80.0,0.0
-35.0,-75.0,78.0,0.0
-36.0,-80.0,80.0,0.0
-35.0,-79.0,78.0,0.0
-38.0,-88.0,85.0,0.0
-40.0,-94.0,88.0,0.0
-43.0,-102.0,93.0,0.0
-38.0,-93.0,83.0,0.0
-43.0,-106.0,92.0,0.0
-43.0,-108.0,92.0,0.0
-46.0,-116.0,97.0,0.0
-45.0,-115.0,95.0,0.0
-45.0,-120.0,96.0,0.0
-45.0,-119.0,94.0,0.0
-45.0,-121.0,92.0,0.0
-47.0,-131.0,98.0,0.0
-49.0,-137.0,100.0,0.0
-47.0,-136.0,96.0,0.0
-44.0,-129.0,89.0,0.0
-47.0,-138.0,94.0,0.0
-51.0,-152.0,101.0,0.0
-51.0,-155.0,100.0,0.0
-51.0,-157.0,99.0,0.0
-51.0,-158.0,97.0,0.0
-51.0,-161.0,96.0,0.0
-48.0,-155.0,90.0,0.0
-47.0,-153.0,87.0,0.0
-50.0,-166.0,92.0,0.0
-52.0,-173.0,93.0,0.0
-49.0,-169.0,89.0,0.0
-54.0,-186.0,95.0,0.0
-49.0,-174.0,87.0,0.0
-51.0,-184.0,89.0,0.0
-48.0,-178.0,83.0,0.0
-48.0,-181.0,83.0,0.0
-50.0,-191.0,85.0,0.0
-47.0,-180.0,78.0,0.0
-44.0,-174.0,73.0,0.0
-46.0,-181.0,73.0,0.0
-44.0,-179.0,70.0,0.0
-48.0,-195.0,74.0,0.0
-66.0,-273.0,100.0,0.0
-68.0,-284.0,101.0,0.0
-68.0,-288.0,99.0,0.0
-67.0,-287.0,95.0,0.0
-66.0,-289.0,92.0,0.0
-66.0,-291.0,90.0,0.0
-66.0,-297.0,88.0,0.0
-63.0,-292.0,84.0,0.0
-63.0,-293.0,80.0,0.0
-62.0,-297.0,77.0,0.0
-6050.0,21299.0,19147.0,0.0
-6094.0,20980.0,19270.0,0.0
-6170.0,20774.0,19496.0,0.0
-6252.0,20581.0,19735.0,0.0
-10505.0,33812.0,33129.0,0.0
-10273.0,32328.0,32365.0,0.0
-10324.0,31764.0,32496.0,0.0
-10313.0,31022.0,32431.0,0.0
-10388.0,30546.0,32635.0,0.0
-10379.0,29835.0,32577.0,0.0
-10108.0,28399.0,31694.0,0.0
-10108.0,27756.0,31663.0,0.0
0.0,0.0,0.0,0.0
0.0,0.0,0.0,0.0
-10235.0,26219.0,31962.0,0.0
-10301.0,25778.0,32136.0,0.0
-10341.0,25275.0,32226.0,0.0
-10357.0,24721.0,32242.0,0.0
-11254.0,26225.0,34993.0,0.0
-11246.0,25584.0,34931.0,0.0
-11211.0,24892.0,34785.0,0.0
-11165.0,24189.0,34602.0,0.0
-11177.0,23624.0,34601.0,0.0
-11123.0,22928.0,34393.0,0.0
-11092.0,22294.0,34256.0,0.0
-10076.0,19743.0,31085.0,0.0
-10084.0,19254.0,31072.0,0.0
-10295.0,19149.0,31682.0,0.0
-10366.0,18778.0,31864.0,0.0
-11002.0,19401.0,33775.0,0.0
-10946.0,18784.0,33562.0,0.0
-10903.0,18201.0,33389.0,0.0
-10876.0,17654.0,33266.0,0.0
-8706.0,13734.0,26595.0,0.0
-8853.0,13569.0,27012.0,0.0
-9067.0,13492.0,27626.0,0.0
-9031.0,13041.0,27481.0,0.0
-8992.0,12595.0,27329.0,0.0
-8989.0,12202.0,27280.0,0.0
-8957.0,11777.0,27146.0,0.0
-8935.0,11371.0,27042.0,0.0
-8922.0,10982.0,26965.0,0.0
-8240.0,9804.0,24871.0,0.0
-8083.0,9287.0,24364.0,0.0
-8067.0,8942.0,24280.0,0.0
-8213.0,8774.0,24682.0,0.0
-8801.0,9053.0,26412.0,0.0
-8206.0,8119.0,24593.0,0.0
-8756.0,8323.0,26202.0,0.0
-8738.0,7967.0,26108.0,0.0
-8716.0,7614.0,26004.0,0.0
-8702.0,7270.0,25921.0,0.0
-8679.0,6925.0,25816.0,0.0
-8292.0,6305.0,24625.0,0.0
-8625.0,6239.0,25574.0,0.0
-8640.0,5932.0,25580.0,0.0
-8623.0,5605.0,25488.0,0.0
-8607.0,5282.0,25396.0,0.0
-8597.0,4966.0,25327.0,0.0
-8583.0,4651.0,25244.0,0.0
-8562.0,4335.0,25141.0,0.0
-8550.0,4026.0,25063.0,0.0
-8536.0,3721.0,24980.0,0.0
-8519.0,3416.0,24887.0,0.0
-8506.0,3116.0,24807.0,0.0
-8493.0,2817.0,24724.0,0.0
-8329.0,2477.0,24202.0,0.0
-8460.0,2227.0,24540.0,0.0
-8451.0,1937.0,24467.0,0.0
-8423.0,1647.0,24344.0,0.0
-8359.0,1353.0,24114.0,0.0
-8372.0,1074.0,24107.0,0.0
-8399.0,797.0,24139.0,0.0
-8404.0,519.0,24104.0,0.0
-8392.0,240.0,24026.0,0.0
-8194.0,-34.0,23409.0,0.0
-8374.0,-310.0,23878.0,0.0
-8383.0,-585.0,23857.0,0.0
-8245.0,-845.0,23415.0,0.0
-8378.0,-1131.0,23743.0,0.0
-8373.0,-1402.0,23681.0,0.0
-8352.0,-1669.0,23571.0,0.0
-8363.0,-1941.0,23550.0,0.0
-8371.0,-2213.0,23523.0,0.0
-8373.0,-2482.0,23478.0,0.0
-8373.0,-2750.0,23426.0,0.0
-8365.0,-3016.0,23351.0,0.0
-8361.0,-3282.0,23290.0,0.0
-7833.0,-3324.0,21768.0,0.0
-7903.0,-3606.0,21913.0,0.0
-7898.0,-3855.0,21845.0,0.0
-8356.0,-4345.0,23059.0,0.0
-8370.0,-4618.0,23041.0,0.0
-8363.0,-4880.0,22967.0,0.0
-8191.0,-5040.0,22439.0,0.0
-8362.0,-5410.0,22851.0,0.0
-8369.0,-5680.0,22811.0,0.0
-8361.0,-5939.0,22731.0,0.0
-8366.0,-6208.0,22684.0,0.0
-8363.0,-6472.0,22619.0,0.0
-8339.0,-6718.0,22494.0,0.0
-8363.0,-7003.0,22497.0,0.0
-8368.0,-7274.0,22449.0,0.0
-8377.0,-7549.0,22414.0,0.0
-8246.0,-7694.0,22001.0,0.0
-8373.0,-8079.0,22273.0,0.0
-8379.0,-8354.0,22225.0,0.0
-8185.0,-8423.0,21649.0,0.0
-8373.0,-8885.0,22079.0,0.0
-8376.0,-9158.0,22021.0,0.0
-7734.0,-8706.0,20271.0,0.0
-2.0,-3.0,8.0,0.0
-6.0,-7.0,18.0,0.0
-10.0,-12.0,27.0,0.0
-5.0,-7.0,15.0,0.0
-5.0,-6.0,15.0,0.0
-11.0,-14.0,30.0,0.0
-6.0,-8.0,17.0,0.0
-7.0,-10.0,20.0,0.0
-10.0,-15.0,28.0,0.0
-16.0,-24.0,43.0,0.0
-15.0,-23.0,40.0,0.0
-11.0,-19.0,32.0,0.0
-14.0,-23.0,38.0,0.0
-14.0,-24.0,38.0,0.0
-14.0,-23.0,37.0,0.0
-17.0,-29.0,44.0,0.0
-20.0,-34.0,51.0,0.0
-21.0,-37.0,55.0,0.0
-20.0,-37.0,53.0,0.0
-24.0,-45.0,62.0,0.0
-20.0,-38.0,51.0,0.0
-23.0,-43.0,56.0,0.0
-20.0,-39.0,51.0,0.0
-23.0,-45.0,56.0,0.0
-23.0,-46.0,55.0,0.0
-25.0,-51.0,61.0,0.0
-26.0,-54.0,63.0,0.0
-25.0,-52.0,59.0,0.0
-33.0,-72.0,80.0,0.0
-30.0,-66.0,72.0,0.0
-29.0,-66.0,70.0,0.0
-29.0,-68.0,70.0,0.0
-31.0,-72.0,72.0,0.0
-32.0,-78.0,77.0,0.0
-34.0,-83.0,79.0,0.0
-35.0,-88.0,83.0,0.0
-40.0,-98.0,90.0,0.0
-35.0,-89.0,80.0,0.0
-37.0,-95.0,84.0,0.0
-41.0,-108.0,92.0,0.0
-40.0,-107.0,89.0,0.0
-41.0,-110.0,91.0,0.0
-43.0,-120.0,96.0,0.0
-43.0,-119.0,93.0,0.0
-44.0,-123.0,94.0,0.0
-42.0,-120.0,90.0,0.0
-44.0,-126.0,92.0,0.0
-45.0,-133.0,95.0,0.0
-41.0,-124.0,86.0,0.0
-43.0,-131.0,89.0,0.0
-42.0,-130.0,87.0,0.0
-44.0,-139.0,90.0,0.0
-44.0,-142.0,89.0,0.0
-43.0,-141.0,87.0,0.0
-41.0,-136.0,82.0,0.0
-45.0,-148.0,87.0,0.0
-45.0,-152.0,87.0,0.0
-44.0,-152.0,84.0,0.0
-44.0,-155.0,85.0,0.0
-46.0,-164.0,86.0,0.0
-44.0,-162.0,83.0,0.0
-47.0,-175.0,88.0,0.0
-44.0,-167.0,81.0,0.0
-43.0,-163.0,77.0,0.0
-45.0,-176.0,80.0,0.0
-45.0,-174.0,78.0,0.0
-42.0,-166.0,72.0,0.0
-42.0,-171.0,72.0,0.0
-39.0,-160.0,65.0,0.0
-39.0,-164.0,65.0,0.0
-41.0,-171.0,66.0,0.0
-58.0,-250.0,93.0,0.0
-65.0,-285.0,102.0,0.0
-63.0,-279.0,97.0,0.0
-64.0,-285.0,95.0,0.0
-63.0,-288.0,93.0,0.0
-61.0,-286.0,89.0,0.0
-61.0,-289.0,86.0,0.0
-60.0,-290.0,83.0,0.0
-60.0,-293.0,81.0,0.0
-59.0,-296.0,78.0,0.0
-5824.0,21373.0,19310.0,0.0
-5957.0,21371.0,19727.0,0.0
-6022.0,21118.0,19917.0,0.0
-6038.0,20697.0,19944.0,0.0
-9966.0,33391.0,32878.0,0.0
-9820.0,32160.0,32354.0,0.0
-9891.0,31662.0,32549.0,0.0
-9797.0,30650.0,32199.0,0.0
-9816.0,30012.0,32220.0,0.0
-9834.0,29385.0,32242.0,0.0
0.0,0.0,0.0,0.0
0.0,0.0,0.0,0.0
-9616.0,26801.0,31405.0,0.0
-9728.0,26482.0,31726.0,0.0
-9777.0,25997.0,31845.0,0.0
-9917.0,25754.0,32261.0,0.0
-9923.0,25164.0,32239.0,0.0
-10820.0,26788.0,35105.0,0.0
-10806.0,26117.0,35016.0,0.0
-10781.0,25430.0,34889.0,0.0
-10749.0,24739.0,34737.0,0.0
-10729.0,24092.0,34629.0,0.0
-10694.0,23422.0,34470.0,0.0
-9788.0,20903.0,31507.0,0.0
-9695.0,20183.0,31162.0,0.0
-9701.0,19683.0,31142.0,0.0
-9813.0,19400.0,31460.0,0.0
-9857.0,18979.0,31556.0,0.0
-9995.0,18739.0,31955.0,0.0
-10322.0,18835.0,32953.0,0.0
-10522.0,18681.0,33545.0,0.0
-10512.0,18152.0,33467.0,0.0
-10450.0,17542.0,33219.0,0.0
-8392.0,13690.0,26642.0,0.0
-10370.0,16430.0,32873.0,0.0
-8728.0,13426.0,27631.0,0.0
-8698.0,12982.0,27496.0,0.0
-8662.0,12535.0,27339.0,0.0
-8646.0,12125.0,27250.0,0.0
-8621.0,11711.0,27133.0,0.0
-8604.0,11310.0,27038.0,0.0
-8581.0,10909.0,26926.0,0.0
-8556.0,10511.0,26807.0,0.0
-8142.0,9657.0,25468.0,0.0
-8296.0,9491.0,25913.0,0.0
-8253.0,9100.0,25740.0,0.0
-8371.0,8885.0,26065.0,0.0
-8450.0,8624.0,26270.0,0.0
-8452.0,8285.0,26236.0,0.0
-8419.0,7917.0,26092.0,0.0
-8412.0,7576.0,26029.0,0.0
-8391.0,7227.0,25922.0,0.0
-8381.0,6892.0,25851.0,0.0
-8360.0,6551.0,25744.0,0.0
-8276.0,6167.0,25442.0,0.0
-8319.0,5882.0,25529.0,0.0
-8306.0,5560.0,25450.0,0.0
-8302.0,5245.0,25392.0,0.0
-8282.0,4924.0,25290.0,0.0
-8264.0,4608.0,25192.0,0.0
-8253.0,4298.0,25114.0,0.0
-8243.0,3992.0,25040.0,0.0
-8240.0,3691.0,24986.0,0.0
-8211.0,3382.0,24856.0,0.0
-8206.0,3085.0,24793.0,0.0
-8190.0,2787.0,24703.0,0.0
-8189.0,2497.0,24654.0,0.0
-8167.0,2203.0,24541.0,0.0
-8164.0,1915.0,24487.0,0.0
-8140.0,1625.0,24372.0,0.0
-8079.0,1332.0,24142.0,0.0
-8072.0,1052.0,24076.0,0.0
-8114.0,778.0,24153.0,0.0
-8115.0,500.0,24106.0,0.0
-8103.0,222.0,24025.0,0.0
-8074.0,-53.0,23893.0,0.0
-8107.0,-328.0,23941.0,0.0
-8102.0,-601.0,23878.0,0.0
-8091.0,-874.0,23798.0,0.0
-8085.0,-1144.0,23729.0,0.0
-8089.0,-1415.0,23691.0,0.0
-8080.0,-1684.0,23616.0,0.0
-8080.0,-1953.0,23564.0,0.0
-8092.0,-2224.0,23547.0,0.0
-8081.0,-2489.0,23465.0,0.0
-8084.0,-2758.0,23425.0,0.0
-8078.0,-3022.0,23351.0,0.0
-8076.0,-3289.0,23295.0,0.0
-7627.0,-3357.0,21949.0,0.0
-7639.0,-3614.0,21932.0,0.0
-7634.0,-3862.0,21870.0,0.0
-8068.0,-4346.0,23056.0,0.0
-8066.0,-4609.0,22994.0,0.0
-8062.0,-4872.0,22928.0,0.0
-8029.0,-5115.0,22779.0,0.0
-8074.0,-5408.0,22849.0,0.0
-8068.0,-5668.0,22774.0,0.0
-8065.0,-5930.0,22710.0,0.0
-8080.0,-6205.0,22692.0,0.0
-8072.0,-6464.0,22611.0,0.0
-8061.0,-6720.0,22522.0,0.0
-8067.0,-6989.0,22478.0,0.0
-8065.0,-7253.0,22411.0,0.0
-8072.0,-7525.0,22369.0,0.0
-8076.0,-7795.0,22320.0,0.0
-8081.0,-8067.0,22271.0,0.0
-8080.0,-8331.0,22201.0,0.0
-8008.0,-8523.0,21942.0,0.0
-8069.0,-8857.0,22045.0,0.0
-11.0,-13.0,31.0,0.0
-9.0,-11.0,27.0,0.0
-11.0,-13.0,31.0,0.0
-9.0,-12.0,28.0,0.0
-7.0,-9.0,19.0,0.0
-12.0,-17.0,36.0,0.0
-15.0,-20.0,41.0,0.0
-9.0,-13.0,27.0,0.0
-14.0,-20.0,39.0,0.0
-7.0,-10.0,20.0,0.0
-12.0,-19.0,34.0,0.0
-14.0,-21.0,38.0,0.0
-17.0,-27.0,46.0,0.0
-18.0,-28.0,47.0,0.0
-15.0,-24.0,40.0,0.0
-18.0,-29.0,48.0,0.0
-19.0,-32.0,51.0,0.0
-18.0,-32.0,49.0,0.0
-15.0,-26.0,39.0,0.0
-15.0,-29.0,42.0,0.0
-21.0,-38.0,54.0,0.0
-21.0,-39.0,54.0,0.0
-23.0,-45.0,61.0,0.0
-26.0,-52.0,67.0,0.0
-21.0,-44.0,55.0,0.0
-23.0,-48.0,59.0,0.0
-25.0,-53.0,64.0,0.0
-25.0,-54.0,65.0,0.0
-28.0,-61.0,71.0,0.0
-30.0,-66.0,75.0,0.0
-29.0,-66.0,73.0,0.0
-31.0,-71.0,77.0,0.0
-32.0,-74.0,79.0,0.0
-32.0,-75.0,78.0,0.0
-31.0,-76.0,77.0,0.0
-34.0,-84.0,83.0,0.0
-38.0,-95.0,92.0,0.0
-35.0,-89.0,85.0,0.0
-37.0,-95.0,89.0,0.0
-37.0,-96.0,86.0,0.0
-38.0,-100.0,89.0,0.0
-39.0,-104.0,90.0,0.0
-39.0,-107.0,91.0,0.0
-39.0,-108.0,89.0,0.0
-40.0,-112.0,90.0,0.0
-42.0,-119.0,93.0,0.0
-41.0,-120.0,92.0,0.0
-43.0,-128.0,96.0,0.0
-43.0,-130.0,95.0,0.0
-42.0,-131.0,94.0,0.0
-42.0,-134.0,94.0,0.0
-41.0,-127.0,87.0,0.0
-44.0,-141.0,95.0,0.0
-41.0,-136.0,88.0,0.0
-46.0,-152.0,97.0,0.0
-44.0,-149.0,92.0,0.0
-41.0,-143.0,86.0,0.0
-43.0,-149.0,88.0,0.0
-42.0,-148.0,86.0,0.0
-45.0,-162.0,90.0,0.0
-45.0,-161.0,88.0,0.0
-45.0,-166.0,88.0,0.0
-47.0,-175.0,91.0,0.0
-45.0,-175.0,88.0,0.0
-45.0,-176.0,87.0,0.0
-44.0,-173.0,82.0,0.0
-41.0,-169.0,78.0,0.0
-44.0,-179.0,81.0,0.0
-43.0,-177.0,77.0,0.0
-42.0,-175.0,75.0,0.0
-39.0,-168.0,69.0,0.0
-38.0,-165.0,66.0,0.0
-41.0,-179.0,69.0,0.0
-53.0,-240.0,90.0,0.0
-62.0,-279.0,100.0,0.0
-61.0,-283.0,98.0,0.0
-61.0,-286.0,96.0,0.0
-59.0,-283.0,92.0,0.0
-60.0,-288.0,90.0,0.0
-59.0,-291.0,88.0,0.0
-57.0,-287.0,83.0,0.0
-56.0,-290.0,80.0,0.0
-56.0,-293.0,79.0,0.0
-5957.0,22837.0,20733.0,0.0
-5767.0,21602.0,20036.0,0.0
-5800.0,21228.0,20117.0,0.0
-5793.0,20718.0,20060.0,0.0
-5862.0,20486.0,20266.0,0.0
-9385.0,32046.0,32394.0,0.0
-9427.0,31450.0,32486.0,0.0
0.0,0.0,0.0,0.0
-7144.0,22750.0,24539.0,0.0
-7149.0,22244.0,24521.0,0.0
-7155.0,21747.0,24503.0,0.0
-7147.0,21219.0,24436.0,0.0
-7133.0,20681.0,24347.0,0.0
-7099.0,20104.0,24196.0,0.0
-7198.0,19902.0,24493.0,0.0
-9482.0,25599.0,32216.0,0.0
-9501.0,25038.0,32229.0,0.0
-10351.0,26626.0,35057.0,0.0
-10342.0,25965.0,34976.0,0.0
-10320.0,25279.0,34843.0,0.0
-10306.0,24629.0,34743.0,0.0
-10280.0,23960.0,34601.0,0.0
-10246.0,23288.0,34434.0,0.0
-10229.0,22665.0,34322.0,0.0
-9302.0,20090.0,31165.0,0.0
-9298.0,19566.0,31101.0,0.0
-9453.0,19378.0,31572.0,0.0
-9574.0,19112.0,31927.0,0.0
-9723.0,18892.0,32370.0,0.0
-9783.0,18501.0,32522.0,0.0
-10094.0,18569.0,33501.0,0.0
-10046.0,17969.0,33288.0,0.0
-10080.0,17526.0,33350.0,0.0
-10021.0,16927.0,33101.0,0.0
-9998.0,16401.0,32975.0,0.0
-8364.0,13317.0,27542.0,0.0
-8346.0,12891.0,27438.0,0.0
-8332.0,12476.0,27346.0,0.0
-8308.0,12052.0,27222.0,0.0
-8280.0,11632.0,27089.0,0.0
-8264.0,11235.0,26994.0,0.0
-8236.0,10826.0,26857.0,0.0
-8236.0,10460.0,26816.0,0.0
-8188.0,10039.0,26617.0,0.0
-8134.0,9618.0,26396.0,0.0
-8157.0,9293.0,26427.0,0.0
-8147.0,8935.0,26353.0,0.0
-8129.0,8570.0,26249.0,0.0
-8126.0,8227.0,26197.0,0.0
-8096.0,7860.0,26055.0,0.0
-8095.0,7527.0,26008.0,0.0
-8070.0,7175.0,25885.0,0.0
-8059.0,6839.0,25804.0,0.0
-8043.0,6502.0,25709.0,0.0
-8033.0,6174.0,25630.0,0.0
-8021.0,5849.0,25547.0,0.0
-8004.0,5523.0,25450.0,0.0
-7983.0,5198.0,25339.0,0.0
-7970.0,4883.0,25253.0,0.0
-7965.0,4574.0,25189.0,0.0
-7945.0,4261.0,25082.0,0.0
-7927.0,3952.0,24981.0,0.0
-7930.0,3655.0,24945.0,0.0
-7911.0,3351.0,24839.0,0.0
-7897.0,3053.0,24751.0,0.0
-7902.0,2763.0,24720.0,0.0
-7891.0,2470.0,24638.0,0.0
-7869.0,2176.0,24523.0,0.0
-7869.0,1891.0,24478.0,0.0
-7844.0,1601.0,24350.0,0.0
-7848.0,1321.0,24317.0,0.0
-7840.0,1039.0,24244.0,0.0
-7822.0,758.0,24143.0,0.0
-7822.0,481.0,24093.0,0.0
-7818.0,205.0,24032.0,0.0
-7805.0,-69.0,23944.0,0.0
-7806.0,-343.0,23901.0,0.0
-7807.0,-615.0,23853.0,0.0
-7804.0,-887.0,23794.0,0.0
-7802.0,-1158.0,23738.0,0.0
-7805.0,-1428.0,23697.0,0.0
-7797.0,-1696.0,23623.0,0.0
-7788.0,-1961.0,23543.0,0.0
-7790.0,-2229.0,23501.0,0.0
-7798.0,-2498.0,23472.0,0.0
-7798.0,-2765.0,23419.0,0.0
-7792.0,-3029.0,23348.0,0.0
-7780.0,-3290.0,23264.0,0.0
-7584.0,-3464.0,22621.0,0.0
-7700.0,-3779.0,22915.0,0.0
-7413.0,-3890.0,22011.0,0.0
-7779.0,-4346.0,23044.0,0.0
-7789.0,-4615.0,23016.0,0.0
-7793.0,-4882.0,22976.0,0.0
-7792.0,-5145.0,22917.0,0.0
-7784.0,-5403.0,22834.0,0.0
-7795.0,-5675.0,22813.0,0.0
-7775.0,-5922.0,22696.0,0.0
-7784.0,-6192.0,22664.0,0.0
-7785.0,-6458.0,22610.0,0.0
-7792.0,-6728.0,22570.0,0.0
-7793.0,-6993.0,22514.0,0.0
-7790.0,-7255.0,22444.0,0.0
-7796.0,-7525.0,22400.0,0.0
-7789.0,-7785.0,22321.0,0.0
-7800.0,-8061.0,22289.0,0.0
-7791.0,-8320.0,22204.0,0.0
-7793.0,-8588.0,22145.0,0.0
-7810.0,-8875.0,22127.0,0.0
-1.0,-1.0,4.0,0.0
-1.0,-1.0,4.0,0.0
-6.0,-8.0,20.0,0.0
-5.0,-6.0,15.0,0.0
-8.0,-9.0,23.0,0.0
-9.0,-13.0,27.0,0.0
-6.0,-9.0,20.0,0.0
-9.0,-13.0,28.0,0.0
-10.0,-16.0,32.0,0.0
-12.0,-19.0,35.0,0.0
-17.0,-27.0,50.0,0.0
-8.0,-13.0,25.0,0.0
-12.0,-20.0,36.0,0.0
-13.0,-23.0,38.0,0.0
-9.0,-17.0,28.0,0.0
-10.0,-17.0,29.0,0.0
-16.0,-30.0,46.0,0.0
-16.0,-30.0,46.0,0.0
-12.0,-23.0,34.0,0.0
-16.0,-30.0,44.0,0.0
-14.0,-28.0,40.0,0.0
-16.0,-31.0,44.0,0.0
-25.0,-51.0,70.0,0.0
-24.0,-49.0,65.0,0.0
-24.0,-50.0,63.0,0.0
-24.0,-51.0,64.0,0.0
-19.0,-40.0,49.0,0.0
-21.0,-47.0,56.0,0.0
-27.0,-62.0,72.0,0.0
-27.0,-61.0,70.0,0.0
-30.0,-68.0,76.0,0.0
-28.0,-67.0,73.0,0.0
-31.0,-75.0,80.0,0.0
-27.0,-65.0,68.0,0.0
-30.0,-76.0,77.0,0.0
-34.0,-86.0,85.0,0.0
-33.0,-86.0,83.0,0.0
-35.0,-92.0,88.0,0.0
-36.0,-95.0,89.0,0.0
-37.0,-99.0,89.0,0.0
-34.0,-95.0,84.0,0.0
-38.0,-107.0,92.0,0.0
-34.0,-99.0,84.0,0.0
-37.0,-108.0,90.0,0.0
-37.0,-111.0,90.0,0.0
-35.0,-104.0,83.0,0.0
-39.0,-116.0,91.0,0.0
-36.0,-111.0,83.0,0.0
-40.0,-126.0,93.0,0.0
-39.0,-123.0,89.0,0.0
-39.0,-125.0,88.0,0.0
-36.0,-121.0,84.0,0.0
-38.0,-129.0,87.0,0.0
-39.0,-133.0,87.0,0.0
-38.0,-130.0,83.0,0.0
-40.0,-139.0,87.0,0.0
-37.0,-134.0,81.0,0.0
-38.0,-141.0,83.0,0.0
-39.0,-145.0,83.0,0.0
-40.0,-149.0,84.0,0.0
-40.0,-153.0,83.0,0.0
-39.0,-151.0,81.0,0.0
-42.0,-165.0,86.0,0.0
-43.0,-171.0,86.0,0.0
-40.0,-161.0,80.0,0.0
-38.0,-155.0,74.0,0.0
-38.0,-162.0,75.0,0.0
-39.0,-167.0,76.0,0.0
-35.0,-152.0,67.0,0.0
-33.0,-146.0,62.0,0.0
-35.0,-158.0,65.0,0.0
-36.0,-161.0,64.0,0.0
-36.0,-165.0,64.0,0.0
-46.0,-219.0,82.0,0.0
-57.0,-275.0,100.0,0.0
-58.0,-282.0,99.0,0.0
-56.0,-280.0,95.0,0.0
-56.0,-282.0,92.0,0.0
-56.0,-286.0,90.0,0.0
-56.0,-289.0,88.0,0.0
-54.0,-284.0,83.0,0.0
-53.0,-286.0,80.0,0.0
-53.0,-292.0,79.0,0.0
-5389.0,21625.0,19724.0,0.0
-5401.0,21168.0,19725.0,0.0
-5512.0,21105.0,20093.0,0.0
-5549.0,20751.0,20184.0,0.0
-5589.0,20410.0,20286.0,0.0
-8955.0,31945.0,32441.0,0.0
-8991.0,31328.0,32508.0,0.0
-9012.0,30668.0,32519.0,0.0
-6876.0,22852.0,24762.0,0.0
-9151.0,29698.0,32889.0,0.0
-7108.0,22531.0,25502.0,0.0
-7138.0,22093.0,25559.0,0.0
-7148.0,21599.0,25545.0,0.0
-7148.0,21090.0,25500.0,0.0
-7142.0,20572.0,25432.0,0.0
-7103.0,19969.0,25245.0,0.0
-7106.0,19497.0,25209.0,0.0
-9413.0,25203.0,33334.0,0.0
-9889.0,25832.0,34954.0,0.0
-9878.0,25170.0,34851.0,0.0
-9838.0,24449.0,34646.0,0.0
-9833.0,23829.0,34568.0,0.0
-9813.0,23184.0,34436.0,0.0
-9809.0,22587.0,34361.0,0.0
-9143.0,20515.0,31971.0,0.0
-9033.0,19745.0,31531.0,0.0
-9082.0,19334.0,31645.0,0.0
-9124.0,18910.0,31735.0,0.0
-9507.0,19178.0,33010.0,0.0
-9642.0,18923.0,33418.0,0.0
-9682.0,18481.0,33498.0,0.0
-9639.0,17886.0,33289.0,0.0
-9681.0,17458.0,33376.0,0.0
-9586.0,16790.0,32989.0,0.0
-7997.0,13601.0,27476.0,0.0
-8030.0,13253.0,27540.0,0.0
-8001.0,12809.0,27395.0,0.0
-7991.0,12400.0,27311.0,0.0
-7957.0,11961.0,27146.0,0.0
-7958.0,11581.0,27101.0,0.0
-7929.0,11165.0,26959.0,0.0
-7912.0,10768.0,26850.0,0.0
-7901.0,10388.0,26765.0,0.0
-7878.0,9996.0,26641.0,0.0
-7870.0,9631.0,26569.0,0.0
-7852.0,9255.0,26457.0,0.0
-7840.0,8895.0,26373.0,0.0
-7820.0,8527.0,26256.0,0.0
-7805.0,8172.0,26161.0,0.0
-7786.0,7816.0,26051.0,0.0
-7766.0,7464.0,25938.0,0.0
-7766.0,7135.0,25890.0,0.0
-7754.0,6799.0,25804.0,0.0
-7741.0,6466.0,25717.0,0.0
-7726.0,6134.0,25618.0,0.0
-7701.0,5800.0,25490.0,0.0
-7706.0,5490.0,25457.0,0.0
-7687.0,5167.0,25349.0,0.0
-7679.0,4854.0,25275.0,0.0
-7665.0,4541.0,25182.0,0.0
-7654.0,4233.0,25100.0,0.0
-7653.0,3933.0,25049.0,0.0
-7643.0,3630.0,24970.0,0.0
-7616.0,3324.0,24834.0,0.0
-7615.0,3030.0,24779.0,0.0
-7599.0,2734.0,24684.0,0.0
-7601.0,2446.0,24643.0,0.0
-7583.0,2154.0,24536.0,0.0
-7577.0,1867.0,24469.0,0.0
-7562.0,1581.0,24371.0,0.0
-7561.0,1300.0,24320.0,0.0
-7544.0,1018.0,24217.0,0.0
-7515.0,737.0,24076.0,0.0
-7471.0,459.0,23885.0,0.0
-7493.0,186.0,23909.0,0.0
-7522.0,-85.0,23950.0,0.0
-7521.0,-358.0,23900.0,0.0
-7516.0,-629.0,23831.0,0.0
-7523.0,-901.0,23803.0,0.0
-7520.0,-1170.0,23746.0,0.0
-7514.0,-1438.0,23675.0,0.0
-7499.0,-1703.0,23577.0,0.0
-7512.0,-1973.0,23567.0,0.0
-7498.0,-2235.0,23472.0,0.0
-7501.0,-2501.0,23428.0,0.0
-7503.0,-2767.0,23383.0,0.0
-7495.0,-3030.0,23307.0,0.0
-7485.0,-3289.0,23224.0,0.0
-7467.0,-3544.0,23115.0,0.0
-7413.0,-3779.0,22893.0,0.0
-7407.0,-4036.0,22823.0,0.0
-7484.0,-4341.0,23005.0,0.0
-7477.0,-4599.0,22928.0,0.0
-7477.0,-4860.0,22874.0,0.0
-7475.0,-5122.0,22814.0,0.0
-7461.0,-5373.0,22717.0,0.0
-7459.0,-5633.0,22653.0,0.0
-7391.0,-5840.0,22392.0,0.0
-7386.0,-6093.0,22318.0,0.0
-7394.0,-6360.0,22287.0,0.0
-7429.0,-6650.0,22333.0,0.0
-7479.0,-6959.0,22427.0,0.0
-7466.0,-7209.0,22327.0,0.0
-7487.0,-7493.0,22330.0,0.0
-7505.0,-7777.0,22325.0,0.0
-7508.0,-8045.0,22273.0,0.0
-7510.0,-8313.0,22220.0,0.0
-10.0,-12.0,33.0,0.0
-12.0,-14.0,38.0,0.0
-7.0,-9.0,25.0,0.0
-4.0,-5.0,14.0,0.0
-6.0,-8.0,21.0,0.0
-12.0,-17.0,39.0,0.0
-18.0,-24.0,53.0,0.0
-12.0,-18.0,38.0,0.0
-10.0,-15.0,30.0,0.0
-13.0,-19.0,38.0,0.0
-13.0,-20.0,40.0,0.0
-20.0,-31.0,59.0,0.0
-15.0,-23.0,44.0,0.0
-15.0,-24.0,45.0,0.0
-18.0,-31.0,54.0,0.0
-13.0,-23.0,39.0,0.0
-16.0,-29.0,48.0,0.0
-17.0,-31.0,50.0,0.0
-17.0,-32.0,49.0,0.0
-16.0,-31.0,48.0,0.0
-15.0,-31.0,46.0,0.0
-20.0,-40.0,58.0,0.0
-16.0,-33.0,47.0,0.0
-22.0,-44.0,60.0,0.0
-24.0,-51.0,68.0,0.0
-23.0,-49.0,64.0,0.0
-29.0,-63.0,81.0,0.0
-25.0,-55.0,69.0,0.0
-28.0,-64.0,79.0,0.0
-30.0,-67.0,80.0,0.0
-30.0,-68.0,80.0,0.0
-27.0,-65.0,75.0,0.0
-28.0,-69.0,78.0,0.0
-32.0,-79.0,87.0,0.0
-30.0,-76.0,81.0,0.0
-35.0,-89.0,93.0,0.0
-34.0,-87.0,89.0,0.0
-35.0,-92.0,92.0,0.0
-34.0,-90.0,88.0,0.0
-31.0,-87.0,83.0,0.0
-39.0,-110.0,103.0,0.0
-38.0,-107.0,98.0,0.0
-37.0,-105.0,93.0,0.0
-41.0,-117.0,103.0,0.0
-39.0,-115.0,98.0,0.0
-40.0,-120.0,100.0,0.0
-39.0,-119.0,97.0,0.0
-40.0,-122.0,97.0,0.0
-41.0,-131.0,101.0,0.0
-39.0,-125.0,94.0,0.0
-40.0,-130.0,96.0,0.0
-40.0,-133.0,97.0,0.0
-42.0,-140.0,100.0,0.0
-38.0,-131.0,90.0,0.0
-42.0,-145.0,97.0,0.0
-42.0,-147.0,96.0,0.0
-43.0,-153.0,99.0,0.0
-43.0,-156.0,98.0,0.0
-39.0,-146.0,89.0,0.0
-42.0,-162.0,96.0,0.0
-41.0,-159.0,92.0,0.0
-42.0,-166.0,93.0,0.0
-41.0,-160.0,89.0,0.0
-41.0,-168.0,91.0,0.0
-43.0,-174.0,91.0,0.0
-41.0,-175.0,89.0,0.0
-40.0,-172.0,85.0,0.0
-42.0,-179.0,87.0,0.0
-38.0,-168.0,79.0,0.0
-40.0,-179.0,81.0,0.0
-36.0,-167.0,74.0,0.0
-38.0,-173.0,74.0,0.0
-35.0,-167.0,69.0,0.0
-35.0,-171.0,69.0,0.0
-37.0,-179.0,70.0,0.0
-41.0,-205.0,77.0,0.0
-56.0,-280.0,102.0,0.0
-56.0,-286.0,102.0,0.0
-56.0,-292.0,100.0,0.0
-55.0,-288.0,95.0,0.0
-54.0,-290.0,93.0,0.0
-54.0,-294.0,91.0,0.0
-53.0,-298.0,88.0,0.0
-53.0,-300.0,85.0,0.0
-53.0,-304.0,83.0,0.0
-5109.0,21512.0,19710.0,0.0
-5217.0,21445.0,20074.0,0.0
-5345.0,21448.0,20513.0,0.0
-5290.0,20730.0,20255.0,0.0
-5365.0,20525.0,20491.0,0.0
-5670.0,21177.0,21601.0,0.0
-8532.0,31109.0,32425.0,0.0
0.0,0.0,0.0,0.0
-8623.0,29972.0,32622.0,0.0
-6705.0,22752.0,25307.0,0.0
-6837.0,22646.0,25745.0,0.0
-6859.0,22178.0,25771.0,0.0
-6836.0,21575.0,25627.0,0.0
-6828.0,21032.0,25540.0,0.0
-6809.0,20467.0,25414.0,0.0
-6795.0,19931.0,25309.0,0.0
-6796.0,19448.0,25256.0,0.0
-9428.0,26320.0,34965.0,0.0
-9330.0,25405.0,34527.0,0.0
-9344.0,24814.0,34509.0,0.0
-9400.0,24337.0,34640.0,0.0
-9367.0,23644.0,34450.0,0.0
-9395.0,23114.0,34484.0,0.0
-9377.0,22477.0,34345.0,0.0
-9357.0,21851.0,34202.0,0.0
-8645.0,19662.0,31537.0,0.0
-8686.0,19234.0,31622.0,0.0
-8764.0,18892.0,31847.0,0.0
-9168.0,19230.0,33247.0,0.0
-9246.0,18863.0,33463.0,0.0
-9248.0,18347.0,33405.0,0.0
-9214.0,17767.0,33217.0,0.0
-9216.0,17265.0,33158.0,0.0
-7501.0,13647.0,26936.0,0.0
-7682.0,13567.0,27533.0,0.0
-7691.0,13179.0,27512.0,0.0
-7677.0,12756.0,27410.0,0.0
-7646.0,12313.0,27248.0,0.0
-7637.0,11913.0,27165.0,0.0
-7615.0,11497.0,27034.0,0.0
-7600.0,11098.0,26928.0,0.0
-7585.0,10708.0,26827.0,0.0
-7568.0,10317.0,26714.0,0.0
-7546.0,9927.0,26586.0,0.0
-7549.0,9574.0,26545.0,0.0
-7534.0,9204.0,26442.0,0.0
-7512.0,8829.0,26314.0,0.0
-7499.0,8470.0,26217.0,0.0
-7493.0,8125.0,26147.0,0.0
-7480.0,7775.0,26051.0,0.0
-7465.0,7428.0,25954.0,0.0
-7447.0,7083.0,25840.0,0.0
-7451.0,6761.0,25805.0,0.0
-7430.0,6419.0,25678.0,0.0
-7419.0,6093.0,25594.0,0.0
-7404.0,5766.0,25494.0,0.0
-7401.0,5451.0,25433.0,0.0
-7384.0,5130.0,25328.0,0.0
-7371.0,4815.0,25233.0,0.0
-7365.0,4507.0,25161.0,0.0
-7352.0,4198.0,25069.0,0.0
-7347.0,3898.0,25007.0,0.0
-7330.0,3592.0,24896.0,0.0
-7328.0,3298.0,24842.0,0.0
-7320.0,3002.0,24764.0,0.0
-7303.0,2706.0,24658.0,0.0
-7295.0,2416.0,24585.0,0.0
-7279.0,2126.0,24480.0,0.0
-7275.0,1841.0,24415.0,0.0
-7272.0,1560.0,24359.0,0.0
-7266.0,1278.0,24289.0,0.0
-7251.0,998.0,24191.0,0.0
-7229.0,719.0,24070.0,0.0
-7205.0,442.0,23937.0,0.0
-7176.0,169.0,23793.0,0.0
-7200.0,-100.0,23823.0,0.0
-7224.0,-371.0,23851.0,0.0
-7224.0,-642.0,23800.0,0.0
-7223.0,-911.0,23745.0,0.0
-7224.0,-1179.0,23698.0,0.0
-7210.0,-1445.0,23604.0,0.0
-7208.0,-1710.0,23544.0,0.0
-7211.0,-1977.0,23504.0,0.0
-7207.0,-2241.0,23438.0,0.0
-7205.0,-2504.0,23382.0,0.0
-7202.0,-2767.0,23319.0,0.0
-7189.0,-3025.0,23226.0,0.0
-7174.0,-3281.0,23123.0,0.0
-7201.0,-3555.0,23158.0,0.0
-7120.0,-3775.0,22847.0,0.0
-7122.0,-4034.0,22798.0,0.0
-7184.0,-4330.0,22944.0,0.0
-7195.0,-4599.0,22923.0,0.0
-7191.0,-4857.0,22855.0,0.0
-7184.0,-5113.0,22778.0,0.0
-7202.0,-5386.0,22779.0,0.0
-7173.0,-5625.0,22634.0,0.0
-7114.0,-5836.0,22391.0,0.0
-7112.0,-6092.0,22329.0,0.0
-7120.0,-6358.0,22299.0,0.0
-7140.0,-6636.0,22306.0,0.0
-7199.0,-6953.0,22433.0,0.0
-7196.0,-7213.0,22364.0,0.0
-7199.0,-7478.0,22314.0,0.0
-7219.0,-7764.0,22318.0,0.0
-2.0,-3.0,10.0,0.0
-8.0,-10.0,28.0,0.0
-3.0,-4.0,14.0,0.0
-7.0,-9.0,25.0,0.0
-5.0,-6.0,18.0,0.0
-9.0,-12.0,30.0,0.0
-12.0,-15.0,38.0,0.0
-11.0,-16.0,37.0,0.0
-7.0,-10.0,23.0,0.0
-7.0,-10.0,23.0,0.0
-13.0,-21.0,44.0,0.0
-12.0,-19.0,38.0,0.0
-10.0,-16.0,31.0,0.0
-10.0,-17.0,33.0,0.0
-11.0,-19.0,34.0,0.0
-13.0,-22.0,41.0,0.0
-15.0,-27.0,47.0,0.0
-16.0,-28.0,48.0,0.0
-13.0,-25.0,42.0,0.0
-11.0,-21.0,34.0,0.0
-13.0,-25.0,41.0,0.0
-20.0,-38.0,59.0,0.0
-20.0,-39.0,60.0,0.0
-18.0,-37.0,53.0,0.0
-20.0,-41.0,58.0,0.0
-20.0,-42.0,58.0,0.0
-22.0,-47.0,64.0,0.0
-22.0,-49.0,66.0,0.0
-22.0,-50.0,66.0,0.0
-22.0,-53.0,66.0,0.0
-24.0,-56.0,69.0,0.0
-27.0,-64.0,77.0,0.0
-26.0,-61.0,73.0,0.0
-26.0,-65.0,74.0,0.0
-25.0,-63.0,70.0,0.0
-26.0,-68.0,74.0,0.0
-29.0,-74.0,79.0,0.0
-30.0,-81.0,85.0,0.0
-27.0,-75.0,77.0,0.0
-31.0,-85.0,85.0,0.0
-33.0,-93.0,91.0,0.0
-31.0,-88.0,85.0,0.0
-36.0,-104.0,97.0,0.0
-31.0,-94.0,86.0,0.0
-35.0,-105.0,94.0,0.0
-34.0,-102.0,89.0,0.0
-33.0,-103.0,88.0,0.0
-34.0,-108.0,90.0,0.0
-33.0,-104.0,85.0,0.0
-34.0,-113.0,90.0,0.0
-34.0,-111.0,87.0,0.0
