//X,Y,Z,Classification
6432.0,-18531.0,19200.0,0.0
6413.0,-18146.0,19224.0,0.0
6415.0,-17821.0,19307.0,0.0
6414.0,-17493.0,19382.0,0.0
6414.0,-17173.0,19459.0,0.0
6410.0,-16843.0,19521.0,0.0
6415.0,-16543.0,19612.0,0.0
6510.0,-16472.0,19976.0,0.0
6664.0,-16540.0,20523.0,0.0
6775.0,-16494.0,20942.0,0.0
6967.0,-16634.0,21613.0,0.0
581.0,-1362.0,1812.0,0.0
585.0,-1342.0,1828.0,0.0
589.0,-1326.0,1848.0,0.0
8023.0,-17677.0,25233.0,1.0
8098.0,-17478.0,25554.0,1.0
8152.0,-17230.0,25811.0,1.0
8217.0,-17002.0,26100.0,1.0
587.0,-1190.0,1875.0,0.0
577.0,-1144.0,1847.0,0.0
576.0,-1117.0,1850.0,0.0
582.0,-1103.0,1874.0,0.0
592.0,-1098.0,1913.0,0.0
590.0,-1069.0,1911.0,0.0
586.0,-1036.0,1905.0,0.0
0.0,0.0,0.0,0.0
599.0,-1010.0,1961.0,0.0
592.0,-973.0,1942.0,0.0
8481.0,-13576.0,27859.0,1.0
593.0,-926.0,1957.0,0.0
8382.0,-12729.0,27692.0,1.0
571.0,-845.0,1896.0,0.0
598.0,-859.0,1988.0,0.0
8236.0,-11504.0,27441.0,1.0
8239.0,-11176.0,27525.0,1.0
604.0,-796.0,2028.0,0.0
8241.0,-10517.0,27684.0,1.0
604.0,-748.0,2039.0,0.0
600.0,-717.0,2028.0,0.0
8302.0,-9602.0,28116.0,1.0
588.0,-657.0,1999.0,0.0
606.0,-653.0,2068.0,0.0
8258.0,-8569.0,28189.0,1.0
618.0,-616.0,2116.0,0.0
8218.0,-7878.0,28198.0,1.0
609.0,-560.0,2099.0,0.0
612.0,-539.0,2117.0,0.0
603.0,-506.0,2088.0,0.0
605.0,-485.0,2102.0,0.0
606.0,-463.0,2111.0,0.0
610.0,-442.0,2130.0,0.0
610.0,-418.0,2136.0,0.0
7928.0,-5105.0,27766.0,1.0
613.0,-371.0,2156.0,0.0
603.0,-342.0,2127.0,0.0
1.0,-1.0,4.0,0.0
603.0,-293.0,2134.0,0.0
2.0,-1.0,10.0,0.0
1.0,0.0,3.0,0.0
0.0,0.0,0.0,0.0
1.0,0.0,3.0,0.0
6.0,-2.0,25.0,0.0
10.0,-2.0,39.0,0.0
6.0,-1.0,25.0,0.0
9.0,-1.0,36.0,0.0
6.0,-1.0,25.0,0.0
10.0,-1.0,40.0,0.0
5.0,0.0,20.0,0.0
6.0,0.0,24.0,0.0
6.0,0.0,23.0,0.0
7.0,0.0,29.0,0.0
10.0,1.0,39.0,0.0
10.0,1.0,39.0,0.0
11.0,2.0,45.0,0.0
12.0,2.0,47.0,0.0
9.0,2.0,37.0,0.0
12.0,3.0,48.0,0.0
13.0,4.0,52.0,0.0
13.0,4.0,51.0,0.0
17.0,8.0,70.0,0.0
18.0,9.0,73.0,0.0
18.0,10.0,72.0,0.0
16.0,10.0,65.0,0.0
17.0,11.0,69.0,0.0
19.0,14.0,78.0,0.0
21.0,16.0,84.0,0.0
21.0,16.0,85.0,0.0
19.0,16.0,78.0,0.0
23.0,21.0,94.0,0.0
23.0,22.0,93.0,0.0
24.0,23.0,95.0,0.0
25.0,26.0,99.0,0.0
22.0,24.0,92.0,0.0
23.0,26.0,95.0,0.0
22.0,26.0,91.0,0.0
25.0,31.0,99.0,0.0
27.0,33.0,106.0,0.0
25.0,33.0,100.0,0.0
24.0,33.0,97.0,0.0
24.0,34.0,96.0,0.0
19.0,30.0,81.0,0.0
21.0,34.0,89.0,0.0
23.0,37.0,94.0,0.0
19.0,33.0,81.0,0.0
19.0,33.0,80.0,0.0
18.0,34.0,78.0,0.0
19.0,36.0,83.0,0.0
19.0,36.0,80.0,0.0
18.0,36.0,77.0,0.0
18.0,37.0,78.0,0.0
18.0,39.0,79.0,0.0
18.0,41.0,78.0,0.0
17.0,41.0,77.0,0.0
16.0,39.0,71.0,0.0
18.0,45.0,80.0,0.0
19.0,48.0,83.0,0.0
17.0,43.0,74.0,0.0
18.0,49.0,82.0,0.0
19.0,51.0,84.0,0.0
16.0,47.0,74.0,0.0
17.0,50.0,77.0,0.0
18.0,53.0,81.0,0.0
16.0,51.0,74.0,0.0
20.0,63.0,89.0,0.0
17.0,57.0,79.0,0.0
18.0,60.0,82.0,0.0
20.0,67.0,89.0,0.0
17.0,62.0,82.0,0.0
18.0,65.0,83.0,0.0
20.0,71.0,88.0,0.0
19.0,71.0,86.0,0.0
20.0,78.0,93.0,0.0
22.0,85.0,99.0,0.0
21.0,83.0,95.0,0.0
20.0,83.0,93.0,0.0
22.0,94.0,102.0,0.0
22.0,93.0,100.0,0.0
22.0,98.0,102.0,0.0
22.0,101.0,103.0,0.0
22.0,103.0,104.0,0.0
22.0,107.0,105.0,0.0
22.0,111.0,107.0,0.0
21.0,111.0,104.0,0.0
21.0,114.0,105.0,0.0
37.0,-278.0,80.0,0.0
38.0,-278.0,83.0,0.0
39.0,-276.0,86.0,0.0
39.0,-272.0,88.0,0.0
41.0,-278.0,93.0,0.0
40.0,-267.0,93.0,0.0
42.0,-275.0,99.0,0.0
42.0,-272.0,100.0,0.0
44.0,-276.0,105.0,0.0
44.0,-271.0,107.0,0.0
44.0,-268.0,109.0,0.0
46.0,-273.0,115.0,0.0
46.0,-269.0,117.0,0.0
46.0,-264.0,118.0,0.0
48.0,-268.0,123.0,0.0
50.0,-274.0,130.0,0.0
50.0,-269.0,131.0,0.0
50.0,-265.0,132.0,0.0
51.0,-262.0,134.0,0.0
52.0,-264.0,139.0,0.0
51.0,-252.0,136.0,0.0
56.0,-273.0,152.0,0.0
58.0,-280.0,159.0,0.0
55.0,-262.0,153.0,0.0
53.0,-246.0,148.0,0.0
51.0,-234.0,143.0,0.0
49.0,-222.0,139.0,0.0
46.0,-201.0,130.0,0.0
46.0,-196.0,130.0,0.0
47.0,-201.0,136.0,0.0
47.0,-197.0,136.0,0.0
42.0,-172.0,122.0,0.0
40.0,-162.0,118.0,0.0
40.0,-156.0,116.0,0.0
36.0,-140.0,106.0,0.0
36.0,-139.0,108.0,0.0
32.0,-122.0,97.0,0.0
31.0,-116.0,93.0,0.0
32.0,-118.0,98.0,0.0
31.0,-112.0,95.0,0.0
31.0,-107.0,93.0,0.0
25.0,-88.0,78.0,0.0
28.0,-93.0,86.0,0.0
24.0,-81.0,75.0,0.0
26.0,-86.0,82.0,0.0
25.0,-80.0,78.0,0.0
21.0,-68.0,67.0,0.0
20.0,-63.0,64.0,0.0
6126.0,-18455.0,19178.0,0.0
6128.0,-18126.0,19259.0,0.0
6115.0,-17756.0,19292.0,0.0
6129.0,-17469.0,19408.0,0.0
6106.0,-17079.0,19407.0,0.0
6127.0,-16818.0,19545.0,0.0
6127.0,-16503.0,19617.0,0.0
6233.0,-16470.0,20027.0,0.0
6413.0,-16622.0,20678.0,0.0
6487.0,-16487.0,20987.0,0.0
6677.0,-16642.0,21678.0,0.0
7536.0,-18414.0,24550.0,1.0
558.0,-1335.0,1822.0,0.0
552.0,-1293.0,1807.0,0.0
551.0,-1266.0,1813.0,0.0
557.0,-1253.0,1836.0,0.0
555.0,-1223.0,1837.0,0.0
562.0,-1212.0,1866.0,0.0
7914.0,-16719.0,26364.0,1.0
567.0,-1171.0,1894.0,0.0
568.0,-1146.0,1902.0,0.0
574.0,-1134.0,1929.0,0.0
0.0,0.0,0.0,0.0
8117.0,-15321.0,27452.0,1.0
573.0,-1055.0,1941.0,0.0
584.0,-1049.0,1983.0,0.0
565.0,-991.0,1926.0,0.0
585.0,-1000.0,2000.0,0.0
573.0,-956.0,1965.0,0.0
8167.0,-13281.0,28099.0,1.0
562.0,-889.0,1939.0,0.0
8080.0,-12449.0,27952.0,1.0
586.0,-877.0,2031.0,0.0
586.0,-851.0,2035.0,0.0
7958.0,-11254.0,27756.0,1.0
577.0,-790.0,2015.0,0.0
0.0,0.0,0.0,0.0
583.0,-750.0,2048.0,0.0
588.0,-732.0,2069.0,0.0
585.0,-705.0,2067.0,0.0
0.0,0.0,0.0,0.0
588.0,-659.0,2087.0,0.0
592.0,-640.0,2108.0,0.0
589.0,-612.0,2103.0,0.0
597.0,-596.0,2136.0,0.0
582.0,-557.0,2088.0,0.0
578.0,-529.0,2079.0,0.0
589.0,-515.0,2122.0,0.0
587.0,-489.0,2121.0,0.0
591.0,-470.0,2142.0,0.0
598.0,-450.0,2173.0,0.0
581.0,-414.0,2115.0,0.0
7630.0,-5129.0,27880.0,1.0
7592.0,-4792.0,27810.0,1.0
1.0,-1.0,5.0,0.0
0.0,0.0,0.0,0.0
0.0,0.0,0.0,0.0
3.0,-2.0,14.0,0.0
4.0,-2.0,17.0,0.0
0.0,0.0,0.0,0.0
2.0,-1.0,9.0,0.0
1.0,-1.0,4.0,0.0
1.0,-1.0,4.0,0.0
4.0,-1.0,16.0,0.0
9.0,-2.0,34.0,0.0
8.0,-1.0,33.0,0.0
6.0,-1.0,24.0,0.0
13.0,0.0,50.0,0.0
9.0,0.0,36.0,0.0
9.0,0.0,36.0,0.0
9.0,0.0,36.0,0.0
4.0,0.0,18.0,0.0
13.0,2.0,50.0,0.0
22.0,4.0,85.0,0.0
17.0,4.0,68.0,0.0
11.0,2.0,44.0,0.0
12.0,3.0,48.0,0.0
15.0,5.0,59.0,0.0
15.0,6.0,61.0,0.0
14.0,7.0,55.0,0.0
18.0,9.0,72.0,0.0
17.0,9.0,68.0,0.0
20.0,12.0,79.0,0.0
20.0,13.0,82.0,0.0
21.0,15.0,84.0,0.0
18.0,13.0,74.0,0.0
22.0,18.0,89.0,0.0
24.0,21.0,98.0,0.0
23.0,21.0,94.0,0.0
24.0,23.0,98.0,0.0
23.0,23.0,94.0,0.0
25.0,26.0,101.0,0.0
23.0,25.0,93.0,0.0
25.0,28.0,102.0,0.0
25.0,30.0,102.0,0.0
23.0,30.0,97.0,0.0
25.0,32.0,102.0,0.0
25.0,34.0,103.0,0.0
26.0,38.0,110.0,0.0
25.0,37.0,106.0,0.0
23.0,36.0,95.0,0.0
25.0,40.0,104.0,0.0
20.0,34.0,86.0,0.0
20.0,34.0,84.0,0.0
21.0,38.0,91.0,0.0
20.0,37.0,87.0,0.0
19.0,36.0,80.0,0.0
17.0,34.0,72.0,0.0
21.0,43.0,90.0,0.0
19.0,39.0,80.0,0.0
20.0,44.0,89.0,0.0
19.0,43.0,84.0,0.0
18.0,42.0,79.0,0.0
19.0,46.0,83.0,0.0
16.0,40.0,72.0,0.0
19.0,48.0,84.0,0.0
18.0,47.0,81.0,0.0
18.0,50.0,82.0,0.0
17.0,47.0,76.0,0.0
19.0,54.0,86.0,0.0
19.0,54.0,85.0,0.0
20.0,61.0,91.0,0.0
20.0,61.0,90.0,0.0
19.0,60.0,87.0,0.0
20.0,64.0,90.0,0.0
20.0,68.0,94.0,0.0
19.0,66.0,88.0,0.0
20.0,73.0,95.0,0.0
21.0,76.0,98.0,0.0
21.0,79.0,99.0,0.0
22.0,87.0,106.0,0.0
22.0,87.0,104.0,0.0
21.0,84.0,98.0,0.0
21.0,88.0,100.0,0.0
20.0,88.0,98.0,0.0
21.0,92.0,100.0,0.0
21.0,96.0,103.0,0.0
23.0,107.0,112.0,0.0
21.0,100.0,103.0,0.0
21.0,103.0,104.0,0.0
21.0,107.0,105.0,0.0
22.0,113.0,109.0,0.0
21.0,113.0,107.0,0.0
22.0,119.0,110.0,0.0
35.0,-276.0,80.0,0.0
36.0,-277.0,83.0,0.0
37.0,-281.0,88.0,0.0
37.0,-274.0,89.0,0.0
38.0,-275.0,92.0,0.0
38.0,-271.0,94.0,0.0
39.0,-271.0,97.0,0.0
41.0,-276.0,103.0,0.0
42.0,-274.0,105.0,0.0
42.0,-276.0,109.0,0.0
42.0,-273.0,112.0,0.0
44.0,-279.0,117.0,0.0
44.0,-274.0,120.0,0.0
45.0,-271.0,122.0,0.0
46.0,-276.0,127.0,0.0
46.0,-270.0,128.0,0.0
47.0,-267.0,130.0,0.0
48.0,-271.0,136.0,0.0
48.0,-266.0,137.0,0.0
49.0,-262.0,139.0,0.0
51.0,-267.0,146.0,0.0
56.0,-287.0,160.0,0.0
54.0,-276.0,158.0,0.0
51.0,-253.0,148.0,0.0
51.0,-250.0,151.0,0.0
49.0,-232.0,142.0,0.0
46.0,-216.0,136.0,0.0
45.0,-207.0,134.0,0.0
44.0,-200.0,133.0,0.0
44.0,-196.0,133.0,0.0
39.0,-173.0,120.0,0.0
41.0,-176.0,125.0,0.0
36.0,-152.0,111.0,0.0
39.0,-161.0,120.0,0.0
36.0,-146.0,112.0,0.0
37.0,-149.0,116.0,0.0
30.0,-119.0,94.0,0.0
33.0,-125.0,102.0,0.0
32.0,-119.0,99.0,0.0
29.0,-107.0,92.0,0.0
27.0,-97.0,85.0,0.0
27.0,-98.0,87.0,0.0
32.0,-111.0,102.0,0.0
29.0,-99.0,92.0,0.0
28.0,-95.0,90.0,0.0
25.0,-83.0,81.0,0.0
23.0,-75.0,75.0,0.0
5831.0,-18747.0,19108.0,0.0
5832.0,-18409.0,19184.0,0.0
5832.0,-18071.0,19255.0,0.0
5834.0,-17743.0,19330.0,0.0
5837.0,-17423.0,19411.0,0.0
5821.0,-17051.0,19425.0,0.0
5833.0,-16760.0,19529.0,0.0
5853.0,-16502.0,19666.0,0.0
5949.0,-16450.0,20054.0,0.0
6121.0,-16603.0,20706.0,0.0
6213.0,-16522.0,21083.0,0.0
6381.0,-16637.0,21724.0,0.0
531.0,-1357.0,1814.0,0.0
532.0,-1332.0,1823.0,0.0
530.0,-1301.0,1823.0,0.0
528.0,-1269.0,1820.0,0.0
7438.0,-17512.0,25721.0,1.0
540.0,-1243.0,1871.0,0.0
537.0,-1212.0,1870.0,0.0
548.0,-1207.0,1909.0,0.0
552.0,-1190.0,1929.0,0.0
526.0,-1110.0,1845.0,0.0
560.0,-1156.0,1972.0,0.0
537.0,-1082.0,1892.0,0.0
538.0,-1061.0,1906.0,0.0
550.0,-1058.0,1952.0,0.0
550.0,-1034.0,1959.0,0.0
550.0,-1008.0,1963.0,0.0
542.0,-970.0,1942.0,0.0
554.0,-965.0,1989.0,0.0
545.0,-925.0,1961.0,0.0
566.0,-936.0,2046.0,0.0
553.0,-890.0,2001.0,0.0
539.0,-843.0,1955.0,0.0
526.0,-798.0,1912.0,0.0
554.0,-818.0,2022.0,0.0
560.0,-802.0,2049.0,0.0
557.0,-773.0,2041.0,0.0
535.0,-720.0,1969.0,0.0
561.0,-730.0,2068.0,0.0
7581.0,-9546.0,28013.0,1.0
533.0,-647.0,1975.0,0.0
570.0,-667.0,2115.0,0.0
7657.0,-8654.0,28513.0,1.0
565.0,-613.0,2107.0,0.0
7604.0,-7942.0,28459.0,1.0
570.0,-569.0,2137.0,0.0
569.0,-544.0,2138.0,0.0
562.0,-514.0,2118.0,0.0
564.0,-492.0,2133.0,0.0
571.0,-474.0,2164.0,0.0
566.0,-446.0,2148.0,0.0
558.0,-417.0,2126.0,0.0
568.0,-399.0,2167.0,0.0
7.0,-4.0,26.0,0.0
7280.0,-4496.0,27945.0,1.0
4.0,-2.0,18.0,0.0
9.0,-5.0,34.0,0.0
569.0,-278.0,2198.0,0.0
0.0,0.0,0.0,0.0
4.0,-2.0,18.0,0.0
2.0,0.0,8.0,0.0
6.0,-2.0,24.0,0.0
7.0,-2.0,28.0,0.0
8.0,-1.0,32.0,0.0
8.0,-1.0,31.0,0.0
10.0,-1.0,40.0,0.0
10.0,0.0,41.0,0.0
10.0,-1.0,38.0,0.0
10.0,0.0,39.0,0.0
7.0,0.0,29.0,0.0
10.0,1.0,41.0,0.0
12.0,1.0,48.0,0.0
15.0,2.0,58.0,0.0
15.0,3.0,60.0,0.0
13.0,3.0,51.0,0.0
14.0,3.0,56.0,0.0
16.0,5.0,63.0,0.0
14.0,5.0,54.0,0.0
20.0,8.0,77.0,0.0
20.0,9.0,78.0,0.0
18.0,9.0,72.0,0.0
19.0,10.0,75.0,0.0
21.0,12.0,82.0,0.0
19.0,12.0,77.0,0.0
22.0,17.0,94.0,0.0
20.0,16.0,84.0,0.0
23.0,18.0,95.0,0.0
21.0,19.0,89.0,0.0
23.0,21.0,96.0,0.0
24.0,24.0,102.0,0.0
24.0,24.0,100.0,0.0
27.0,30.0,116.0,0.0
25.0,28.0,105.0,0.0
26.0,31.0,112.0,0.0
23.0,29.0,98.0,0.0
22.0,30.0,97.0,0.0
26.0,35.0,111.0,0.0
24.0,33.0,102.0,0.0
23.0,35.0,100.0,0.0
23.0,36.0,102.0,0.0
22.0,35.0,96.0,0.0
24.0,39.0,103.0,0.0
23.0,40.0,103.0,0.0
21.0,39.0,95.0,0.0
22.0,41.0,98.0,0.0
20.0,38.0,88.0,0.0
22.0,43.0,98.0,0.0
19.0,40.0,88.0,0.0
20.0,43.0,93.0,0.0
18.0,40.0,84.0,0.0
18.0,41.0,82.0,0.0
17.0,39.0,76.0,0.0
18.0,42.0,78.0,0.0
18.0,46.0,83.0,0.0
20.0,50.0,91.0,0.0
19.0,50.0,87.0,0.0
18.0,50.0,86.0,0.0
16.0,48.0,79.0,0.0
19.0,54.0,88.0,0.0
19.0,57.0,91.0,0.0
20.0,61.0,93.0,0.0
19.0,60.0,90.0,0.0
19.0,61.0,91.0,0.0
19.0,65.0,92.0,0.0
19.0,64.0,90.0,0.0
19.0,65.0,90.0,0.0
20.0,72.0,97.0,0.0
19.0,73.0,95.0,0.0
21.0,79.0,101.0,0.0
20.0,81.0,101.0,0.0
21.0,83.0,102.0,0.0
20.0,85.0,102.0,0.0
21.0,88.0,103.0,0.0
21.0,92.0,105.0,0.0
20.0,88.0,99.0,0.0
21.0,99.0,109.0,0.0
21.0,100.0,108.0,0.0
22.0,108.0,113.0,0.0
21.0,107.0,111.0,0.0
21.0,107.0,108.0,0.0
21.0,114.0,112.0,0.0
21.0,117.0,113.0,0.0
21.0,121.0,114.0,0.0
21.0,120.0,111.0,0.0
29.0,-278.0,81.0,0.0
30.0,-268.0,81.0,0.0
31.0,-275.0,87.0,0.0
32.0,-280.0,92.0,0.0
33.0,-279.0,95.0,0.0
33.0,-275.0,97.0,0.0
34.0,-273.0,99.0,0.0
35.0,-273.0,103.0,0.0
36.0,-276.0,107.0,0.0
36.0,-270.0,109.0,0.0
37.0,-273.0,113.0,0.0
38.0,-271.0,116.0,0.0
38.0,-266.0,118.0,0.0
40.0,-273.0,123.0,0.0
40.0,-268.0,125.0,0.0
42.0,-272.0,130.0,0.0
42.0,-270.0,133.0,0.0
43.0,-266.0,134.0,0.0
43.0,-261.0,136.0,0.0
43.0,-259.0,138.0,0.0
48.0,-283.0,155.0,0.0
49.0,-281.0,158.0,0.0
46.0,-265.0,153.0,0.0
44.0,-247.0,146.0,0.0
42.0,-233.0,141.0,0.0
41.0,-225.0,140.0,0.0
41.0,-215.0,137.0,0.0
39.0,-202.0,132.0,0.0
37.0,-186.0,124.0,0.0
37.0,-188.0,129.0,0.0
34.0,-168.0,117.0,0.0
33.0,-160.0,115.0,0.0
34.0,-161.0,118.0,0.0
33.0,-152.0,113.0,0.0
33.0,-147.0,112.0,0.0
29.0,-130.0,102.0,0.0
26.0,-112.0,89.0,0.0
27.0,-113.0,93.0,0.0
28.0,-118.0,98.0,0.0
24.0,-101.0,87.0,0.0
24.0,-96.0,85.0,0.0
25.0,-99.0,90.0,0.0
28.0,-109.0,99.0,0.0
24.0,-94.0,88.0,0.0
19.0,-73.0,70.0,0.0
18.0,-65.0,64.0,0.0
18.0,-63.0,63.0,0.0
18.0,-63.0,65.0,0.0
5249.0,-18323.0,19196.0,0.0
5253.0,-17991.0,19272.0,0.0
5255.0,-17655.0,19337.0,0.0
5262.0,-17343.0,19422.0,0.0
5268.0,-17033.0,19504.0,0.0
5271.0,-16714.0,19573.0,0.0
5275.0,-16404.0,19646.0,0.0
5378.0,-16398.0,20087.0,0.0
5525.0,-16516.0,20696.0,0.0
5634.0,-16511.0,21167.0,0.0
5812.0,-16693.0,21897.0,0.0
491.0,-1379.0,1851.0,0.0
473.0,-1304.0,1792.0,0.0
485.0,-1309.0,1843.0,0.0
6723.0,-17782.0,25611.0,1.0
483.0,-1249.0,1845.0,0.0
6831.0,-17317.0,26164.0,1.0
6851.0,-16994.0,26308.0,1.0
6912.0,-16777.0,26617.0,1.0
496.0,-1177.0,1914.0,0.0
485.0,-1125.0,1877.0,0.0
499.0,-1130.0,1935.0,0.0
7083.0,-15702.0,27562.0,1.0
7117.0,-15411.0,27766.0,1.0
510.0,-1078.0,1996.0,0.0
499.0,-1030.0,1958.0,0.0
510.0,-1026.0,2004.0,0.0
517.0,-1015.0,2039.0,0.0
479.0,-916.0,1893.0,0.0
514.0,-956.0,2034.0,0.0
497.0,-901.0,1973.0,0.0
7078.0,-12496.0,28183.0,1.0
7033.0,-12074.0,28073.0,1.0
508.0,-847.0,2033.0,0.0
515.0,-834.0,2067.0,0.0
6834.0,-10744.0,27485.0,1.0
0.0,0.0,0.0,0.0
513.0,-757.0,2073.0,0.0
522.0,-744.0,2112.0,0.0
500.0,-689.0,2030.0,0.0
6909.0,-9219.0,28135.0,1.0
6862.0,-8832.0,28011.0,1.0
523.0,-648.0,2141.0,0.0
508.0,-605.0,2083.0,0.0
525.0,-601.0,2161.0,0.0
515.0,-565.0,2121.0,0.0
6933.0,-7301.0,28657.0,1.0
6757.0,-6800.0,27999.0,1.0
513.0,-492.0,2131.0,0.0
518.0,-474.0,2157.0,0.0
509.0,-440.0,2123.0,0.0
517.0,-424.0,2163.0,0.0
512.0,-396.0,2150.0,0.0
517.0,-376.0,2178.0,0.0
516.0,-351.0,2175.0,0.0
517.0,-327.0,2186.0,0.0
6555.0,-3845.0,27789.0,1.0
2.0,-2.0,9.0,0.0
3.0,-1.0,12.0,0.0
3.0,-1.0,12.0,0.0
3.0,-1.0,11.0,0.0
7.0,-2.0,27.0,0.0
9.0,-3.0,38.0,0.0
11.0,-2.0,45.0,0.0
10.0,-2.0,43.0,0.0
11.0,-1.0,45.0,0.0
5.0,0.0,22.0,0.0
7.0,0.0,27.0,0.0
8.0,0.0,35.0,0.0
7.0,0.0,31.0,0.0
8.0,0.0,38.0,0.0
7.0,0.0,27.0,0.0
9.0,0.0,42.0,0.0
9.0,1.0,42.0,0.0
11.0,2.0,47.0,0.0
11.0,3.0,49.0,0.0
14.0,5.0,64.0,0.0
14.0,6.0,65.0,0.0
13.0,5.0,56.0,0.0
15.0,7.0,68.0,0.0
17.0,9.0,76.0,0.0
16.0,9.0,70.0,0.0
19.0,12.0,83.0,0.0
18.0,12.0,81.0,0.0
17.0,13.0,77.0,0.0
16.0,14.0,74.0,0.0
19.0,18.0,89.0,0.0
22.0,21.0,101.0,0.0
23.0,22.0,104.0,0.0
21.0,23.0,98.0,0.0
20.0,22.0,92.0,0.0
20.0,23.0,93.0,0.0
20.0,25.0,94.0,0.0
22.0,28.0,105.0,0.0
21.0,29.0,101.0,0.0
25.0,36.0,119.0,0.0
24.0,35.0,112.0,0.0
20.0,31.0,94.0,0.0
20.0,33.0,98.0,0.0
20.0,33.0,96.0,0.0
21.0,37.0,102.0,0.0
23.0,42.0,112.0,0.0
19.0,37.0,94.0,0.0
21.0,41.0,102.0,0.0
21.0,41.0,102.0,0.0
20.0,42.0,98.0,0.0
17.0,38.0,86.0,0.0
17.0,39.0,87.0,0.0
18.0,44.0,92.0,0.0
17.0,39.0,81.0,0.0
17.0,44.0,89.0,0.0
17.0,45.0,90.0,0.0
16.0,43.0,83.0,0.0
16.0,42.0,79.0,0.0
16.0,45.0,81.0,0.0
16.0,48.0,85.0,0.0
16.0,50.0,86.0,0.0
16.0,50.0,84.0,0.0
17.0,56.0,92.0,0.0
16.0,50.0,80.0,0.0
18.0,61.0,94.0,0.0
17.0,61.0,92.0,0.0
16.0,59.0,88.0,0.0
17.0,62.0,90.0,0.0
17.0,65.0,92.0,0.0
17.0,69.0,95.0,0.0
16.0,66.0,89.0,0.0
18.0,73.0,97.0,0.0
18.0,75.0,97.0,0.0
17.0,75.0,96.0,0.0
19.0,83.0,103.0,0.0
18.0,81.0,98.0,0.0
18.0,84.0,99.0,0.0
18.0,87.0,102.0,0.0
17.0,91.0,104.0,0.0
18.0,96.0,106.0,0.0
19.0,103.0,111.0,0.0
18.0,103.0,110.0,0.0
18.0,107.0,111.0,0.0
18.0,107.0,108.0,0.0
18.0,113.0,113.0,0.0
18.0,113.0,110.0,0.0
18.0,116.0,110.0,0.0
18.0,120.0,112.0,0.0
24.0,-276.0,82.0,0.0
24.0,-270.0,83.0,0.0
26.0,-276.0,89.0,0.0
25.0,-267.0,89.0,0.0
27.0,-271.0,93.0,0.0
28.0,-270.0,96.0,0.0
28.0,-266.0,98.0,0.0
30.0,-276.0,105.0,0.0
30.0,-269.0,106.0,0.0
31.0,-273.0,111.0,0.0
31.0,-270.0,113.0,0.0
32.0,-264.0,113.0,0.0
33.0,-269.0,120.0,0.0
33.0,-265.0,121.0,0.0
35.0,-271.0,127.0,0.0
35.0,-266.0,128.0,0.0
35.0,-263.0,131.0,0.0
37.0,-267.0,137.0,0.0
36.0,-257.0,135.0,0.0
39.0,-272.0,146.0,0.0
42.0,-280.0,155.0,0.0
41.0,-272.0,154.0,0.0
40.0,-262.0,152.0,0.0
38.0,-238.0,142.0,0.0
38.0,-235.0,143.0,0.0
35.0,-215.0,134.0,0.0
35.0,-208.0,133.0,0.0
33.0,-194.0,127.0,0.0
33.0,-191.0,128.0,0.0
31.0,-177.0,121.0,0.0
31.0,-172.0,121.0,0.0
30.0,-163.0,117.0,0.0
28.0,-151.0,111.0,0.0
27.0,-143.0,108.0,0.0
27.0,-139.0,107.0,0.0
24.0,-122.0,96.0,0.0
24.0,-117.0,94.0,0.0
21.0,-102.0,84.0,0.0
22.0,-106.0,89.0,0.0
22.0,-99.0,86.0,0.0
22.0,-98.0,86.0,0.0
19.0,-84.0,76.0,0.0
20.0,-87.0,81.0,0.0
18.0,-76.0,71.0,0.0
16.0,-70.0,67.0,0.0
19.0,-81.0,80.0,0.0
17.0,-69.0,70.0,0.0
4665.0,-18568.0,19126.0,0.0
4675.0,-18250.0,19216.0,0.0
4673.0,-17887.0,19255.0,0.0
4687.0,-17591.0,19361.0,0.0
4688.0,-17251.0,19411.0,0.0
4703.0,-16969.0,19523.0,0.0
4709.0,-16654.0,19594.0,0.0
4723.0,-16373.0,19699.0,0.0
4847.0,-16469.0,20266.0,0.0
4948.0,-16475.0,20737.0,0.0
5072.0,-16546.0,21306.0,0.0
5222.0,-16692.0,21992.0,0.0
417.0,-1303.0,1757.0,0.0
437.0,-1341.0,1850.0,0.0
423.0,-1269.0,1792.0,0.0
6028.0,-17716.0,25619.0,1.0
435.0,-1252.0,1854.0,0.0
435.0,-1222.0,1855.0,0.0
0.0,0.0,0.0,0.0
6236.0,-16798.0,26750.0,1.0
452.0,-1189.0,1942.0,0.0
0.0,0.0,0.0,0.0
6357.0,-15993.0,27456.0,1.0
6365.0,-15646.0,27559.0,1.0
441.0,-1060.0,1917.0,0.0
443.0,-1035.0,1923.0,0.0
454.0,-1036.0,1977.0,0.0
453.0,-1010.0,1980.0,0.0
6484.0,-14099.0,28399.0,1.0
0.0,0.0,0.0,0.0
453.0,-934.0,1992.0,0.0
6355.0,-12766.0,28023.0,1.0
453.0,-883.0,1999.0,0.0
6265.0,-11908.0,27757.0,1.0
455.0,-840.0,2022.0,0.0
461.0,-825.0,2051.0,0.0
468.0,-814.0,2089.0,0.0
446.0,-750.0,1991.0,0.0
6125.0,-10009.0,27456.0,1.0
474.0,-749.0,2131.0,0.0
451.0,-688.0,2031.0,0.0
463.0,-684.0,2092.0,0.0
473.0,-673.0,2140.0,0.0
466.0,-640.0,2118.0,0.0
6262.0,-8274.0,28479.0,1.0
6317.0,-8019.0,28794.0,1.0
472.0,-574.0,2157.0,0.0
460.0,-536.0,2109.0,0.0
467.0,-519.0,2141.0,0.0
5990.0,-6370.0,27576.0,1.0
6061.0,-6136.0,27976.0,1.0
461.0,-443.0,2132.0,0.0
6076.0,-5526.0,28183.0,1.0
471.0,-404.0,2188.0,0.0
464.0,-374.0,2162.0,0.0
5973.0,-4511.0,27926.0,1.0
4.0,-2.0,16.0,0.0
3.0,-3.0,18.0,0.0
5.0,-3.0,23.0,0.0
3.0,-1.0,13.0,0.0
3.0,-2.0,14.0,0.0
1.0,-1.0,4.0,0.0
4.0,-1.0,16.0,0.0
1.0,-1.0,4.0,0.0
7.0,-2.0,32.0,0.0
6.0,-2.0,28.0,0.0
2.0,-1.0,9.0,0.0
6.0,-1.0,29.0,0.0
5.0,-1.0,23.0,0.0
5.0,0.0,22.0,0.0
7.0,0.0,38.0,0.0
5.0,0.0,23.0,0.0
6.0,0.0,30.0,0.0
11.0,1.0,50.0,0.0
12.0,2.0,58.0,0.0
7.0,2.0,32.0,0.0
10.0,3.0,49.0,0.0
14.0,6.0,69.0,0.0
13.0,5.0,62.0,0.0
11.0,5.0,53.0,0.0
16.0,9.0,79.0,0.0
15.0,9.0,76.0,0.0
15.0,9.0,75.0,0.0
16.0,11.0,80.0,0.0
15.0,11.0,75.0,0.0
17.0,15.0,90.0,0.0
15.0,14.0,78.0,0.0
17.0,16.0,85.0,0.0
19.0,20.0,97.0,0.0
17.0,19.0,85.0,0.0
16.0,18.0,82.0,0.0
17.0,21.0,91.0,0.0
18.0,24.0,94.0,0.0
20.0,27.0,102.0,0.0
19.0,27.0,100.0,0.0
20.0,30.0,104.0,0.0
20.0,31.0,104.0,0.0
19.0,31.0,101.0,0.0
20.0,35.0,109.0,0.0
19.0,35.0,106.0,0.0
19.0,35.0,100.0,0.0
19.0,36.0,100.0,0.0
19.0,39.0,105.0,0.0
16.0,33.0,85.0,0.0
16.0,34.0,85.0,0.0
16.0,38.0,91.0,0.0
13.0,32.0,75.0,0.0
16.0,39.0,90.0,0.0
16.0,41.0,90.0,0.0
15.0,40.0,87.0,0.0
15.0,42.0,88.0,0.0
14.0,38.0,78.0,0.0
15.0,42.0,84.0,0.0
15.0,43.0,82.0,0.0
12.0,39.0,73.0,0.0
14.0,44.0,81.0,0.0
14.0,47.0,85.0,0.0
14.0,49.0,85.0,0.0
14.0,49.0,82.0,0.0
14.0,52.0,86.0,0.0
14.0,50.0,80.0,0.0
14.0,54.0,86.0,0.0
14.0,57.0,88.0,0.0
14.0,60.0,88.0,0.0
14.0,60.0,88.0,0.0
14.0,61.0,88.0,0.0
13.0,62.0,85.0,0.0
15.0,68.0,92.0,0.0
15.0,71.0,96.0,0.0
15.0,75.0,98.0,0.0
15.0,79.0,101.0,0.0
15.0,80.0,100.0,0.0
14.0,79.0,97.0,0.0
15.0,86.0,102.0,0.0
15.0,87.0,101.0,0.0
14.0,87.0,99.0,0.0
16.0,95.0,105.0,0.0
15.0,99.0,107.0,0.0
15.0,98.0,105.0,0.0
14.0,102.0,106.0,0.0
14.0,105.0,107.0,0.0
15.0,109.0,109.0,0.0
15.0,112.0,109.0,0.0
14.0,108.0,103.0,0.0
15.0,118.0,111.0,0.0
23.0,-285.0,86.0,0.0
23.0,-276.0,86.0,0.0
24.0,-281.0,91.0,0.0
24.0,-277.0,93.0,0.0
25.0,-278.0,96.0,0.0
25.0,-275.0,99.0,0.0
27.0,-281.0,104.0,0.0
27.0,-281.0,108.0,0.0
28.0,-274.0,108.0,0.0
29.0,-279.0,114.0,0.0
29.0,-276.0,116.0,0.0
31.0,-281.0,122.0,0.0
30.0,-274.0,122.0,0.0
31.0,-272.0,125.0,0.0
31.0,-267.0,127.0,0.0
33.0,-271.0,132.0,0.0
34.0,-270.0,135.0,0.0
34.0,-265.0,136.0,0.0
35.0,-267.0,141.0,0.0
38.0,-281.0,152.0,0.0
38.0,-282.0,157.0,0.0
38.0,-272.0,154.0,0.0
37.0,-258.0,150.0,0.0
35.0,-237.0,142.0,0.0
35.0,-233.0,143.0,0.0
34.0,-222.0,139.0,0.0
29.0,-188.0,120.0,0.0
33.0,-205.0,135.0,0.0
31.0,-193.0,130.0,0.0
30.0,-181.0,125.0,0.0
31.0,-183.0,129.0,0.0
28.0,-163.0,118.0,0.0
27.0,-153.0,113.0,0.0
26.0,-141.0,106.0,0.0
26.0,-142.0,110.0,0.0
24.0,-128.0,101.0,0.0
25.0,-131.0,106.0,0.0
23.0,-119.0,98.0,0.0
23.0,-115.0,97.0,0.0
19.0,-93.0,80.0,0.0
22.0,-105.0,93.0,0.0
21.0,-99.0,90.0,0.0
22.0,-100.0,93.0,0.0
18.0,-82.0,78.0,0.0
17.0,-79.0,76.0,0.0
18.0,-77.0,76.0,0.0
4373.0,-18883.0,19074.0,0.0
21.0,-87.0,91.0,0.0
18.0,-76.0,80.0,0.0
4392.0,-17862.0,19273.0,0.0
4400.0,-17540.0,19349.0,0.0
4411.0,-17235.0,19438.0,0.0
4423.0,-16938.0,19532.0,0.0
4425.0,-16606.0,19579.0,0.0
4458.0,-16394.0,19768.0,0.0
4577.0,-16494.0,20340.0,0.0
4658.0,-16445.0,20743.0,0.0
4794.0,-16581.0,21395.0,0.0
4936.0,-16717.0,22069.0,0.0
5513.0,-18285.0,24700.0,1.0
405.0,-1316.0,1821.0,0.0
412.0,-1307.0,1851.0,0.0
5674.0,-17660.0,25586.0,1.0
398.0,-1211.0,1797.0,0.0
0.0,0.0,0.0,0.0
413.0,-1201.0,1871.0,0.0
417.0,-1187.0,1895.0,0.0
5949.0,-16577.0,27108.0,1.0
425.0,-1157.0,1941.0,0.0
412.0,-1096.0,1886.0,0.0
425.0,-1105.0,1950.0,0.0
6065.0,-15392.0,27872.0,1.0
437.0,-1082.0,2012.0,0.0
434.0,-1048.0,2002.0,0.0
433.0,-1020.0,2003.0,0.0
0.0,0.0,0.0,0.0
430.0,-963.0,1999.0,0.0
442.0,-962.0,2054.0,0.0
6069.0,-12880.0,28310.0,1.0
5963.0,-12315.0,27885.0,1.0
430.0,-861.0,2011.0,0.0
5894.0,-11497.0,27678.0,1.0
5808.0,-11002.0,27340.0,1.0
5780.0,-10624.0,27272.0,1.0
438.0,-781.0,2073.0,0.0
5833.0,-10068.0,27644.0,1.0
436.0,-727.0,2070.0,0.0
433.0,-698.0,2060.0,0.0
5944.0,-9272.0,28367.0,1.0
438.0,-659.0,2096.0,0.0
457.0,-661.0,2191.0,0.0
445.0,-620.0,2138.0,0.0
436.0,-584.0,2099.0,0.0
457.0,-587.0,2207.0,0.0
445.0,-548.0,2155.0,0.0
5715.0,-6732.0,27737.0,1.0
5684.0,-6388.0,27655.0,1.0
5729.0,-6129.0,27945.0,1.0
442.0,-449.0,2162.0,0.0
5741.0,-5520.0,28140.0,1.0
450.0,-409.0,2215.0,0.0
5700.0,-4863.0,28088.0,1.0
14.0,-11.0,67.0,0.0
12.0,-9.0,60.0,0.0
10.0,-7.0,50.0,0.0
6.0,-4.0,33.0,0.0
0.0,0.0,1.0,0.0
437.0,-230.0,2189.0,0.0
3.0,-2.0,18.0,0.0
4.0,-2.0,20.0,0.0
3.0,-1.0,17.0,0.0
2.0,-1.0,9.0,0.0
8.0,-2.0,38.0,0.0
10.0,-2.0,51.0,0.0
6.0,-1.0,30.0,0.0
6.0,0.0,31.0,0.0
10.0,0.0,52.0,0.0
9.0,0.0,46.0,0.0
8.0,0.0,44.0,0.0
8.0,1.0,44.0,0.0
11.0,1.0,60.0,0.0
10.0,2.0,50.0,0.0
11.0,2.0,56.0,0.0
12.0,4.0,65.0,0.0
13.0,5.0,67.0,0.0
12.0,5.0,62.0,0.0
13.0,8.0,74.0,0.0
14.0,8.0,76.0,0.0
13.0,8.0,68.0,0.0
12.0,9.0,65.0,0.0
15.0,11.0,80.0,0.0
13.0,12.0,75.0,0.0
17.0,16.0,93.0,0.0
14.0,14.0,78.0,0.0
18.0,19.0,98.0,0.0
17.0,19.0,92.0,0.0
18.0,23.0,103.0,0.0
19.0,24.0,107.0,0.0
18.0,25.0,104.0,0.0
19.0,25.0,102.0,0.0
19.0,28.0,108.0,0.0
19.0,28.0,106.0,0.0
19.0,31.0,108.0,0.0
19.0,31.0,103.0,0.0
18.0,31.0,99.0,0.0
18.0,33.0,102.0,0.0
21.0,41.0,123.0,0.0
18.0,36.0,105.0,0.0
19.0,40.0,111.0,0.0
19.0,40.0,108.0,0.0
19.0,43.0,110.0,0.0
16.0,37.0,93.0,0.0
17.0,42.0,103.0,0.0
17.0,41.0,97.0,0.0
16.0,42.0,95.0,0.0
17.0,44.0,98.0,0.0
17.0,48.0,104.0,0.0
14.0,42.0,89.0,0.0
14.0,43.0,89.0,0.0
14.0,45.0,89.0,0.0
14.0,44.0,83.0,0.0
14.0,47.0,88.0,0.0
16.0,55.0,101.0,0.0
14.0,51.0,91.0,0.0
15.0,54.0,93.0,0.0
14.0,52.0,89.0,0.0
14.0,56.0,92.0,0.0
14.0,56.0,91.0,0.0
13.0,54.0,85.0,0.0
14.0,61.0,93.0,0.0
12.0,56.0,83.0,0.0
14.0,68.0,99.0,0.0
14.0,65.0,93.0,0.0
14.0,72.0,99.0,0.0
14.0,72.0,98.0,0.0
15.0,79.0,105.0,0.0
15.0,80.0,104.0,0.0
14.0,76.0,97.0,0.0
15.0,85.0,105.0,0.0
14.0,87.0,107.0,0.0
15.0,94.0,111.0,0.0
15.0,94.0,110.0,0.0
14.0,89.0,101.0,0.0
14.0,96.0,107.0,0.0
14.0,100.0,109.0,0.0
15.0,107.0,114.0,0.0
13.0,100.0,105.0,0.0
14.0,110.0,112.0,0.0
14.0,117.0,118.0,0.0
14.0,116.0,115.0,0.0
13.0,117.0,113.0,0.0
14.0,124.0,117.0,0.0
17.0,-284.0,86.0,0.0
18.0,-282.0,89.0,0.0
19.0,-283.0,93.0,0.0
20.0,-291.0,98.0,0.0
20.0,-279.0,97.0,0.0
21.0,-287.0,104.0,0.0
21.0,-283.0,106.0,0.0
23.0,-284.0,110.0,0.0
23.0,-282.0,113.0,0.0
24.0,-287.0,118.0,0.0
24.0,-275.0,117.0,0.0
25.0,-281.0,122.0,0.0
26.0,-286.0,128.0,0.0
25.0,-272.0,126.0,0.0
27.0,-279.0,133.0,0.0
28.0,-275.0,134.0,0.0
28.0,-280.0,141.0,0.0
28.0,-275.0,142.0,0.0
31.0,-280.0,148.0,0.0
32.0,-289.0,157.0,0.0
33.0,-289.0,162.0,0.0
32.0,-269.0,155.0,0.0
30.0,-254.0,149.0,0.0
28.0,-232.0,139.0,0.0
27.0,-215.0,133.0,0.0
27.0,-210.0,133.0,0.0
28.0,-212.0,138.0,0.0
28.0,-211.0,140.0,0.0
27.0,-196.0,133.0,0.0
24.0,-174.0,121.0,0.0
26.0,-181.0,128.0,0.0
23.0,-156.0,113.0,0.0
24.0,-158.0,118.0,0.0
24.0,-152.0,116.0,0.0
21.0,-137.0,106.0,0.0
21.0,-131.0,104.0,0.0
20.0,-121.0,98.0,0.0
21.0,-125.0,105.0,0.0
18.0,-104.0,88.0,0.0
18.0,-102.0,89.0,0.0
19.0,-104.0,93.0,0.0
18.0,-100.0,91.0,0.0
20.0,-104.0,96.0,0.0
17.0,-90.0,86.0,0.0
14.0,-71.0,70.0,0.0
16.0,-79.0,78.0,0.0
3799.0,-18794.0,19071.0,0.0
3814.0,-18484.0,19173.0,0.0
3824.0,-18147.0,19241.0,0.0
3830.0,-17807.0,19299.0,0.0
3841.0,-17489.0,19376.0,0.0
3850.0,-17166.0,19444.0,0.0
3864.0,-16871.0,19537.0,0.0
3871.0,-16554.0,19601.0,0.0
3933.0,-16466.0,19936.0,0.0
4019.0,-16478.0,20402.0,0.0
4097.0,-16450.0,20832.0,0.0
4223.0,-16595.0,21498.0,0.0
4333.0,-16668.0,22089.0,0.0
4867.0,-18326.0,24851.0,1.0
363.0,-1337.0,1856.0,0.0
365.0,-1316.0,1870.0,0.0
0.0,0.0,0.0,0.0
5061.0,-17459.0,25997.0,1.0
374.0,-1261.0,1924.0,0.0
5156.0,-17007.0,26567.0,1.0
363.0,-1170.0,1872.0,0.0
361.0,-1140.0,1871.0,0.0
5287.0,-16277.0,27379.0,1.0
5307.0,-15958.0,27530.0,1.0
365.0,-1072.0,1896.0,0.0
366.0,-1048.0,1905.0,0.0
390.0,-1091.0,2034.0,0.0
381.0,-1036.0,1986.0,0.0
389.0,-1034.0,2036.0,0.0
0.0,0.0,0.0,0.0
389.0,-981.0,2043.0,0.0
5427.0,-13342.0,28555.0,1.0
394.0,-941.0,2077.0,0.0
5327.0,-12397.0,28139.0,1.0
385.0,-869.0,2035.0,0.0
5246.0,-11531.0,27824.0,1.0
391.0,-834.0,2079.0,0.0
5171.0,-10705.0,27534.0,1.0
5197.0,-10430.0,27733.0,1.0
396.0,-769.0,2115.0,0.0
5227.0,-9835.0,28015.0,1.0
385.0,-699.0,2066.0,0.0
396.0,-694.0,2128.0,0.0
396.0,-669.0,2134.0,0.0
397.0,-647.0,2146.0,0.0
387.0,-606.0,2094.0,0.0
5339.0,-8066.0,29006.0,1.0
394.0,-570.0,2144.0,0.0
399.0,-553.0,2178.0,0.0
5098.0,-6767.0,27889.0,1.0
5085.0,-6440.0,27885.0,1.0
5110.0,-6163.0,28096.0,1.0
398.0,-456.0,2192.0,0.0
393.0,-427.0,2174.0,0.0
397.0,-407.0,2200.0,0.0
395.0,-381.0,2195.0,0.0
5026.0,-4535.0,27992.0,1.0
386.0,-325.0,2156.0,0.0
4.0,-3.0,25.0,0.0
396.0,-285.0,2220.0,0.0
4.0,-3.0,25.0,0.0
0.0,0.0,2.0,0.0
4804.0,-2572.0,27210.0,1.0
2.0,0.0,7.0,0.0
10.0,-4.0,57.0,0.0
11.0,-4.0,61.0,0.0
12.0,-4.0,69.0,0.0
14.0,-3.0,80.0,0.0
10.0,-1.0,59.0,0.0
11.0,-1.0,68.0,0.0
12.0,0.0,71.0,0.0
9.0,0.0,53.0,0.0
9.0,0.0,56.0,0.0
11.0,1.0,63.0,0.0
11.0,2.0,68.0,0.0
12.0,2.0,70.0,0.0
12.0,4.0,72.0,0.0
8.0,3.0,48.0,0.0
11.0,5.0,63.0,0.0
14.0,7.0,82.0,0.0
14.0,8.0,82.0,0.0
13.0,8.0,80.0,0.0
14.0,10.0,85.0,0.0
15.0,13.0,94.0,0.0
17.0,15.0,104.0,0.0
16.0,16.0,98.0,0.0
14.0,15.0,90.0,0.0
15.0,16.0,89.0,0.0
15.0,18.0,96.0,0.0
14.0,18.0,92.0,0.0
17.0,22.0,106.0,0.0
17.0,24.0,106.0,0.0
18.0,25.0,109.0,0.0
19.0,29.0,117.0,0.0
18.0,30.0,116.0,0.0
17.0,31.0,113.0,0.0
18.0,34.0,118.0,0.0
18.0,34.0,117.0,0.0
17.0,35.0,114.0,0.0
17.0,37.0,114.0,0.0
18.0,39.0,120.0,0.0
18.0,40.0,117.0,0.0
17.0,41.0,115.0,0.0
17.0,43.0,115.0,0.0
17.0,42.0,109.0,0.0
16.0,42.0,105.0,0.0
16.0,43.0,107.0,0.0
15.0,42.0,102.0,0.0
14.0,42.0,96.0,0.0
16.0,48.0,106.0,0.0
13.0,45.0,98.0,0.0
14.0,48.0,101.0,0.0
14.0,46.0,95.0,0.0
13.0,49.0,99.0,0.0
12.0,45.0,89.0,0.0
12.0,44.0,83.0,0.0
12.0,50.0,91.0,0.0
13.0,55.0,99.0,0.0
13.0,53.0,94.0,0.0
13.0,55.0,93.0,0.0
13.0,61.0,102.0,0.0
12.0,58.0,95.0,0.0
12.0,59.0,94.0,0.0
13.0,66.0,102.0,0.0
13.0,67.0,101.0,0.0
13.0,70.0,103.0,0.0
12.0,66.0,96.0,0.0
12.0,71.0,100.0,0.0
13.0,74.0,102.0,0.0
13.0,81.0,109.0,0.0
12.0,80.0,106.0,0.0
12.0,83.0,107.0,0.0
13.0,87.0,109.0,0.0
11.0,83.0,103.0,0.0
12.0,93.0,112.0,0.0
12.0,91.0,108.0,0.0
11.0,94.0,108.0,0.0
11.0,98.0,110.0,0.0
12.0,103.0,112.0,0.0
12.0,109.0,118.0,0.0
11.0,106.0,112.0,0.0
12.0,116.0,120.0,0.0
12.0,124.0,126.0,0.0
12.0,123.0,122.0,0.0
11.0,127.0,123.0,0.0
11.0,124.0,117.0,0.0
14.0,-283.0,87.0,0.0
15.0,-274.0,86.0,0.0
16.0,-276.0,90.0,0.0
16.0,-278.0,95.0,0.0
17.0,-270.0,95.0,0.0
17.0,-271.0,99.0,0.0
18.0,-275.0,103.0,0.0
19.0,-279.0,109.0,0.0
20.0,-278.0,112.0,0.0
20.0,-275.0,113.0,0.0
20.0,-272.0,116.0,0.0
21.0,-270.0,118.0,0.0
23.0,-273.0,124.0,0.0
23.0,-277.0,129.0,0.0
23.0,-274.0,131.0,0.0
24.0,-271.0,133.0,0.0
24.0,-267.0,134.0,0.0
26.0,-272.0,141.0,0.0
26.0,-274.0,146.0,0.0
28.0,-278.0,152.0,0.0
28.0,-277.0,155.0,0.0
27.0,-259.0,149.0,0.0
27.0,-251.0,147.0,0.0
25.0,-231.0,140.0,0.0
24.0,-218.0,135.0,0.0
25.0,-214.0,136.0,0.0
24.0,-202.0,130.0,0.0
24.0,-199.0,132.0,0.0
23.0,-186.0,127.0,0.0
23.0,-176.0,123.0,0.0
22.0,-171.0,122.0,0.0
21.0,-154.0,112.0,0.0
20.0,-149.0,111.0,0.0
21.0,-146.0,111.0,0.0
21.0,-144.0,112.0,0.0
21.0,-140.0,112.0,0.0
19.0,-126.0,103.0,0.0
17.0,-111.0,93.0,0.0
17.0,-108.0,92.0,0.0
17.0,-102.0,90.0,0.0
15.0,-95.0,85.0,0.0
13.0,-75.0,68.0,0.0
16.0,-92.0,86.0,0.0
15.0,-88.0,83.0,0.0
15.0,-82.0,80.0,0.0
14.0,-76.0,76.0,0.0
14.0,-74.0,76.0,0.0
3529.0,-18436.0,19163.0,0.0
3543.0,-18122.0,19255.0,0.0
3545.0,-17746.0,19274.0,0.0
3563.0,-17460.0,19385.0,0.0
3567.0,-17112.0,19421.0,0.0
3585.0,-16837.0,19537.0,0.0
3593.0,-16516.0,19594.0,0.0
3661.0,-16472.0,19982.0,0.0
3741.0,-16475.0,20438.0,0.0
3818.0,-16455.0,20878.0,0.0
3935.0,-16599.0,21543.0,0.0
4040.0,-16672.0,22135.0,0.0
4528.0,-18284.0,24838.0,1.0
4575.0,-18071.0,25120.0,1.0
4624.0,-17867.0,25423.0,1.0
336.0,-1270.0,1851.0,0.0
0.0,0.0,0.0,0.0
345.0,-1248.0,1907.0,0.0
345.0,-1219.0,1909.0,0.0
356.0,-1226.0,1967.0,0.0
4909.0,-16550.0,27197.0,1.0
358.0,-1177.0,1982.0,0.0
338.0,-1086.0,1877.0,0.0
5010.0,-15726.0,27871.0,1.0
5036.0,-15427.0,28059.0,1.0
5079.0,-15178.0,28340.0,1.0
5098.0,-14859.0,28495.0,1.0
363.0,-1030.0,2031.0,0.0
362.0,-1004.0,2034.0,0.0
358.0,-963.0,2006.0,0.0
359.0,-940.0,2014.0,0.0
363.0,-928.0,2048.0,0.0
360.0,-892.0,2029.0,0.0
362.0,-875.0,2051.0,0.0
368.0,-864.0,2088.0,0.0
4887.0,-11130.0,27748.0,1.0
359.0,-794.0,2046.0,0.0
357.0,-765.0,2037.0,0.0
4942.0,-10252.0,28226.0,1.0
365.0,-732.0,2089.0,0.0
372.0,-721.0,2133.0,0.0
371.0,-693.0,2127.0,0.0
370.0,-668.0,2130.0,0.0
5010.0,-8732.0,28922.0,1.0
5026.0,-8430.0,29078.0,1.0
374.0,-603.0,2174.0,0.0
5014.0,-7756.0,29144.0,1.0
375.0,-554.0,2182.0,0.0
366.0,-517.0,2136.0,0.0
369.0,-498.0,2161.0,0.0
4807.0,-6189.0,28212.0,1.0
368.0,-451.0,2169.0,0.0
371.0,-429.0,2187.0,0.0
1.0,-2.0,9.0,0.0
4751.0,-4888.0,28174.0,1.0
367.0,-354.0,2182.0,0.0
371.0,-334.0,2210.0,0.0
372.0,-311.0,2226.0,0.0
352.0,-270.0,2107.0,0.0
3.0,-2.0,17.0,0.0
0.0,0.0,0.0,0.0
2.0,-1.0,12.0,0.0
6.0,-3.0,36.0,0.0
3.0,-2.0,19.0,0.0
3.0,-1.0,17.0,0.0
4.0,-1.0,23.0,0.0
4.0,-1.0,23.0,0.0
5.0,0.0,27.0,0.0
6.0,0.0,40.0,0.0
7.0,0.0,43.0,0.0
7.0,0.0,38.0,0.0
7.0,0.0,44.0,0.0
10.0,1.0,58.0,0.0
11.0,2.0,67.0,0.0
10.0,2.0,58.0,0.0
8.0,2.0,49.0,0.0
10.0,4.0,59.0,0.0
10.0,4.0,62.0,0.0
13.0,7.0,84.0,0.0
12.0,8.0,82.0,0.0
10.0,7.0,65.0,0.0
12.0,10.0,82.0,0.0
12.0,10.0,80.0,0.0
13.0,11.0,79.0,0.0
14.0,14.0,92.0,0.0
15.0,15.0,95.0,0.0
14.0,16.0,88.0,0.0
15.0,18.0,100.0,0.0
16.0,21.0,106.0,0.0
15.0,21.0,100.0,0.0
14.0,22.0,100.0,0.0
15.0,24.0,102.0,0.0
17.0,29.0,117.0,0.0
16.0,28.0,107.0,0.0
16.0,31.0,113.0,0.0
16.0,30.0,107.0,0.0
16.0,34.0,114.0,0.0
15.0,33.0,110.0,0.0
16.0,36.0,112.0,0.0
15.0,37.0,110.0,0.0
16.0,39.0,113.0,0.0
15.0,38.0,108.0,0.0
13.0,37.0,99.0,0.0
14.0,39.0,101.0,0.0
15.0,43.0,111.0,0.0
12.0,38.0,91.0,0.0
12.0,36.0,86.0,0.0
13.0,43.0,99.0,0.0
13.0,42.0,94.0,0.0
12.0,40.0,87.0,0.0
13.0,47.0,100.0,0.0
12.0,46.0,94.0,0.0
11.0,44.0,89.0,0.0
12.0,47.0,94.0,0.0
10.0,46.0,86.0,0.0
11.0,46.0,85.0,0.0
12.0,54.0,98.0,0.0
11.0,50.0,88.0,0.0
11.0,56.0,96.0,0.0
10.0,53.0,88.0,0.0
11.0,57.0,94.0,0.0
10.0,56.0,88.0,0.0
11.0,62.0,96.0,0.0
10.0,59.0,89.0,0.0
11.0,62.0,92.0,0.0
10.0,65.0,95.0,0.0
11.0,70.0,98.0,0.0
10.0,67.0,92.0,0.0
10.0,74.0,100.0,0.0
10.0,74.0,97.0,0.0
11.0,82.0,105.0,0.0
11.0,85.0,108.0,0.0
10.0,82.0,101.0,0.0
10.0,85.0,103.0,0.0
11.0,93.0,109.0,0.0
10.0,93.0,106.0,0.0
11.0,100.0,113.0,0.0
10.0,97.0,107.0,0.0
10.0,101.0,109.0,0.0
10.0,105.0,111.0,0.0
10.0,110.0,115.0,0.0
9.0,111.0,113.0,0.0
10.0,118.0,117.0,0.0
9.0,118.0,114.0,0.0
9.0,118.0,112.0,0.0
11.0,-284.0,87.0,0.0
13.0,-290.0,92.0,0.0
13.0,-282.0,93.0,0.0
14.0,-284.0,97.0,0.0
15.0,-281.0,100.0,0.0
15.0,-279.0,102.0,0.0
15.0,-282.0,107.0,0.0
17.0,-285.0,111.0,0.0
17.0,-279.0,112.0,0.0
18.0,-278.0,115.0,0.0
18.0,-278.0,118.0,0.0
19.0,-283.0,124.0,0.0
19.0,-279.0,126.0,0.0
21.0,-284.0,132.0,0.0
21.0,-271.0,130.0,0.0
22.0,-276.0,136.0,0.0
22.0,-274.0,138.0,0.0
22.0,-268.0,140.0,0.0
23.0,-274.0,146.0,0.0
27.0,-299.0,164.0,0.0
26.0,-289.0,163.0,0.0
26.0,-279.0,160.0,0.0
25.0,-263.0,156.0,0.0
25.0,-250.0,151.0,0.0
25.0,-239.0,148.0,0.0
24.0,-225.0,142.0,0.0
23.0,-209.0,136.0,0.0
23.0,-204.0,136.0,0.0
22.0,-197.0,134.0,0.0
22.0,-184.0,129.0,0.0
22.0,-188.0,134.0,0.0
21.0,-177.0,129.0,0.0
20.0,-155.0,116.0,0.0
21.0,-162.0,124.0,0.0
20.0,-149.0,117.0,0.0
19.0,-141.0,112.0,0.0
18.0,-135.0,111.0,0.0
18.0,-128.0,107.0,0.0
16.0,-112.0,96.0,0.0
17.0,-115.0,102.0,0.0
16.0,-103.0,92.0,0.0
15.0,-98.0,89.0,0.0
14.0,-89.0,83.0,0.0
13.0,-80.0,77.0,0.0
12.0,-76.0,74.0,0.0
11.0,-68.0,68.0,0.0
3237.0,-18757.0,19115.0,0.0
3253.0,-18433.0,19200.0,0.0
3259.0,-18070.0,19238.0,0.0
3275.0,-17760.0,19328.0,0.0
3284.0,-17424.0,19383.0,0.0
3292.0,-17088.0,19432.0,0.0
3307.0,-16794.0,19524.0,0.0
3322.0,-16505.0,19617.0,0.0
3382.0,-16446.0,19987.0,0.0
3473.0,-16516.0,20526.0,0.0
3540.0,-16473.0,20938.0,0.0
3651.0,-16615.0,21601.0,0.0
314.0,-1397.0,1858.0,0.0
4182.0,-18204.0,24771.0,1.0
4220.0,-17962.0,25012.0,1.0
4296.0,-17881.0,25483.0,1.0
4330.0,-17617.0,25702.0,1.0
4362.0,-17352.0,25920.0,1.0
4414.0,-17155.0,26245.0,1.0
326.0,-1235.0,1937.0,0.0
329.0,-1220.0,1960.0,0.0
327.0,-1182.0,1945.0,0.0
4587.0,-16233.0,27387.0,1.0
4617.0,-15952.0,27600.0,1.0
4659.0,-15708.0,27880.0,1.0
336.0,-1103.0,2009.0,0.0
327.0,-1048.0,1960.0,0.0
4760.0,-14894.0,28599.0,1.0
341.0,-1039.0,2050.0,0.0
338.0,-1001.0,2031.0,0.0
337.0,-975.0,2036.0,0.0
330.0,-928.0,1991.0,0.0
332.0,-907.0,2006.0,0.0
337.0,-897.0,2043.0,0.0
0.0,0.0,0.0,0.0
340.0,-855.0,2070.0,0.0
4574.0,-11169.0,27873.0,1.0
345.0,-818.0,2110.0,0.0
337.0,-774.0,2065.0,0.0
341.0,-756.0,2086.0,0.0
344.0,-739.0,2112.0,0.0
342.0,-710.0,2101.0,0.0
4674.0,-9391.0,28808.0,1.0
350.0,-678.0,2164.0,0.0
338.0,-630.0,2091.0,0.0
347.0,-624.0,2157.0,0.0
4721.0,-8156.0,29351.0,1.0
342.0,-567.0,2135.0,0.0
353.0,-560.0,2204.0,0.0
4500.0,-6834.0,28173.0,1.0
347.0,-501.0,2175.0,0.0
4500.0,-6212.0,28316.0,1.0
350.0,-460.0,2209.0,0.0
4.0,-5.0,25.0,0.0
346.0,-407.0,2197.0,0.0
4440.0,-4901.0,28231.0,1.0
4402.0,-4555.0,28064.0,1.0
339.0,-328.0,2169.0,0.0
5.0,-4.0,30.0,0.0
4.0,-3.0,23.0,0.0
2.0,-1.0,7.0,0.0
3.0,-2.0,15.0,0.0
6.0,-4.0,44.0,0.0
6.0,-3.0,40.0,0.0
4.0,-2.0,29.0,0.0
6.0,-2.0,34.0,0.0
5.0,-1.0,32.0,0.0
5.0,-1.0,34.0,0.0
5.0,-1.0,31.0,0.0
4.0,0.0,27.0,0.0
8.0,0.0,52.0,0.0
9.0,0.0,65.0,0.0
9.0,0.0,63.0,0.0
7.0,0.0,48.0,0.0
9.0,2.0,63.0,0.0
6.0,1.0,42.0,0.0
9.0,3.0,58.0,0.0
11.0,4.0,71.0,0.0
12.0,6.0,80.0,0.0
8.0,4.0,52.0,0.0
10.0,7.0,69.0,0.0
13.0,9.0,93.0,0.0
15.0,12.0,105.0,0.0
11.0,10.0,81.0,0.0
14.0,14.0,96.0,0.0
13.0,14.0,91.0,0.0
14.0,17.0,101.0,0.0
14.0,18.0,98.0,0.0
13.0,18.0,93.0,0.0
14.0,20.0,98.0,0.0
15.0,22.0,106.0,0.0
14.0,23.0,103.0,0.0
15.0,26.0,110.0,0.0
14.0,26.0,104.0,0.0
14.0,29.0,109.0,0.0
15.0,31.0,112.0,0.0
14.0,31.0,108.0,0.0
16.0,35.0,120.0,0.0
16.0,38.0,123.0,0.0
14.0,33.0,104.0,0.0
15.0,38.0,115.0,0.0
16.0,41.0,121.0,0.0
14.0,39.0,111.0,0.0
13.0,40.0,109.0,0.0
13.0,38.0,102.0,0.0
13.0,43.0,109.0,0.0
13.0,42.0,104.0,0.0
11.0,39.0,93.0,0.0
13.0,45.0,104.0,0.0
11.0,41.0,93.0,0.0
11.0,43.0,94.0,0.0
11.0,46.0,98.0,0.0
12.0,48.0,100.0,0.0
10.0,44.0,89.0,0.0
11.0,48.0,94.0,0.0
11.0,51.0,97.0,0.0
11.0,52.0,97.0,0.0
10.0,53.0,95.0,0.0
9.0,50.0,87.0,0.0
9.0,52.0,88.0,0.0
10.0,58.0,97.0,0.0
10.0,58.0,95.0,0.0
10.0,57.0,91.0,0.0
10.0,66.0,102.0,0.0
10.0,66.0,101.0,0.0
9.0,63.0,95.0,0.0
10.0,70.0,101.0,0.0
9.0,71.0,100.0,0.0
10.0,70.0,97.0,0.0
9.0,73.0,100.0,0.0
11.0,84.0,112.0,0.0
9.0,78.0,101.0,0.0
10.0,86.0,108.0,0.0
10.0,90.0,111.0,0.0
9.0,93.0,113.0,0.0
10.0,94.0,111.0,0.0
10.0,101.0,117.0,0.0
9.0,98.0,111.0,0.0
9.0,99.0,109.0,0.0
9.0,109.0,119.0,0.0
8.0,105.0,112.0,0.0
9.0,109.0,114.0,0.0
8.0,117.0,118.0,0.0
8.0,120.0,119.0,0.0
8.0,119.0,116.0,0.0
7.0,121.0,116.0,0.0
7.0,-288.0,89.0,0.0
7.0,-288.0,93.0,0.0
8.0,-285.0,95.0,0.0
9.0,-287.0,99.0,0.0
9.0,-280.0,100.0,0.0
10.0,-283.0,104.0,0.0
10.0,-275.0,104.0,0.0
11.0,-278.0,109.0,0.0
12.0,-279.0,113.0,0.0
12.0,-279.0,117.0,0.0
12.0,-276.0,118.0,0.0
13.0,-278.0,123.0,0.0
14.0,-273.0,125.0,0.0
15.0,-275.0,129.0,0.0
15.0,-275.0,133.0,0.0
16.0,-276.0,137.0,0.0
16.0,-273.0,139.0,0.0
16.0,-268.0,140.0,0.0
17.0,-273.0,146.0,0.0
20.0,-296.0,163.0,0.0
20.0,-288.0,162.0,0.0
20.0,-281.0,163.0,0.0
19.0,-265.0,157.0,0.0
20.0,-255.0,156.0,0.0
19.0,-245.0,153.0,0.0
20.0,-240.0,153.0,0.0
19.0,-216.0,141.0,0.0
19.0,-218.0,146.0,0.0
18.0,-200.0,138.0,0.0
19.0,-201.0,142.0,0.0
18.0,-187.0,134.0,0.0
17.0,-173.0,127.0,0.0
17.0,-169.0,127.0,0.0
16.0,-154.0,118.0,0.0
16.0,-146.0,114.0,0.0
16.0,-143.0,115.0,0.0
13.0,-125.0,103.0,0.0
14.0,-124.0,104.0,0.0
14.0,-120.0,103.0,0.0
12.0,-104.0,91.0,0.0
11.0,-86.0,78.0,0.0
12.0,-95.0,87.0,0.0
12.0,-94.0,88.0,0.0
11.0,-83.0,79.0,0.0
11.0,-78.0,77.0,0.0
10.0,-73.0,74.0,0.0
11.0,-83.0,85.0,0.0
2690.0,-18360.0,19197.0,0.0
2706.0,-18036.0,19276.0,0.0
2715.0,-17678.0,19309.0,0.0
2734.0,-17387.0,19413.0,0.0
2746.0,-17064.0,19476.0,0.0
2760.0,-16756.0,19549.0,0.0
2774.0,-16453.0,19625.0,0.0
2842.0,-16472.0,20089.0,0.0
2925.0,-16561.0,20654.0,0.0
2986.0,-16519.0,21067.0,0.0
3069.0,-16591.0,21642.0,0.0
3454.0,-18241.0,24340.0,1.0
3521.0,-18168.0,24802.0,1.0
3562.0,-17948.0,25072.0,1.0
3610.0,-17771.0,25407.0,1.0
266.0,-1280.0,1874.0,0.0
0.0,0.0,0.0,0.0
270.0,-1234.0,1894.0,0.0
273.0,-1225.0,1926.0,0.0
275.0,-1203.0,1938.0,0.0
3857.0,-16452.0,27151.0,1.0
276.0,-1149.0,1944.0,0.0
0.0,0.0,0.0,0.0
283.0,-1122.0,1997.0,0.0
3988.0,-15399.0,28119.0,1.0
4021.0,-15135.0,28372.0,1.0
284.0,-1040.0,2003.0,0.0
292.0,-1043.0,2064.0,0.0
4090.0,-14234.0,28933.0,1.0
280.0,-945.0,1977.0,0.0
0.0,0.0,0.0,0.0
294.0,-945.0,2093.0,0.0
289.0,-901.0,2055.0,0.0
292.0,-885.0,2082.0,0.0
293.0,-861.0,2086.0,0.0
294.0,-839.0,2100.0,0.0
287.0,-794.0,2052.0,0.0
288.0,-771.0,2060.0,0.0
295.0,-766.0,2116.0,0.0
292.0,-732.0,2095.0,0.0
297.0,-721.0,2136.0,0.0
4006.0,-9393.0,28855.0,1.0
293.0,-661.0,2111.0,0.0
4066.0,-8862.0,29398.0,1.0
4091.0,-8582.0,29644.0,1.0
301.0,-606.0,2184.0,0.0
298.0,-575.0,2164.0,0.0
298.0,-552.0,2175.0,0.0
3862.0,-6846.0,28229.0,1.0
297.0,-501.0,2174.0,0.0
300.0,-484.0,2203.0,0.0
301.0,-461.0,2215.0,0.0
296.0,-430.0,2185.0,0.0
298.0,-408.0,2202.0,0.0
307.0,-395.0,2274.0,0.0
295.0,-357.0,2200.0,0.0
3727.0,-4210.0,27829.0,1.0
3.0,-3.0,18.0,0.0
4.0,-4.0,27.0,0.0
2.0,-2.0,17.0,0.0
3.0,-2.0,20.0,0.0
3.0,-2.0,18.0,0.0
2.0,-1.0,12.0,0.0
4.0,-2.0,28.0,0.0
3.0,-2.0,23.0,0.0
3.0,-1.0,30.0,0.0
6.0,-2.0,48.0,0.0
5.0,-1.0,45.0,0.0
5.0,-1.0,41.0,0.0
5.0,0.0,40.0,0.0
7.0,0.0,57.0,0.0
5.0,0.0,39.0,0.0
4.0,0.0,33.0,0.0
10.0,2.0,74.0,0.0
8.0,3.0,68.0,0.0
6.0,2.0,52.0,0.0
8.0,4.0,66.0,0.0
8.0,4.0,63.0,0.0
8.0,5.0,63.0,0.0
10.0,7.0,80.0,0.0
9.0,8.0,76.0,0.0
11.0,11.0,91.0,0.0
12.0,12.0,96.0,0.0
11.0,13.0,93.0,0.0
11.0,13.0,90.0,0.0
11.0,15.0,94.0,0.0
11.0,17.0,94.0,0.0
10.0,16.0,86.0,0.0
12.0,21.0,106.0,0.0
10.0,19.0,92.0,0.0
12.0,23.0,106.0,0.0
10.0,21.0,92.0,0.0
13.0,27.0,111.0,0.0
12.0,28.0,108.0,0.0
12.0,28.0,104.0,0.0
13.0,31.0,111.0,0.0
13.0,35.0,118.0,0.0
12.0,34.0,110.0,0.0
12.0,37.0,115.0,0.0
12.0,38.0,114.0,0.0
12.0,38.0,112.0,0.0
11.0,36.0,102.0,0.0
12.0,40.0,109.0,0.0
11.0,41.0,108.0,0.0
10.0,41.0,105.0,0.0
11.0,44.0,109.0,0.0
10.0,41.0,99.0,0.0
9.0,42.0,96.0,0.0
10.0,42.0,94.0,0.0
9.0,44.0,98.0,0.0
9.0,48.0,103.0,0.0
9.0,46.0,97.0,0.0
9.0,48.0,96.0,0.0
8.0,45.0,89.0,0.0
9.0,49.0,93.0,0.0
8.0,50.0,94.0,0.0
8.0,51.0,92.0,0.0
8.0,52.0,91.0,0.0
7.0,50.0,86.0,0.0
8.0,56.0,93.0,0.0
7.0,53.0,88.0,0.0
8.0,62.0,99.0,0.0
7.0,57.0,89.0,0.0
8.0,62.0,96.0,0.0
7.0,63.0,95.0,0.0
8.0,69.0,101.0,0.0
7.0,68.0,97.0,0.0
7.0,71.0,98.0,0.0
8.0,75.0,102.0,0.0
7.0,79.0,104.0,0.0
7.0,82.0,107.0,0.0
6.0,80.0,101.0,0.0
7.0,86.0,107.0,0.0
7.0,91.0,110.0,0.0
6.0,92.0,109.0,0.0
6.0,87.0,102.0,0.0
6.0,102.0,116.0,0.0
6.0,103.0,115.0,0.0
6.0,109.0,119.0,0.0
6.0,106.0,114.0,0.0
6.0,109.0,114.0,0.0
5.0,116.0,119.0,0.0
5.0,116.0,116.0,0.0
5.0,121.0,118.0,0.0
5.0,123.0,118.0,0.0
4.0,-276.0,86.0,0.0
5.0,-274.0,88.0,0.0
5.0,-275.0,92.0,0.0
5.0,-264.0,91.0,0.0
6.0,-267.0,96.0,0.0
6.0,-266.0,99.0,0.0
7.0,-272.0,104.0,0.0
8.0,-276.0,109.0,0.0
9.0,-265.0,108.0,0.0
9.0,-266.0,112.0,0.0
10.0,-268.0,116.0,0.0
10.0,-271.0,120.0,0.0
11.0,-267.0,123.0,0.0
11.0,-267.0,126.0,0.0
12.0,-265.0,128.0,0.0
12.0,-263.0,131.0,0.0
13.0,-262.0,134.0,0.0
13.0,-257.0,135.0,0.0
14.0,-266.0,143.0,0.0
15.0,-272.0,150.0,0.0
16.0,-277.0,157.0,0.0
17.0,-271.0,157.0,0.0
17.0,-265.0,158.0,0.0
16.0,-245.0,149.0,0.0
16.0,-237.0,148.0,0.0
16.0,-222.0,142.0,0.0
16.0,-221.0,144.0,0.0
16.0,-214.0,144.0,0.0
16.0,-202.0,139.0,0.0
15.0,-188.0,132.0,0.0
15.0,-185.0,132.0,0.0
14.0,-167.0,123.0,0.0
13.0,-149.0,112.0,0.0
14.0,-149.0,114.0,0.0
13.0,-135.0,106.0,0.0
14.0,-145.0,117.0,0.0
13.0,-126.0,105.0,0.0
13.0,-127.0,107.0,0.0
11.0,-110.0,95.0,0.0
11.0,-106.0,94.0,0.0
10.0,-94.0,84.0,0.0
11.0,-97.0,89.0,0.0
9.0,-81.0,76.0,0.0
10.0,-79.0,76.0,0.0
9.0,-73.0,72.0,0.0
10.0,-76.0,75.0,0.0
2391.0,-18633.0,19099.0,0.0
2408.0,-18307.0,19178.0,0.0
2422.0,-17967.0,19235.0,0.0
2439.0,-17649.0,19313.0,0.0
2454.0,-17338.0,19391.0,0.0
2472.0,-17041.0,19482.0,0.0
2486.0,-16729.0,19551.0,0.0
2499.0,-16407.0,19602.0,0.0
2568.0,-16465.0,20113.0,0.0
2643.0,-16544.0,20666.0,0.0
2700.0,-16494.0,21068.0,0.0
2787.0,-16625.0,21720.0,0.0
3113.0,-18127.0,24225.0,1.0
244.0,-1384.0,1893.0,0.0
0.0,0.0,0.0,0.0
242.0,-1308.0,1874.0,0.0
3303.0,-17465.0,25596.0,1.0
240.0,-1240.0,1861.0,0.0
3377.0,-17013.0,26140.0,1.0
249.0,-1224.0,1927.0,0.0
3461.0,-16604.0,26773.0,1.0
248.0,-1158.0,1914.0,0.0
249.0,-1138.0,1930.0,0.0
3566.0,-15870.0,27565.0,1.0
258.0,-1120.0,1996.0,0.0
251.0,-1061.0,1942.0,0.0
257.0,-1059.0,1989.0,0.0
263.0,-1058.0,2039.0,0.0
259.0,-1013.0,2007.0,0.0
261.0,-991.0,2018.0,0.0
3738.0,-13847.0,28971.0,1.0
3724.0,-13415.0,28875.0,1.0
270.0,-946.0,2095.0,0.0
3694.0,-12576.0,28696.0,1.0
3692.0,-12208.0,28707.0,1.0
3580.0,-11492.0,27865.0,1.0
3600.0,-11212.0,28051.0,1.0
272.0,-820.0,2122.0,0.0
262.0,-766.0,2048.0,0.0
3675.0,-10410.0,28750.0,1.0
265.0,-728.0,2082.0,0.0
269.0,-713.0,2115.0,0.0
271.0,-692.0,2131.0,0.0
3682.0,-9086.0,29000.0,1.0
274.0,-652.0,2168.0,0.0
273.0,-624.0,2159.0,0.0
272.0,-597.0,2155.0,0.0
274.0,-576.0,2171.0,0.0
261.0,-527.0,2080.0,0.0
3524.0,-6815.0,28106.0,1.0
263.0,-485.0,2103.0,0.0
265.0,-466.0,2122.0,0.0
268.0,-449.0,2155.0,0.0
3521.0,-5575.0,28360.0,1.0
277.0,-415.0,2239.0,0.0
276.0,-389.0,2237.0,0.0
269.0,-355.0,2187.0,0.0
271.0,-335.0,2211.0,0.0
270.0,-310.0,2207.0,0.0
1.0,-2.0,9.0,0.0
1.0,-1.0,9.0,0.0
0.0,0.0,1.0,0.0
2.0,-1.0,12.0,0.0
1.0,-2.0,13.0,0.0
1.0,-1.0,9.0,0.0
1.0,-1.0,10.0,0.0
1.0,0.0,5.0,0.0
3.0,-1.0,23.0,0.0
4.0,-1.0,32.0,0.0
4.0,0.0,31.0,0.0
4.0,0.0,35.0,0.0
4.0,0.0,42.0,0.0
6.0,0.0,52.0,0.0
3.0,0.0,27.0,0.0
5.0,1.0,46.0,0.0
8.0,2.0,71.0,0.0
4.0,1.0,36.0,0.0
4.0,2.0,42.0,0.0
6.0,4.0,57.0,0.0
8.0,6.0,72.0,0.0
7.0,6.0,66.0,0.0
8.0,7.0,69.0,0.0
8.0,9.0,78.0,0.0
10.0,11.0,87.0,0.0
8.0,10.0,73.0,0.0
9.0,12.0,86.0,0.0
10.0,15.0,95.0,0.0
8.0,13.0,73.0,0.0
9.0,16.0,87.0,0.0
9.0,17.0,88.0,0.0
10.0,20.0,93.0,0.0
10.0,21.0,100.0,0.0
10.0,23.0,100.0,0.0
11.0,26.0,109.0,0.0
10.0,27.0,106.0,0.0
11.0,28.0,107.0,0.0
10.0,29.0,105.0,0.0
10.0,31.0,106.0,0.0
10.0,30.0,101.0,0.0
10.0,32.0,102.0,0.0
11.0,37.0,113.0,0.0
9.0,36.0,104.0,0.0
9.0,33.0,97.0,0.0
9.0,35.0,98.0,0.0
10.0,39.0,106.0,0.0
9.0,38.0,98.0,0.0
7.0,34.0,84.0,0.0
7.0,35.0,85.0,0.0
8.0,41.0,98.0,0.0
8.0,40.0,92.0,0.0
8.0,39.0,88.0,0.0
7.0,36.0,78.0,0.0
8.0,46.0,96.0,0.0
8.0,45.0,91.0,0.0
7.0,43.0,85.0,0.0
7.0,46.0,89.0,0.0
6.0,41.0,77.0,0.0
6.0,48.0,87.0,0.0
6.0,50.0,87.0,0.0
6.0,48.0,84.0,0.0
6.0,49.0,83.0,0.0
6.0,54.0,89.0,0.0
7.0,61.0,99.0,0.0
6.0,56.0,88.0,0.0
5.0,54.0,84.0,0.0
6.0,63.0,94.0,0.0
5.0,60.0,87.0,0.0
5.0,64.0,92.0,0.0
6.0,68.0,94.0,0.0
5.0,70.0,96.0,0.0
5.0,71.0,96.0,0.0
5.0,73.0,96.0,0.0
6.0,83.0,105.0,0.0
6.0,80.0,99.0,0.0
6.0,86.0,105.0,0.0
5.0,91.0,108.0,0.0
5.0,91.0,106.0,0.0
5.0,90.0,103.0,0.0
4.0,98.0,109.0,0.0
4.0,101.0,111.0,0.0
4.0,105.0,112.0,0.0
3.0,97.0,102.0,0.0
3.0,106.0,108.0,0.0
3.0,114.0,114.0,0.0
3.0,116.0,113.0,0.0
2.0,121.0,116.0,0.0
-1.0,-303.0,95.0,0.0
0.0,-282.0,92.0,0.0
0.0,-294.0,99.0,0.0
0.0,-285.0,100.0,0.0
1.0,-289.0,105.0,0.0
1.0,-274.0,102.0,0.0
2.0,-272.0,104.0,0.0
2.0,-281.0,111.0,0.0
3.0,-281.0,115.0,0.0
4.0,-281.0,119.0,0.0
4.0,-273.0,118.0,0.0
5.0,-270.0,121.0,0.0
5.0,-276.0,127.0,0.0
6.0,-277.0,132.0,0.0
6.0,-268.0,130.0,0.0
7.0,-278.0,139.0,0.0
8.0,-270.0,139.0,0.0
8.0,-279.0,147.0,0.0
9.0,-277.0,150.0,0.0
9.0,-289.0,161.0,0.0
11.0,-290.0,165.0,0.0
10.0,-274.0,160.0,0.0
11.0,-271.0,162.0,0.0
11.0,-253.0,156.0,0.0
11.0,-246.0,154.0,0.0
11.0,-245.0,157.0,0.0
12.0,-229.0,151.0,0.0
11.0,-217.0,147.0,0.0
12.0,-209.0,144.0,0.0
11.0,-207.0,147.0,0.0
11.0,-189.0,137.0,0.0
11.0,-174.0,129.0,0.0
11.0,-173.0,130.0,0.0
10.0,-159.0,123.0,0.0
10.0,-150.0,118.0,0.0
10.0,-140.0,113.0,0.0
10.0,-144.0,118.0,0.0
10.0,-134.0,114.0,0.0
10.0,-122.0,105.0,0.0
9.0,-109.0,97.0,0.0
10.0,-117.0,105.0,0.0
8.0,-100.0,92.0,0.0
8.0,-95.0,89.0,0.0
9.0,-92.0,88.0,0.0
7.0,-79.0,78.0,0.0
7.0,-74.0,74.0,0.0
1835.0,-18591.0,19121.0,0.0
1856.0,-18278.0,19211.0,0.0
1874.0,-17948.0,19280.0,0.0
1891.0,-17620.0,19343.0,0.0
1909.0,-17305.0,19416.0,0.0
1924.0,-16971.0,19464.0,0.0
1942.0,-16684.0,19559.0,0.0
1960.0,-16393.0,19646.0,0.0
2017.0,-16425.0,20124.0,0.0
2083.0,-16517.0,20692.0,0.0
2140.0,-16530.0,21177.0,0.0
2216.0,-16671.0,21844.0,0.0
2448.0,-17951.0,24057.0,1.0
2507.0,-17914.0,24561.0,1.0
2538.0,-17666.0,24783.0,1.0
194.0,-1315.0,1889.0,0.0
190.0,-1259.0,1851.0,0.0
0.0,0.0,0.0,0.0
2692.0,-16897.0,26029.0,1.0
199.0,-1215.0,1917.0,0.0
198.0,-1176.0,1903.0,0.0
205.0,-1190.0,1972.0,0.0
2828.0,-15995.0,27159.0,1.0
2852.0,-15708.0,27349.0,1.0
202.0,-1087.0,1943.0,0.0
2916.0,-15230.0,27907.0,1.0
0.0,0.0,0.0,0.0
2956.0,-14626.0,28247.0,1.0
2959.0,-14242.0,28256.0,1.0
212.0,-991.0,2021.0,0.0
2988.0,-13603.0,28517.0,1.0
2995.0,-13253.0,28583.0,1.0
2989.0,-12852.0,28527.0,1.0
0.0,0.0,0.0,0.0
217.0,-879.0,2073.0,0.0
217.0,-853.0,2073.0,0.0
2890.0,-11020.0,27617.0,1.0
0.0,0.0,0.0,0.0
2938.0,-10515.0,28116.0,1.0
222.0,-771.0,2133.0,0.0
2958.0,-9909.0,28367.0,1.0
221.0,-714.0,2121.0,0.0
227.0,-710.0,2186.0,0.0
217.0,-654.0,2092.0,0.0
224.0,-650.0,2162.0,0.0
226.0,-629.0,2177.0,0.0
2980.0,-8000.0,28840.0,1.0
223.0,-573.0,2160.0,0.0
225.0,-554.0,2187.0,0.0
227.0,-535.0,2212.0,0.0
2852.0,-6429.0,27848.0,1.0
223.0,-479.0,2182.0,0.0
2844.0,-5806.0,27909.0,1.0
224.0,-433.0,2198.0,0.0
225.0,-411.0,2214.0,0.0
2807.0,-4837.0,27784.0,1.0
2797.0,-4522.0,27765.0,1.0
220.0,-332.0,2186.0,0.0
2756.0,-3870.0,27539.0,1.0
2.0,-3.0,20.0,0.0
1.0,-1.0,12.0,0.0
3.0,-3.0,22.0,0.0
3.0,-3.0,31.0,0.0
3.0,-2.0,31.0,0.0
1.0,-1.0,18.0,0.0
3.0,-2.0,31.0,0.0
4.0,-2.0,45.0,0.0
4.0,-2.0,49.0,0.0
6.0,-1.0,54.0,0.0
5.0,-1.0,47.0,0.0
5.0,-1.0,60.0,0.0
6.0,0.0,58.0,0.0
6.0,0.0,58.0,0.0
4.0,0.0,46.0,0.0
6.0,2.0,64.0,0.0
5.0,1.0,56.0,0.0
5.0,2.0,61.0,0.0
6.0,4.0,63.0,0.0
6.0,4.0,70.0,0.0
6.0,6.0,68.0,0.0
6.0,7.0,74.0,0.0
7.0,8.0,76.0,0.0
7.0,10.0,87.0,0.0
8.0,12.0,93.0,0.0
7.0,11.0,83.0,0.0
7.0,12.0,85.0,0.0
7.0,15.0,92.0,0.0
8.0,17.0,99.0,0.0
8.0,20.0,103.0,0.0
10.0,22.0,115.0,0.0
9.0,22.0,107.0,0.0
9.0,23.0,106.0,0.0
10.0,27.0,119.0,0.0
8.0,26.0,109.0,0.0
9.0,29.0,115.0,0.0
8.0,28.0,106.0,0.0
9.0,33.0,119.0,0.0
8.0,32.0,109.0,0.0
8.0,34.0,115.0,0.0
8.0,35.0,112.0,0.0
9.0,39.0,120.0,0.0
9.0,39.0,117.0,0.0
7.0,37.0,104.0,0.0
8.0,42.0,116.0,0.0
7.0,41.0,109.0,0.0
8.0,40.0,106.0,0.0
8.0,45.0,112.0,0.0
7.0,43.0,105.0,0.0
7.0,45.0,105.0,0.0
7.0,45.0,104.0,0.0
7.0,45.0,100.0,0.0
6.0,48.0,102.0,0.0
6.0,49.0,102.0,0.0
6.0,50.0,101.0,0.0
5.0,47.0,94.0,0.0
