//X,Y,Z,Classification
-5744.0,8505.0,23096.0,0.0
-5748.0,8200.0,23057.0,0.0
-5746.0,7889.0,22991.0,0.0
-5744.0,7585.0,22934.0,0.0
-5739.0,7278.0,22859.0,0.0
-5736.0,6978.0,22795.0,0.0
-5734.0,6683.0,22733.0,0.0
-5728.0,6386.0,22658.0,0.0
-5730.0,6102.0,22613.0,0.0
-5729.0,5817.0,22558.0,0.0
-5727.0,5534.0,22499.0,0.0
-5721.0,5250.0,22426.0,0.0
-5714.0,4969.0,22349.0,0.0
-5714.0,4696.0,22296.0,0.0
-5722.0,4433.0,22278.0,0.0
-5707.0,4154.0,22174.0,0.0
-5717.0,3895.0,22162.0,0.0
-5708.0,3625.0,22078.0,0.0
-5704.0,3361.0,22013.0,0.0
-5708.0,3103.0,21980.0,0.0
-5704.0,2844.0,21918.0,0.0
-5704.0,2589.0,21867.0,0.0
-5696.0,2331.0,21791.0,0.0
-5700.0,2079.0,21755.0,0.0
-5691.0,1826.0,21673.0,0.0
-5694.0,1578.0,21641.0,0.0
-5689.0,1329.0,21573.0,0.0
-5695.0,1084.0,21544.0,0.0
-5688.0,838.0,21476.0,0.0
-5694.0,596.0,21448.0,0.0
-5685.0,352.0,21366.0,0.0
-5694.0,111.0,21353.0,0.0
-5683.0,-127.0,21269.0,0.0
-5684.0,-367.0,21222.0,0.0
-5936.0,-632.0,22117.0,0.0
-6017.0,-893.0,22366.0,0.0
-6319.0,-1199.0,23436.0,0.0
-594.0,-137.0,2201.0,0.0
-595.0,-162.0,2198.0,0.0
-8662.0,-2720.0,31914.0,2.0
-597.0,-212.0,2199.0,0.0
-597.0,-237.0,2191.0,0.0
-600.0,-263.0,2200.0,0.0
-608.0,-291.0,2220.0,0.0
-598.0,-311.0,2180.0,0.0
-604.0,-339.0,2201.0,0.0
-596.0,-358.0,2164.0,0.0
-611.0,-392.0,2213.0,0.0
-586.0,-400.0,2119.0,0.0
-609.0,-440.0,2195.0,0.0
-597.0,-455.0,2145.0,0.0
-605.0,-487.0,2173.0,0.0
-592.0,-501.0,2122.0,0.0
-601.0,-533.0,2147.0,0.0
-592.0,-549.0,2111.0,0.0
-598.0,-578.0,2126.0,0.0
-601.0,-606.0,2132.0,0.0
-1.0,-1.0,4.0,0.0
-5.0,-6.0,21.0,0.0
-589.0,-666.0,2074.0,0.0
-2.0,-2.0,11.0,0.0
-6.0,-8.0,24.0,0.0
-2.0,-2.0,8.0,0.0
-5.0,-7.0,22.0,0.0
-4.0,-6.0,17.0,0.0
-6.0,-9.0,24.0,0.0
-4.0,-6.0,17.0,0.0
-5.0,-8.0,19.0,0.0
-11.0,-17.0,39.0,0.0
-11.0,-17.0,40.0,0.0
-15.0,-23.0,52.0,0.0
-13.0,-22.0,47.0,0.0
-13.0,-23.0,46.0,0.0
-9.0,-16.0,33.0,0.0
-12.0,-22.0,44.0,0.0
-11.0,-20.0,39.0,0.0
-11.0,-21.0,39.0,0.0
-15.0,-29.0,52.0,0.0
-15.0,-29.0,53.0,0.0
-18.0,-36.0,62.0,0.0
-14.0,-29.0,49.0,0.0
-16.0,-34.0,55.0,0.0
-14.0,-30.0,49.0,0.0
-18.0,-42.0,65.0,0.0
-17.0,-38.0,58.0,0.0
-22.0,-49.0,72.0,0.0
-20.0,-48.0,69.0,0.0
-20.0,-49.0,70.0,0.0
-25.0,-61.0,82.0,0.0
-22.0,-54.0,72.0,0.0
-19.0,-50.0,67.0,0.0
-22.0,-56.0,71.0,0.0
-24.0,-64.0,80.0,0.0
-27.0,-72.0,88.0,0.0
-22.0,-60.0,71.0,0.0
-24.0,-67.0,78.0,0.0
-25.0,-73.0,82.0,0.0
-26.0,-75.0,83.0,0.0
-25.0,-75.0,81.0,0.0
-26.0,-80.0,85.0,0.0
-30.0,-92.0,95.0,0.0
-28.0,-90.0,91.0,0.0
-28.0,-90.0,89.0,0.0
-28.0,-93.0,90.0,0.0
-32.0,-104.0,98.0,0.0
-32.0,-106.0,97.0,0.0
-32.0,-110.0,99.0,0.0
-31.0,-107.0,95.0,0.0
-32.0,-112.0,96.0,0.0
-32.0,-116.0,98.0,0.0
-33.0,-121.0,100.0,0.0
-34.0,-126.0,101.0,0.0
-32.0,-123.0,97.0,0.0
-32.0,-125.0,96.0,0.0
-33.0,-131.0,98.0,0.0
-33.0,-133.0,98.0,0.0
-33.0,-136.0,98.0,0.0
-32.0,-132.0,93.0,0.0
-33.0,-138.0,94.0,0.0
-34.0,-148.0,99.0,0.0
-34.0,-151.0,99.0,0.0
-33.0,-147.0,94.0,0.0
-32.0,-145.0,90.0,0.0
-31.0,-145.0,88.0,0.0
-33.0,-158.0,93.0,0.0
-33.0,-160.0,93.0,0.0
-32.0,-157.0,88.0,0.0
-32.0,-162.0,89.0,0.0
-31.0,-156.0,84.0,0.0
-31.0,-161.0,84.0,0.0
-31.0,-166.0,84.0,0.0
-29.0,-154.0,75.0,0.0
-29.0,-158.0,75.0,0.0
-29.0,-162.0,75.0,0.0
-28.0,-156.0,71.0,0.0
-28.0,-160.0,70.0,0.0
-27.0,-158.0,67.0,0.0
-26.0,-153.0,63.0,0.0
-26.0,-160.0,65.0,0.0
-26.0,-163.0,64.0,0.0
-35.0,-223.0,85.0,0.0
-43.0,-273.0,100.0,0.0
-43.0,-278.0,99.0,0.0
-42.0,-283.0,97.0,0.0
-41.0,-277.0,91.0,0.0
-41.0,-289.0,91.0,0.0
-41.0,-290.0,89.0,0.0
-40.0,-287.0,84.0,0.0
-39.0,-288.0,81.0,0.0
-3544.0,18634.0,17361.0,0.0
-3649.0,18683.0,17781.0,0.0
-3725.0,18579.0,18066.0,0.0
-3866.0,18785.0,18661.0,0.0
-4017.0,19014.0,19299.0,0.0
-4104.0,18929.0,19629.0,0.0
-4198.0,18861.0,19983.0,0.0
-4286.0,18764.0,20314.0,0.0
-4318.0,18421.0,20380.0,0.0
-4441.0,18462.0,20874.0,0.0
-4406.0,17848.0,20624.0,0.0
-4498.0,17751.0,20964.0,0.0
-4773.0,18358.0,22164.0,0.0
-4874.0,18266.0,22545.0,0.0
-4988.0,18210.0,22980.0,0.0
-5096.0,18126.0,23392.0,0.0
-5206.0,18039.0,23809.0,0.0
-5315.0,17940.0,24221.0,0.0
-5429.0,17849.0,24656.0,0.0
-5527.0,17693.0,25009.0,0.0
-5645.0,17599.0,25461.0,0.0
-5676.0,17225.0,25510.0,0.0
-5688.0,16804.0,25483.0,0.0
-6033.0,17343.0,26937.0,0.0
-6161.0,17234.0,27422.0,0.0
-6291.0,17118.0,27912.0,0.0
-6419.0,16987.0,28392.0,0.0
-6563.0,16887.0,28941.0,0.0
-6673.0,16687.0,29333.0,0.0
-6859.0,16667.0,30062.0,0.0
-7081.0,16713.0,30942.0,0.0
-7244.0,16600.0,31561.0,0.0
-7423.0,16510.0,32247.0,0.0
-7547.0,16286.0,32695.0,0.0
-7629.0,15967.0,32959.0,0.0
-7632.0,15482.0,32880.0,0.0
-7625.0,14984.0,32757.0,0.0
-7581.0,14424.0,32477.0,0.0
-6004.0,11056.0,25656.0,0.0
-5484.0,9764.0,23368.0,0.0
-5513.0,9487.0,23432.0,0.0
-5506.0,9151.0,23343.0,0.0
-5504.0,8826.0,23270.0,0.0
-5531.0,8551.0,23324.0,0.0
-5511.0,8209.0,23183.0,0.0
-5516.0,7905.0,23142.0,0.0
-5528.0,7617.0,23135.0,0.0
-5527.0,7314.0,23076.0,0.0
-5530.0,7017.0,23028.0,0.0
-5510.0,6697.0,22887.0,0.0
-5546.0,6447.0,22984.0,0.0
-5501.0,6107.0,22741.0,0.0
-5505.0,5825.0,22702.0,0.0
-5562.0,5600.0,22885.0,0.0
-5575.0,5329.0,22879.0,0.0
-5557.0,5032.0,22753.0,0.0
-5560.0,4758.0,22712.0,0.0
-5568.0,4489.0,22693.0,0.0
-5571.0,4219.0,22651.0,0.0
-5573.0,3949.0,22604.0,0.0
-5583.0,3686.0,22592.0,0.0
-5571.0,3412.0,22493.0,0.0
-5578.0,3151.0,22471.0,0.0
-5581.0,2889.0,22427.0,0.0
-5591.0,2633.0,22418.0,0.0
-5583.0,2370.0,22336.0,0.0
-5602.0,2119.0,22359.0,0.0
-5598.0,1860.0,22290.0,0.0
-5596.0,1605.0,22233.0,0.0
-5601.0,1352.0,22202.0,0.0
-5607.0,1100.0,22175.0,0.0
-5535.0,838.0,21841.0,0.0
-5596.0,597.0,22037.0,0.0
-5604.0,350.0,22019.0,0.0
-5619.0,102.0,22024.0,0.0
-5607.0,-144.0,21927.0,0.0
-5559.0,-386.0,21690.0,0.0
-5700.0,-645.0,22192.0,0.0
-5699.0,-893.0,22138.0,0.0
-5700.0,-1141.0,22093.0,0.0
-5702.0,-1387.0,22049.0,0.0
-5703.0,-1633.0,22002.0,0.0
-5694.0,-1876.0,21921.0,0.0
-5699.0,-2122.0,21892.0,0.0
-5703.0,-2367.0,21858.0,0.0
-5707.0,-2613.0,21823.0,0.0
-5705.0,-2855.0,21765.0,0.0
-5700.0,-3095.0,21693.0,0.0
-5702.0,-3338.0,21652.0,0.0
-5697.0,-3577.0,21582.0,0.0
-5694.0,-3817.0,21526.0,0.0
0.0,0.0,3.0,0.0
-5699.0,-4303.0,21441.0,0.0
-5706.0,-4550.0,21418.0,0.0
-5713.0,-4798.0,21396.0,0.0
-5706.0,-5035.0,21320.0,0.0
-1.0,-1.0,5.0,0.0
-5703.0,-5514.0,21206.0,0.0
-1.0,-1.0,7.0,0.0
-1.0,-1.0,4.0,0.0
-5708.0,-6247.0,21073.0,0.0
-4.0,-5.0,17.0,0.0
-2.0,-2.0,8.0,0.0
-3.0,-4.0,13.0,0.0
-5.0,-7.0,23.0,0.0
-3.0,-4.0,14.0,0.0
-1.0,-1.0,7.0,0.0
-3.0,-4.0,13.0,0.0
-3.0,-5.0,14.0,0.0
-3.0,-4.0,11.0,0.0
-5.0,-8.0,19.0,0.0
-4.0,-5.0,15.0,0.0
-6.0,-10.0,25.0,0.0
-6.0,-11.0,24.0,0.0
-10.0,-18.0,41.0,0.0
-9.0,-15.0,34.0,0.0
-8.0,-15.0,32.0,0.0
-6.0,-12.0,24.0,0.0
-9.0,-19.0,37.0,0.0
-13.0,-25.0,48.0,0.0
-10.0,-21.0,39.0,0.0
-6.0,-13.0,24.0,0.0
-15.0,-32.0,55.0,0.0
-10.0,-23.0,38.0,0.0
-8.0,-19.0,31.0,0.0
-14.0,-34.0,53.0,0.0
-15.0,-35.0,56.0,0.0
-14.0,-35.0,54.0,0.0
-17.0,-44.0,64.0,0.0
-16.0,-42.0,60.0,0.0
-17.0,-44.0,61.0,0.0
-18.0,-48.0,66.0,0.0
-16.0,-43.0,58.0,0.0
-17.0,-47.0,61.0,0.0
-23.0,-62.0,79.0,0.0
-19.0,-52.0,65.0,0.0
-21.0,-58.0,71.0,0.0
-21.0,-61.0,72.0,0.0
-25.0,-73.0,85.0,0.0
-24.0,-72.0,81.0,0.0
-24.0,-71.0,79.0,0.0
-23.0,-70.0,76.0,0.0
-24.0,-76.0,81.0,0.0
-27.0,-86.0,90.0,0.0
-26.0,-87.0,88.0,0.0
-26.0,-89.0,88.0,0.0
-28.0,-95.0,91.0,0.0
-28.0,-99.0,94.0,0.0
-27.0,-98.0,90.0,0.0
-26.0,-96.0,86.0,0.0
-25.0,-91.0,81.0,0.0
-30.0,-112.0,96.0,0.0
-28.0,-108.0,92.0,0.0
-27.0,-103.0,86.0,0.0
-30.0,-117.0,95.0,0.0
-28.0,-112.0,88.0,0.0
-29.0,-117.0,91.0,0.0
-27.0,-114.0,86.0,0.0
-28.0,-119.0,88.0,0.0
-30.0,-131.0,94.0,0.0
-29.0,-129.0,90.0,0.0
-30.0,-134.0,93.0,0.0
-29.0,-132.0,89.0,0.0
-30.0,-139.0,90.0,0.0
-29.0,-137.0,88.0,0.0
-27.0,-129.0,81.0,0.0
-30.0,-146.0,89.0,0.0
-29.0,-144.0,86.0,0.0
-27.0,-139.0,81.0,0.0
-30.0,-155.0,88.0,0.0
-29.0,-155.0,85.0,0.0
-27.0,-149.0,79.0,0.0
-28.0,-154.0,81.0,0.0
-28.0,-157.0,80.0,0.0
-27.0,-157.0,78.0,0.0
-24.0,-142.0,68.0,0.0
-25.0,-151.0,71.0,0.0
-25.0,-149.0,68.0,0.0
-25.0,-154.0,69.0,0.0
-23.0,-142.0,61.0,0.0
-23.0,-147.0,61.0,0.0
-23.0,-151.0,61.0,0.0
-24.0,-162.0,64.0,0.0
-30.0,-197.0,75.0,0.0
-39.0,-269.0,99.0,0.0
-40.0,-274.0,97.0,0.0
-40.0,-280.0,96.0,0.0
-38.0,-275.0,91.0,0.0
-38.0,-279.0,89.0,0.0
-38.0,-281.0,86.0,0.0
-38.0,-285.0,85.0,0.0
-37.0,-288.0,82.0,0.0
-3337.0,18715.0,17504.0,0.0
-3493.0,19066.0,18215.0,0.0
-3488.0,18533.0,18090.0,0.0
-3545.0,18336.0,18284.0,0.0
-3765.0,18955.0,19311.0,0.0
-3860.0,18923.0,19696.0,0.0
-3951.0,18858.0,20055.0,0.0
-4024.0,18706.0,20327.0,0.0
-4125.0,18665.0,20727.0,0.0
-4219.0,18595.0,21102.0,0.0
-4246.0,18225.0,21137.0,0.0
-4238.0,17712.0,20996.0,0.0
-4504.0,18336.0,22219.0,0.0
-4610.0,18272.0,22636.0,0.0
-4717.0,18209.0,23066.0,0.0
-4819.0,18115.0,23466.0,0.0
-4923.0,18016.0,23869.0,0.0
-5030.0,17926.0,24293.0,0.0
-5140.0,17832.0,24723.0,0.0
-5245.0,17713.0,25131.0,0.0
-5344.0,17568.0,25510.0,0.0
-5424.0,17351.0,25793.0,0.0
-5409.0,16834.0,25625.0,0.0
-5715.0,17301.0,26972.0,0.0
-5848.0,17221.0,27504.0,0.0
-5967.0,17086.0,27964.0,0.0
-6096.0,16969.0,28469.0,0.0
-6232.0,16860.0,29004.0,0.0
-6358.0,16714.0,29492.0,0.0
-6448.0,16466.0,29814.0,0.0
-6576.0,16305.0,30304.0,0.0
-6745.0,16231.0,30978.0,0.0
-6916.0,16151.0,31668.0,0.0
-7131.0,16150.0,32548.0,0.0
-7255.0,15928.0,33008.0,0.0
-7262.0,15450.0,32940.0,0.0
-7232.0,14903.0,32710.0,0.0
-7228.0,14417.0,32593.0,0.0
-5709.0,11016.0,25667.0,0.0
-5898.0,11003.0,26440.0,0.0
-5351.0,9645.0,23919.0,0.0
-5939.0,10334.0,26469.0,0.0
-5941.0,9974.0,26406.0,0.0
-5345.0,8650.0,23692.0,0.0
-5926.0,9235.0,26193.0,0.0
-5929.0,8889.0,26135.0,0.0
-5914.0,8522.0,25997.0,0.0
-5923.0,8193.0,25967.0,0.0
-5913.0,7842.0,25852.0,0.0
-5303.0,6736.0,23129.0,0.0
-5355.0,6505.0,23297.0,0.0
-5231.0,6065.0,22693.0,0.0
-5253.0,5805.0,22732.0,0.0
-5884.0,6185.0,25396.0,0.0
-5889.0,5876.0,25353.0,0.0
-5889.0,5565.0,25291.0,0.0
-5880.0,5249.0,25189.0,0.0
-5870.0,4936.0,25087.0,0.0
-5867.0,4632.0,25011.0,0.0
-5866.0,4333.0,24946.0,0.0
-5858.0,4030.0,24848.0,0.0
-5629.0,3591.0,23820.0,0.0
-5854.0,3443.0,24713.0,0.0
-5851.0,3152.0,24641.0,0.0
-5850.0,2866.0,24575.0,0.0
-5838.0,2576.0,24468.0,0.0
-5835.0,2293.0,24395.0,0.0
-5839.0,2014.0,24355.0,0.0
-5830.0,1733.0,24266.0,0.0
-5826.0,1456.0,24190.0,0.0
-5822.0,1181.0,24117.0,0.0
-5364.0,836.0,22169.0,0.0
-5379.0,588.0,22177.0,0.0
-5799.0,365.0,23854.0,0.0
-5804.0,97.0,23819.0,0.0
-5440.0,-158.0,22277.0,0.0
-5441.0,-407.0,22229.0,0.0
-5446.0,-656.0,22198.0,0.0
-5449.0,-904.0,22160.0,0.0
-5441.0,-1149.0,22077.0,0.0
-5455.0,-1399.0,22084.0,0.0
-5447.0,-1641.0,21998.0,0.0
-5449.0,-1886.0,21959.0,0.0
-5452.0,-2131.0,21918.0,0.0
-5444.0,-2371.0,21839.0,0.0
-5447.0,-2615.0,21798.0,0.0
-5450.0,-2859.0,21761.0,0.0
-5449.0,-3101.0,21706.0,0.0
-5453.0,-3345.0,21671.0,0.0
-5450.0,-3585.0,21613.0,0.0
-5441.0,-3819.0,21525.0,0.0
-5447.0,-4065.0,21501.0,0.0
-5447.0,-4306.0,21452.0,0.0
-5446.0,-4545.0,21398.0,0.0
-4.0,-4.0,18.0,0.0
0.0,0.0,3.0,0.0
-5448.0,-5270.0,21254.0,0.0
-5446.0,-5509.0,21199.0,0.0
-5444.0,-5749.0,21140.0,0.0
-5443.0,-5989.0,21087.0,0.0
-5450.0,-6239.0,21064.0,0.0
-5441.0,-6472.0,20981.0,0.0
-6.0,-7.0,25.0,0.0
-6.0,-8.0,26.0,0.0
0.0,0.0,0.0,0.0
0.0,0.0,0.0,0.0
-4.0,-5.0,16.0,0.0
-3.0,-4.0,14.0,0.0
-9.0,-14.0,37.0,0.0
-5.0,-8.0,19.0,0.0
-2.0,-3.0,11.0,0.0
-9.0,-14.0,34.0,0.0
-8.0,-14.0,31.0,0.0
-5.0,-9.0,21.0,0.0
-11.0,-20.0,44.0,0.0
-10.0,-17.0,37.0,0.0
-10.0,-18.0,38.0,0.0
-7.0,-14.0,29.0,0.0
-11.0,-22.0,42.0,0.0
-9.0,-19.0,37.0,0.0
-13.0,-28.0,50.0,0.0
-13.0,-27.0,49.0,0.0
-13.0,-29.0,49.0,0.0
-15.0,-33.0,56.0,0.0
-14.0,-31.0,53.0,0.0
-13.0,-29.0,47.0,0.0
-20.0,-47.0,73.0,0.0
-16.0,-39.0,60.0,0.0
-19.0,-49.0,71.0,0.0
-17.0,-42.0,61.0,0.0
-19.0,-51.0,71.0,0.0
-21.0,-56.0,77.0,0.0
-21.0,-56.0,75.0,0.0
-19.0,-53.0,69.0,0.0
-24.0,-68.0,87.0,0.0
-21.0,-60.0,75.0,0.0
-21.0,-61.0,74.0,0.0
-23.0,-69.0,82.0,0.0
-23.0,-72.0,83.0,0.0
-25.0,-76.0,87.0,0.0
-24.0,-77.0,84.0,0.0
-24.0,-79.0,86.0,0.0
-26.0,-85.0,90.0,0.0
-25.0,-83.0,87.0,0.0
-27.0,-92.0,93.0,0.0
-27.0,-94.0,94.0,0.0
-26.0,-92.0,89.0,0.0
-27.0,-97.0,92.0,0.0
-28.0,-103.0,96.0,0.0
-30.0,-112.0,101.0,0.0
-28.0,-106.0,93.0,0.0
-28.0,-107.0,93.0,0.0
-29.0,-114.0,96.0,0.0
-27.0,-110.0,92.0,0.0
-30.0,-124.0,100.0,0.0
-29.0,-119.0,95.0,0.0
-29.0,-121.0,94.0,0.0
-28.0,-122.0,92.0,0.0
-29.0,-130.0,96.0,0.0
-30.0,-134.0,97.0,0.0
-29.0,-133.0,93.0,0.0
-29.0,-136.0,94.0,0.0
-30.0,-141.0,95.0,0.0
-30.0,-144.0,94.0,0.0
-29.0,-141.0,91.0,0.0
-29.0,-145.0,91.0,0.0
-30.0,-151.0,93.0,0.0
-28.0,-145.0,87.0,0.0
-29.0,-152.0,88.0,0.0
-29.0,-158.0,90.0,0.0
-29.0,-159.0,89.0,0.0
-28.0,-156.0,84.0,0.0
-29.0,-165.0,86.0,0.0
-28.0,-164.0,83.0,0.0
-28.0,-165.0,82.0,0.0
-27.0,-162.0,78.0,0.0
-26.0,-162.0,76.0,0.0
-24.0,-150.0,69.0,0.0
-23.0,-147.0,66.0,0.0
-24.0,-155.0,67.0,0.0
-23.0,-153.0,64.0,0.0
-22.0,-149.0,60.0,0.0
-23.0,-159.0,63.0,0.0
-27.0,-193.0,73.0,0.0
-37.0,-264.0,98.0,0.0
-38.0,-281.0,100.0,0.0
-37.0,-277.0,95.0,0.0
-36.0,-280.0,93.0,0.0
-36.0,-283.0,91.0,0.0
-36.0,-287.0,89.0,0.0
-35.0,-290.0,86.0,0.0
-33.0,-283.0,81.0,0.0
-3205.0,19270.0,18087.0,0.0
-3285.0,19204.0,18415.0,0.0
-3319.0,18863.0,18478.0,0.0
-3329.0,18402.0,18417.0,0.0
-3521.0,18929.0,19354.0,0.0
-3617.0,18921.0,19766.0,0.0
-3702.0,18842.0,20110.0,0.0
-3789.0,18763.0,20463.0,0.0
-3873.0,18668.0,20805.0,0.0
-3887.0,18230.0,20763.0,0.0
-3999.0,18250.0,21243.0,0.0
-4017.0,17846.0,21232.0,0.0
-4212.0,18206.0,22141.0,0.0
-4340.0,18260.0,22703.0,0.0
-4437.0,18174.0,23103.0,0.0
-4540.0,18096.0,23525.0,0.0
-4643.0,18009.0,23944.0,0.0
-4742.0,17899.0,24343.0,0.0
-4852.0,17817.0,24792.0,0.0
-4954.0,17705.0,25209.0,0.0
-5059.0,17584.0,25626.0,0.0
-5137.0,17370.0,25914.0,0.0
-5182.0,17039.0,26030.0,0.0
-5209.0,16659.0,26066.0,0.0
-5532.0,17197.0,27564.0,0.0
-5650.0,17072.0,28042.0,0.0
-5774.0,16957.0,28552.0,0.0
-5897.0,16823.0,29047.0,0.0
-6027.0,16699.0,29574.0,0.0
-6097.0,16403.0,29810.0,0.0
-6229.0,16268.0,30348.0,0.0
-6345.0,16078.0,30800.0,0.0
-6582.0,16177.0,31839.0,0.0
-6703.0,15972.0,32309.0,0.0
-6849.0,15816.0,32901.0,0.0
-6851.0,15329.0,32807.0,0.0
-6879.0,14900.0,32827.0,0.0
-6844.0,14347.0,32558.0,0.0
-6818.0,13821.0,32327.0,0.0
-5597.0,10966.0,26454.0,0.0
-5646.0,10683.0,26598.0,0.0
-5638.0,10299.0,26485.0,0.0
-5635.0,9925.0,26385.0,0.0
-5634.0,9564.0,26303.0,0.0
-5640.0,9217.0,26250.0,0.0
-5627.0,8846.0,26114.0,0.0
-5631.0,8504.0,26053.0,0.0
-5621.0,8149.0,25937.0,0.0
-5157.0,7166.0,23727.0,0.0
-4960.0,6599.0,22758.0,0.0
-4949.0,6294.0,22642.0,0.0
-4977.0,6042.0,22707.0,0.0
-4994.0,5776.0,22723.0,0.0
-5157.0,5671.0,23398.0,0.0
-5163.0,5389.0,23365.0,0.0
-5164.0,5103.0,23307.0,0.0
-5173.0,4827.0,23284.0,0.0
-5166.0,4540.0,23194.0,0.0
-5169.0,4263.0,23145.0,0.0
-5173.0,3990.0,23107.0,0.0
-5181.0,3722.0,23080.0,0.0
-5176.0,3447.0,23002.0,0.0
-5178.0,3177.0,22949.0,0.0
-5177.0,2909.0,22891.0,0.0
-5178.0,2643.0,22834.0,0.0
-5188.0,2385.0,22824.0,0.0
-5188.0,2122.0,22765.0,0.0
-5183.0,1859.0,22691.0,0.0
-5177.0,1599.0,22607.0,0.0
-5192.0,1346.0,22618.0,0.0
-5188.0,1089.0,22548.0,0.0
-5184.0,834.0,22476.0,0.0
-5187.0,582.0,22434.0,0.0
-5195.0,330.0,22417.0,0.0
-5196.0,79.0,22370.0,0.0
-5193.0,-169.0,22300.0,0.0
-5191.0,-418.0,22243.0,0.0
-5194.0,-667.0,22201.0,0.0
-5194.0,-913.0,22151.0,0.0
-5191.0,-1159.0,22083.0,0.0
-5194.0,-1404.0,22046.0,0.0
-5197.0,-1649.0,22009.0,0.0
-5193.0,-1892.0,21941.0,0.0
-5186.0,-2132.0,21857.0,0.0
-5193.0,-2376.0,21838.0,0.0
-5201.0,-2623.0,21822.0,0.0
-5190.0,-2859.0,21725.0,0.0
-5192.0,-3101.0,21686.0,0.0
-5198.0,-3345.0,21658.0,0.0
-5461.0,-3767.0,22702.0,0.0
-5504.0,-4052.0,22829.0,0.0
-5203.0,-4071.0,21527.0,0.0
-5201.0,-4310.0,21472.0,0.0
-5190.0,-4541.0,21379.0,0.0
-5201.0,-4791.0,21372.0,0.0
-5202.0,-5034.0,21329.0,0.0
-5200.0,-5273.0,21275.0,0.0
-5201.0,-5513.0,21226.0,0.0
-5.0,-5.0,21.0,0.0
-10.0,-11.0,41.0,0.0
-7.0,-8.0,30.0,0.0
-6.0,-7.0,25.0,0.0
-5.0,-6.0,20.0,0.0
-7.0,-9.0,27.0,0.0
-8.0,-10.0,31.0,0.0
-11.0,-15.0,43.0,0.0
-1.0,-1.0,7.0,0.0
-10.0,-15.0,39.0,0.0
-8.0,-11.0,31.0,0.0
-7.0,-11.0,30.0,0.0
-7.0,-11.0,29.0,0.0
-5.0,-8.0,20.0,0.0
-11.0,-19.0,43.0,0.0
-12.0,-20.0,45.0,0.0
-13.0,-22.0,49.0,0.0
-10.0,-19.0,41.0,0.0
-9.0,-17.0,34.0,0.0
-11.0,-22.0,42.0,0.0
-14.0,-28.0,54.0,0.0
-10.0,-21.0,38.0,0.0
-9.0,-18.0,33.0,0.0
-17.0,-37.0,65.0,0.0
-13.0,-27.0,48.0,0.0
-16.0,-35.0,59.0,0.0
-19.0,-45.0,72.0,0.0
-16.0,-37.0,58.0,0.0
-17.0,-40.0,62.0,0.0
-17.0,-43.0,64.0,0.0
-19.0,-47.0,69.0,0.0
-21.0,-53.0,75.0,0.0
-19.0,-49.0,70.0,0.0
-21.0,-55.0,76.0,0.0
-20.0,-54.0,72.0,0.0
-20.0,-56.0,73.0,0.0
-22.0,-62.0,79.0,0.0
-22.0,-66.0,82.0,0.0
-22.0,-68.0,82.0,0.0
-21.0,-66.0,79.0,0.0
-22.0,-71.0,83.0,0.0
-24.0,-78.0,89.0,0.0
-24.0,-80.0,89.0,0.0
-22.0,-73.0,79.0,0.0
-23.0,-79.0,84.0,0.0
-26.0,-92.0,95.0,0.0
-25.0,-89.0,90.0,0.0
-27.0,-96.0,96.0,0.0
-27.0,-99.0,97.0,0.0
-27.0,-101.0,96.0,0.0
-27.0,-101.0,94.0,0.0
-29.0,-111.0,101.0,0.0
-28.0,-110.0,98.0,0.0
-26.0,-106.0,92.0,0.0
-29.0,-119.0,102.0,0.0
-28.0,-116.0,97.0,0.0
-25.0,-108.0,88.0,0.0
-29.0,-123.0,98.0,0.0
-27.0,-119.0,93.0,0.0
-30.0,-132.0,101.0,0.0
-28.0,-127.0,94.0,0.0
-29.0,-134.0,97.0,0.0
-29.0,-135.0,96.0,0.0
-30.0,-142.0,98.0,0.0
-30.0,-145.0,97.0,0.0
-30.0,-150.0,99.0,0.0
-29.0,-149.0,96.0,0.0
-29.0,-150.0,95.0,0.0
-29.0,-155.0,95.0,0.0
-29.0,-155.0,92.0,0.0
-29.0,-159.0,93.0,0.0
-29.0,-163.0,93.0,0.0
-29.0,-166.0,92.0,0.0
-28.0,-162.0,87.0,0.0
-27.0,-160.0,84.0,0.0
-26.0,-160.0,82.0,0.0
-26.0,-158.0,78.0,0.0
-24.0,-153.0,74.0,0.0
-24.0,-156.0,74.0,0.0
-24.0,-157.0,72.0,0.0
-23.0,-153.0,68.0,0.0
-23.0,-155.0,67.0,0.0
-23.0,-160.0,67.0,0.0
-22.0,-155.0,63.0,0.0
-23.0,-167.0,66.0,0.0
-25.0,-187.0,71.0,0.0
-35.0,-268.0,100.0,0.0
-36.0,-278.0,99.0,0.0
-36.0,-284.0,98.0,0.0
-35.0,-287.0,96.0,0.0
-35.0,-291.0,94.0,0.0
-34.0,-294.0,92.0,0.0
-34.0,-296.0,88.0,0.0
-34.0,-301.0,87.0,0.0
-3217.0,20843.0,19634.0,0.0
-3240.0,20395.0,19626.0,0.0
-3299.0,20173.0,19832.0,0.0
-3114.0,18499.0,18578.0,0.0
-3160.0,18242.0,18717.0,0.0
-3366.0,18888.0,19801.0,0.0
-3447.0,18800.0,20137.0,0.0
-3529.0,18716.0,20484.0,0.0
-3593.0,18527.0,20719.0,0.0
-3694.0,18516.0,21162.0,0.0
-3787.0,18465.0,21568.0,0.0
-3803.0,18033.0,21529.0,0.0
-3819.0,17611.0,21493.0,0.0
-4069.0,18252.0,22773.0,0.0
-4166.0,18173.0,23183.0,0.0
-4262.0,18084.0,23589.0,0.0
-4356.0,17975.0,23983.0,0.0
-4457.0,17888.0,24413.0,0.0
-4556.0,17781.0,24829.0,0.0
-4660.0,17686.0,25271.0,0.0
-4753.0,17538.0,25649.0,0.0
-4862.0,17444.0,26116.0,0.0
-4946.0,17245.0,26436.0,0.0
-4962.0,16818.0,26407.0,0.0
-5202.0,17131.0,27557.0,0.0
-5332.0,17063.0,28128.0,0.0
-5453.0,16949.0,28640.0,0.0
-5560.0,16781.0,29076.0,0.0
-5697.0,16694.0,29670.0,0.0
-5765.0,16399.0,29907.0,0.0
-5906.0,16298.0,30512.0,0.0
-5991.0,16034.0,30828.0,0.0
-6317.0,16395.0,32385.0,0.0
-6409.0,16119.0,32726.0,0.0
-6485.0,15800.0,32989.0,0.0
-6459.0,15241.0,32739.0,0.0
-6506.0,14859.0,32859.0,0.0
-6468.0,14289.0,32550.0,0.0
-6442.0,13760.0,32305.0,0.0
-5314.0,10968.0,26560.0,0.0
-5337.0,10635.0,26581.0,0.0
-5335.0,10259.0,26484.0,0.0
-5337.0,9894.0,26403.0,0.0
-5329.0,9516.0,26274.0,0.0
-5327.0,9157.0,26183.0,0.0
-5335.0,8818.0,26138.0,0.0
-5323.0,8451.0,25997.0,0.0
-5331.0,8120.0,25951.0,0.0
-4929.0,7196.0,23924.0,0.0
-4927.0,6884.0,23842.0,0.0
-4882.0,6519.0,23553.0,0.0
-4883.0,6222.0,23490.0,0.0
-5204.0,6316.0,24959.0,0.0
-5309.0,6126.0,25392.0,0.0
-5318.0,5821.0,25356.0,0.0
-5307.0,5499.0,25236.0,0.0
-5307.0,5192.0,25166.0,0.0
-5311.0,4891.0,25114.0,0.0
-5299.0,4579.0,24990.0,0.0
-5303.0,4284.0,24942.0,0.0
-5294.0,3981.0,24828.0,0.0
-5134.0,3577.0,24015.0,0.0
-5285.0,3392.0,24652.0,0.0
-5287.0,3106.0,24598.0,0.0
-5286.0,2821.0,24532.0,0.0
-5288.0,2539.0,24478.0,0.0
-5284.0,2255.0,24395.0,0.0
-5283.0,1977.0,24329.0,0.0
-5269.0,1695.0,24203.0,0.0
-5278.0,1424.0,24184.0,0.0
-5266.0,1147.0,24069.0,0.0
-5272.0,877.0,24034.0,0.0
-5270.0,607.0,23968.0,0.0
-5263.0,339.0,23878.0,0.0
-5254.0,71.0,23779.0,0.0
-5174.0,-189.0,23362.0,0.0
-5259.0,-456.0,23684.0,0.0
-5251.0,-718.0,23594.0,0.0
-5253.0,-980.0,23549.0,0.0
-5202.0,-1229.0,23260.0,0.0
-5222.0,-1492.0,23298.0,0.0
-5240.0,-1755.0,23321.0,0.0
-5237.0,-2012.0,23252.0,0.0
-5242.0,-2270.0,23219.0,0.0
-5236.0,-2524.0,23139.0,0.0
-5072.0,-2693.0,22366.0,0.0
-5232.0,-3032.0,23018.0,0.0
-5235.0,-3289.0,22976.0,0.0
-5112.0,-3460.0,22382.0,0.0
-5237.0,-3799.0,22880.0,0.0
-5242.0,-4057.0,22847.0,0.0
-5243.0,-4312.0,22798.0,0.0
-5142.0,-4478.0,22310.0,0.0
-5243.0,-4821.0,22695.0,0.0
-5239.0,-5071.0,22628.0,0.0
-5240.0,-5326.0,22577.0,0.0
-5239.0,-5579.0,22522.0,0.0
-5237.0,-5830.0,22460.0,0.0
-5128.0,-5960.0,21947.0,0.0
-6.0,-6.0,25.0,0.0
-4935.0,-6217.0,21022.0,0.0
-6.0,-7.0,26.0,0.0
-4754.0,-6456.0,20162.0,0.0
-5242.0,-7375.0,22177.0,0.0
-10.0,-13.0,39.0,0.0
-5.0,-6.0,19.0,0.0
-8.0,-11.0,33.0,0.0
-6.0,-9.0,24.0,0.0
-8.0,-11.0,31.0,0.0
-10.0,-16.0,39.0,0.0
-10.0,-18.0,44.0,0.0
-10.0,-19.0,45.0,0.0
-10.0,-19.0,45.0,0.0
-12.0,-23.0,52.0,0.0
-10.0,-18.0,40.0,0.0
-10.0,-17.0,37.0,0.0
-14.0,-29.0,58.0,0.0
-11.0,-24.0,47.0,0.0
-13.0,-28.0,54.0,0.0
-14.0,-31.0,58.0,0.0
-12.0,-28.0,50.0,0.0
-12.0,-29.0,50.0,0.0
-13.0,-31.0,54.0,0.0
-17.0,-40.0,67.0,0.0
-14.0,-36.0,58.0,0.0
-13.0,-32.0,52.0,0.0
-18.0,-45.0,70.0,0.0
-20.0,-51.0,76.0,0.0
-19.0,-51.0,75.0,0.0
-18.0,-49.0,70.0,0.0
-20.0,-59.0,82.0,0.0
-22.0,-64.0,89.0,0.0
-24.0,-71.0,95.0,0.0
-22.0,-66.0,86.0,0.0
-21.0,-65.0,83.0,0.0
-21.0,-66.0,82.0,0.0
-24.0,-77.0,94.0,0.0
-24.0,-79.0,93.0,0.0
-21.0,-71.0,82.0,0.0
-25.0,-84.0,96.0,0.0
-24.0,-81.0,91.0,0.0
-24.0,-85.0,92.0,0.0
-23.0,-81.0,87.0,0.0
-24.0,-86.0,89.0,0.0
-26.0,-97.0,99.0,0.0
-26.0,-97.0,97.0,0.0
-28.0,-106.0,103.0,0.0
-26.0,-101.0,97.0,0.0
-27.0,-106.0,98.0,0.0
-27.0,-111.0,100.0,0.0
-27.0,-109.0,97.0,0.0
-27.0,-112.0,98.0,0.0
-27.0,-114.0,97.0,0.0
-27.0,-121.0,101.0,0.0
-27.0,-123.0,100.0,0.0
-28.0,-127.0,101.0,0.0
-27.0,-125.0,98.0,0.0
-29.0,-137.0,104.0,0.0
-27.0,-133.0,99.0,0.0
-27.0,-133.0,97.0,0.0
-28.0,-140.0,99.0,0.0
-28.0,-146.0,101.0,0.0
-27.0,-141.0,96.0,0.0
-29.0,-154.0,103.0,0.0
-29.0,-158.0,102.0,0.0
-28.0,-153.0,96.0,0.0
-29.0,-162.0,100.0,0.0
-28.0,-161.0,96.0,0.0
-29.0,-167.0,98.0,0.0
-27.0,-163.0,93.0,0.0
-28.0,-170.0,95.0,0.0
-27.0,-165.0,90.0,0.0
-26.0,-164.0,86.0,0.0
-27.0,-171.0,88.0,0.0
-27.0,-175.0,87.0,0.0
-24.0,-164.0,80.0,0.0
-23.0,-162.0,77.0,0.0
-24.0,-168.0,77.0,0.0
-22.0,-160.0,71.0,0.0
-22.0,-161.0,70.0,0.0
-21.0,-160.0,67.0,0.0
-22.0,-172.0,70.0,0.0
-21.0,-167.0,66.0,0.0
-22.0,-177.0,68.0,0.0
-32.0,-260.0,96.0,0.0
-33.0,-282.0,101.0,0.0
-32.0,-279.0,97.0,0.0
-33.0,-291.0,98.0,0.0
-32.0,-294.0,95.0,0.0
-32.0,-296.0,93.0,0.0
-32.0,-302.0,90.0,0.0
-30.0,-296.0,86.0,0.0
-2703.0,19003.0,17961.0,0.0
-2712.0,18498.0,17861.0,0.0
-3047.0,20165.0,19890.0,0.0
-2908.0,18677.0,18821.0,0.0
-2925.0,18230.0,18768.0,0.0
-3110.0,18822.0,19797.0,0.0
-3499.0,20567.0,22103.0,0.0
-3481.0,19870.0,21820.0,0.0
-3553.0,19703.0,22110.0,0.0
-3608.0,19437.0,22289.0,0.0
-3447.0,18042.0,21144.0,0.0
-3485.0,17725.0,21232.0,0.0
-3549.0,17541.0,21477.0,0.0
-3610.0,17344.0,21710.0,0.0
-3882.0,18124.0,23197.0,0.0
-3983.0,18072.0,23653.0,0.0
-4091.0,18040.0,24149.0,0.0
-4165.0,17853.0,24446.0,0.0
-4258.0,17736.0,24847.0,0.0
-4363.0,17661.0,25318.0,0.0
-4463.0,17558.0,25762.0,0.0
-4565.0,17449.0,26210.0,0.0
-4601.0,17085.0,26279.0,0.0
-4660.0,16807.0,26477.0,0.0
-4709.0,16496.0,26624.0,0.0
-5010.0,17040.0,28184.0,0.0
-5124.0,16920.0,28687.0,0.0
-5225.0,16745.0,29113.0,0.0
-5354.0,16653.0,29699.0,0.0
-5424.0,16365.0,29950.0,0.0
-5559.0,16267.0,30561.0,0.0
-5626.0,15961.0,30792.0,0.0
-5946.0,16349.0,32407.0,0.0
-6066.0,16158.0,32920.0,0.0
-6086.0,15702.0,32899.0,0.0
-6092.0,15212.0,32794.0,0.0
-6080.0,14689.0,32600.0,0.0
-6097.0,14243.0,32560.0,0.0
-4886.0,11031.0,25993.0,0.0
-5009.0,10922.0,26544.0,0.0
-5032.0,10592.0,26571.0,0.0
-5024.0,10199.0,26427.0,0.0
-5031.0,9845.0,26370.0,0.0
-5032.0,9483.0,26282.0,0.0
-5030.0,9120.0,26177.0,0.0
-5033.0,8774.0,26109.0,0.0
-5024.0,8409.0,25970.0,0.0
-5027.0,8072.0,25901.0,0.0
-5030.0,7737.0,25826.0,0.0
-5016.0,7384.0,25676.0,0.0
-4946.0,6955.0,25234.0,0.0
-4971.0,6668.0,25283.0,0.0
-5013.0,6403.0,25414.0,0.0
-5015.0,6089.0,25346.0,0.0
-5023.0,5784.0,25309.0,0.0
-5022.0,5472.0,25226.0,0.0
-5020.0,5162.0,25141.0,0.0
-5018.0,4855.0,25056.0,0.0
-5014.0,4551.0,24965.0,0.0
-5013.0,4252.0,24887.0,0.0
-5013.0,3957.0,24818.0,0.0
-5013.0,3665.0,24747.0,0.0
-5010.0,3373.0,24663.0,0.0
-5002.0,3082.0,24558.0,0.0
-5005.0,2799.0,24501.0,0.0
-5007.0,2517.0,24443.0,0.0
-5002.0,2235.0,24356.0,0.0
-5000.0,1956.0,24284.0,0.0
-4998.0,1679.0,24208.0,0.0
-4996.0,1405.0,24137.0,0.0
-4999.0,1133.0,24086.0,0.0
-4995.0,862.0,24001.0,0.0
-4989.0,592.0,23913.0,0.0
-4995.0,327.0,23884.0,0.0
-4992.0,59.0,23806.0,0.0
-4988.0,-204.0,23732.0,0.0
-4980.0,-466.0,23633.0,0.0
-4981.0,-728.0,23582.0,0.0
-4974.0,-987.0,23489.0,0.0
-4947.0,-1239.0,23303.0,0.0
-4934.0,-1493.0,23188.0,0.0
-4939.0,-1749.0,23156.0,0.0
-4972.0,-2019.0,23253.0,0.0
-4970.0,-2273.0,23187.0,0.0
-4969.0,-2529.0,23133.0,0.0
-4909.0,-2749.0,22796.0,0.0
-4972.0,-3040.0,23041.0,0.0
-4973.0,-3295.0,22989.0,0.0
-4964.0,-3542.0,22895.0,0.0
-4976.0,-3804.0,22894.0,0.0
-4975.0,-4057.0,22837.0,0.0
-4970.0,-4307.0,22765.0,0.0
-4934.0,-4526.0,22546.0,0.0
-4978.0,-4821.0,22698.0,0.0
-4976.0,-5073.0,22638.0,0.0
-4968.0,-5318.0,22550.0,0.0
-4976.0,-5579.0,22533.0,0.0
-4975.0,-5832.0,22482.0,0.0
-4922.0,-6022.0,22191.0,0.0
-4591.0,-5853.0,20651.0,0.0
-4692.0,-6223.0,21060.0,0.0
-4696.0,-6470.0,21032.0,0.0
-5.0,-6.0,23.0,0.0
-6.0,-8.0,24.0,0.0
-4970.0,-7621.0,22111.0,0.0
-7.0,-11.0,31.0,0.0
-3.0,-4.0,11.0,0.0
-5.0,-6.0,19.0,0.0
-3.0,-4.0,11.0,0.0
-5.0,-8.0,19.0,0.0
-8.0,-15.0,36.0,0.0
-5.0,-7.0,19.0,0.0
-10.0,-19.0,43.0,0.0
-10.0,-19.0,43.0,0.0
-10.0,-20.0,44.0,0.0
-7.0,-15.0,32.0,0.0
-9.0,-19.0,39.0,0.0
-7.0,-14.0,30.0,0.0
-12.0,-25.0,48.0,0.0
-11.0,-25.0,46.0,0.0
-14.0,-34.0,62.0,0.0
-15.0,-36.0,64.0,0.0
-14.0,-34.0,59.0,0.0
-14.0,-35.0,60.0,0.0
-15.0,-38.0,62.0,0.0
-14.0,-37.0,59.0,0.0
-15.0,-40.0,62.0,0.0
-17.0,-48.0,72.0,0.0
-16.0,-44.0,65.0,0.0
-16.0,-47.0,67.0,0.0
-18.0,-52.0,74.0,0.0
-18.0,-56.0,78.0,0.0
-18.0,-57.0,76.0,0.0
-15.0,-47.0,61.0,0.0
-18.0,-60.0,77.0,0.0
-19.0,-64.0,80.0,0.0
-18.0,-62.0,77.0,0.0
-18.0,-62.0,74.0,0.0
-21.0,-74.0,87.0,0.0
-23.0,-80.0,91.0,0.0
-22.0,-79.0,89.0,0.0
-21.0,-77.0,84.0,0.0
-22.0,-83.0,88.0,0.0
-21.0,-79.0,83.0,0.0
-22.0,-84.0,86.0,0.0
-23.0,-89.0,90.0,0.0
-23.0,-97.0,94.0,0.0
-23.0,-99.0,95.0,0.0
-25.0,-106.0,99.0,0.0
-23.0,-101.0,92.0,0.0
-23.0,-102.0,91.0,0.0
-25.0,-111.0,97.0,0.0
-23.0,-109.0,92.0,0.0
-25.0,-117.0,98.0,0.0
-24.0,-114.0,94.0,0.0
-26.0,-130.0,104.0,0.0
-25.0,-123.0,96.0,0.0
-26.0,-127.0,98.0,0.0
-26.0,-130.0,97.0,0.0
-24.0,-127.0,92.0,0.0
-24.0,-129.0,92.0,0.0
-26.0,-142.0,99.0,0.0
-25.0,-139.0,94.0,0.0
-25.0,-143.0,95.0,0.0
-26.0,-151.0,99.0,0.0
-24.0,-142.0,90.0,0.0
-25.0,-154.0,95.0,0.0
-24.0,-148.0,90.0,0.0
-23.0,-141.0,83.0,0.0
-24.0,-155.0,89.0,0.0
-25.0,-163.0,91.0,0.0
-24.0,-165.0,90.0,0.0
-22.0,-157.0,83.0,0.0
-22.0,-154.0,79.0,0.0
-22.0,-158.0,80.0,0.0
-21.0,-153.0,75.0,0.0
-21.0,-161.0,77.0,0.0
-21.0,-156.0,72.0,0.0
-21.0,-162.0,73.0,0.0
-19.0,-154.0,67.0,0.0
-18.0,-144.0,61.0,0.0
-19.0,-158.0,65.0,0.0
-19.0,-169.0,67.0,0.0
-20.0,-179.0,69.0,0.0
-27.0,-237.0,89.0,0.0
-30.0,-282.0,102.0,0.0
-30.0,-279.0,98.0,0.0
-30.0,-290.0,98.0,0.0
-29.0,-291.0,95.0,0.0
-28.0,-290.0,91.0,0.0
-27.0,-292.0,88.0,0.0
-27.0,-295.0,86.0,0.0
-2638.0,20274.0,19225.0,0.0
-2688.0,20012.0,19387.0,0.0
-2527.0,18226.0,18037.0,0.0
-2682.0,18748.0,18954.0,0.0
-2684.0,18189.0,18786.0,0.0
-2746.0,18042.0,19039.0,0.0
-3233.0,20602.0,22212.0,0.0
-3285.0,20311.0,22375.0,0.0
-3302.0,19811.0,22301.0,0.0
-3308.0,19259.0,22156.0,0.0
-3119.0,17629.0,20726.0,0.0
-3177.0,17428.0,20943.0,0.0
-3320.0,17685.0,21723.0,0.0
-3368.0,17417.0,21872.0,0.0
-3427.0,17212.0,22101.0,0.0
-4929.0,24037.0,31561.0,0.0
-4924.0,23321.0,31318.0,0.0
-5023.0,23104.0,31740.0,0.0
-5053.0,22570.0,31721.0,0.0
-5080.0,22036.0,31693.0,0.0
-5553.0,23393.0,34435.0,0.0
-4233.0,17312.0,26089.0,0.0
-4646.0,18449.0,28469.0,0.0
-4428.0,17066.0,26974.0,0.0
-4418.0,16527.0,26762.0,0.0
-4696.0,17050.0,28292.0,0.0
-4795.0,16894.0,28737.0,0.0
-4889.0,16707.0,29142.0,0.0
-5017.0,16629.0,29753.0,0.0
-5086.0,16347.0,30015.0,0.0
-5205.0,16214.0,30562.0,0.0
-5345.0,16133.0,31230.0,0.0
-5636.0,16482.0,32778.0,0.0
-5701.0,16144.0,33001.0,0.0
-5716.0,15668.0,32940.0,0.0
-5699.0,15115.0,32695.0,0.0
-5731.0,14700.0,32735.0,0.0
-4504.0,11168.0,25620.0,0.0
-4584.0,10981.0,25966.0,0.0
-4727.0,10930.0,26657.0,0.0
-4723.0,10539.0,26530.0,0.0
-4735.0,10187.0,26491.0,0.0
-4734.0,9813.0,26379.0,0.0
-4734.0,9448.0,26280.0,0.0
-4734.0,9087.0,26181.0,0.0
-4725.0,8714.0,26027.0,0.0
-4732.0,8377.0,25969.0,0.0
-4741.0,8050.0,25927.0,0.0
-4728.0,7688.0,25764.0,0.0
-4733.0,7361.0,25703.0,0.0
-4733.0,7031.0,25611.0,0.0
-4724.0,6691.0,25476.0,0.0
-4744.0,6397.0,25497.0,0.0
-4732.0,6063.0,25351.0,0.0
-4739.0,5757.0,25301.0,0.0
-4737.0,5443.0,25208.0,0.0
-4734.0,5133.0,25115.0,0.0
-4745.0,4839.0,25091.0,0.0
-4741.0,4534.0,24995.0,0.0
-4741.0,4236.0,24918.0,0.0
-4733.0,3934.0,24800.0,0.0
-4732.0,3642.0,24724.0,0.0
-4739.0,3357.0,24683.0,0.0
-4729.0,3064.0,24562.0,0.0
-4732.0,2781.0,24508.0,0.0
-4739.0,2502.0,24469.0,0.0
-4735.0,2221.0,24382.0,0.0
-4731.0,1941.0,24296.0,0.0
-4721.0,1662.0,24177.0,0.0
-4728.0,1391.0,24144.0,0.0
-4731.0,1120.0,24091.0,0.0
-4723.0,848.0,23989.0,0.0
-4722.0,580.0,23922.0,0.0
-4722.0,314.0,23862.0,0.0
-4724.0,49.0,23811.0,0.0
-4717.0,-214.0,23715.0,0.0
-4716.0,-476.0,23646.0,0.0
-4712.0,-737.0,23568.0,0.0
-4711.0,-996.0,23504.0,0.0
-4711.0,-1255.0,23444.0,0.0
-4713.0,-1513.0,23395.0,0.0
-4696.0,-1764.0,23257.0,0.0
-4704.0,-2023.0,23238.0,0.0
-4700.0,-2277.0,23163.0,0.0
-4710.0,-2536.0,23156.0,0.0
-4699.0,-2784.0,23045.0,0.0
-4705.0,-3041.0,23021.0,0.0
-4703.0,-3293.0,22958.0,0.0
-4707.0,-3549.0,22925.0,0.0
-4711.0,-3805.0,22895.0,0.0
-4711.0,-4058.0,22837.0,0.0
-4704.0,-4305.0,22753.0,0.0
-4704.0,-4557.0,22702.0,0.0
-4704.0,-4810.0,22650.0,0.0
-4708.0,-5067.0,22619.0,0.0
-4702.0,-5314.0,22541.0,0.0
-4708.0,-5573.0,22518.0,0.0
-4.0,-4.0,18.0,0.0
-4.0,-4.0,18.0,0.0
-4669.0,-6282.0,22183.0,0.0
-4.0,-5.0,21.0,0.0
-4448.0,-6467.0,21039.0,0.0
-4695.0,-7082.0,22159.0,0.0
-4699.0,-7347.0,22136.0,0.0
-4705.0,-7614.0,22114.0,0.0
-4.0,-5.0,17.0,0.0
-4698.0,-8120.0,21983.0,0.0
-4692.0,-8372.0,21913.0,0.0
-4689.0,-8628.0,21852.0,0.0
-7.0,-13.0,32.0,0.0
-6.0,-11.0,27.0,0.0
-8.0,-14.0,34.0,0.0
-4681.0,-9672.0,21629.0,0.0
-5.0,-11.0,26.0,0.0
-8.0,-17.0,36.0,0.0
-7.0,-15.0,31.0,0.0
-8.0,-17.0,35.0,0.0
-14.0,-30.0,60.0,0.0
-10.0,-24.0,46.0,0.0
-9.0,-21.0,42.0,0.0
-13.0,-31.0,56.0,0.0
-14.0,-33.0,60.0,0.0
-14.0,-34.0,59.0,0.0
-13.0,-35.0,58.0,0.0
-14.0,-40.0,64.0,0.0
-15.0,-41.0,67.0,0.0
-15.0,-44.0,68.0,0.0
-17.0,-49.0,75.0,0.0
-12.0,-36.0,54.0,0.0
-18.0,-55.0,80.0,0.0
-18.0,-57.0,82.0,0.0
-19.0,-63.0,86.0,0.0
-20.0,-65.0,88.0,0.0
-18.0,-61.0,79.0,0.0
-17.0,-59.0,75.0,0.0
-18.0,-63.0,80.0,0.0
-21.0,-74.0,91.0,0.0
-21.0,-73.0,88.0,0.0
-20.0,-74.0,87.0,0.0
-21.0,-77.0,88.0,0.0
-20.0,-77.0,86.0,0.0
-21.0,-82.0,91.0,0.0
-24.0,-94.0,101.0,0.0
-25.0,-99.0,104.0,0.0
-22.0,-93.0,95.0,0.0
-20.0,-88.0,88.0,0.0
-23.0,-98.0,95.0,0.0
-24.0,-103.0,99.0,0.0
-22.0,-100.0,94.0,0.0
-24.0,-111.0,101.0,0.0
-23.0,-108.0,97.0,0.0
-22.0,-111.0,96.0,0.0
-23.0,-114.0,98.0,0.0
-21.0,-105.0,88.0,0.0
-23.0,-119.0,97.0,0.0
-25.0,-130.0,104.0,0.0
-23.0,-125.0,98.0,0.0
-25.0,-132.0,101.0,0.0
-25.0,-136.0,102.0,0.0
-25.0,-139.0,101.0,0.0
-24.0,-143.0,102.0,0.0
-24.0,-140.0,97.0,0.0
-25.0,-145.0,99.0,0.0
-24.0,-148.0,99.0,0.0
-24.0,-154.0,100.0,0.0
-25.0,-160.0,102.0,0.0
-25.0,-163.0,101.0,0.0
-23.0,-154.0,94.0,0.0
-26.0,-173.0,101.0,0.0
-23.0,-160.0,92.0,0.0
-23.0,-162.0,91.0,0.0
-25.0,-179.0,97.0,0.0
-22.0,-166.0,89.0,0.0
-21.0,-164.0,85.0,0.0
-21.0,-166.0,84.0,0.0
-19.0,-154.0,76.0,0.0
-21.0,-166.0,78.0,0.0
-19.0,-157.0,73.0,0.0
-20.0,-168.0,76.0,0.0
-20.0,-168.0,73.0,0.0
-19.0,-165.0,70.0,0.0
-20.0,-173.0,72.0,0.0
-18.0,-166.0,66.0,0.0
-18.0,-180.0,70.0,0.0
-25.0,-242.0,91.0,0.0
-27.0,-275.0,100.0,0.0
-28.0,-284.0,100.0,0.0
-27.0,-286.0,97.0,0.0
-27.0,-289.0,95.0,0.0
-25.0,-292.0,92.0,0.0
-25.0,-296.0,90.0,0.0
-24.0,-299.0,87.0,0.0
-2429.0,20587.0,19584.0,0.0
-2452.0,20092.0,19524.0,0.0
-2295.0,18190.0,18058.0,0.0
-2483.0,19044.0,19314.0,0.0
-2497.0,18536.0,19204.0,0.0
-2511.0,18052.0,19108.0,0.0
-2936.0,20445.0,22110.0,0.0
-2978.0,20087.0,22197.0,0.0
-3016.0,19718.0,22264.0,0.0
-3023.0,19158.0,22107.0,0.0
-2861.0,17573.0,20724.0,0.0
-2925.0,17428.0,21008.0,0.0
-3042.0,17572.0,21652.0,0.0
-3097.0,17355.0,21861.0,0.0
-4368.0,23742.0,30579.0,0.0
-4481.0,23629.0,31122.0,0.0
-4541.0,23234.0,31297.0,0.0
-4581.0,22743.0,31338.0,0.0
-4668.0,22485.0,31700.0,0.0
-5118.0,23918.0,34506.0,0.0
-4269.0,19360.0,28586.0,0.0
-4311.0,18968.0,28673.0,0.0
-4320.0,18438.0,28540.0,0.0
-4000.0,16558.0,26251.0,0.0
-4140.0,16627.0,27007.0,0.0
-4198.0,16347.0,27211.0,0.0
-4466.0,16865.0,28778.0,0.0
-4565.0,16712.0,29243.0,0.0
-4735.0,16803.0,30161.0,0.0
-4857.0,16702.0,30764.0,0.0
-4938.0,16450.0,31106.0,0.0
-5120.0,16521.0,32082.0,0.0
-5205.0,16261.0,32445.0,0.0
-5309.0,16053.0,32922.0,0.0
-5300.0,15504.0,32700.0,0.0
-5298.0,14987.0,32525.0,0.0
-5361.0,14661.0,32755.0,0.0
-4211.0,11127.0,25610.0,0.0
-4292.0,10950.0,25979.0,0.0
-4416.0,10872.0,26605.0,0.0
-4418.0,10492.0,26501.0,0.0
-4422.0,10119.0,26404.0,0.0
-4431.0,9766.0,26346.0,0.0
-4427.0,9390.0,26211.0,0.0
-4432.0,9037.0,26130.0,0.0
-4435.0,8690.0,26047.0,0.0
-4437.0,8342.0,25954.0,0.0
-4441.0,8002.0,25870.0,0.0
-4440.0,7660.0,25766.0,0.0
-4438.0,7321.0,25658.0,0.0
-4446.0,7003.0,25608.0,0.0
-4449.0,6679.0,25526.0,0.0
-4448.0,6355.0,25429.0,0.0
-4454.0,6044.0,25370.0,0.0
-4450.0,5722.0,25257.0,0.0
-4452.0,5415.0,25188.0,0.0
-4460.0,5116.0,25145.0,0.0
-4455.0,4806.0,25031.0,0.0
-4455.0,4506.0,24949.0,0.0
-4456.0,4207.0,24872.0,0.0
-4456.0,3913.0,24792.0,0.0
-4454.0,3620.0,24703.0,0.0
-4456.0,3332.0,24634.0,0.0
-4458.0,3047.0,24570.0,0.0
-4455.0,2761.0,24478.0,0.0
-4450.0,2477.0,24378.0,0.0
-4455.0,2200.0,24332.0,0.0
-4455.0,1924.0,24263.0,0.0
-4456.0,1649.0,24196.0,0.0
-4455.0,1377.0,24126.0,0.0
-4454.0,1105.0,24050.0,0.0
-4451.0,835.0,23966.0,0.0
-4451.0,567.0,23904.0,0.0
-4453.0,302.0,23847.0,0.0
-4446.0,37.0,23744.0,0.0
-4450.0,-224.0,23701.0,0.0
-4445.0,-485.0,23614.0,0.0
-4449.0,-746.0,23574.0,0.0
-4446.0,-1004.0,23499.0,0.0
-4442.0,-1261.0,23417.0,0.0
-4437.0,-1517.0,23330.0,0.0
-4439.0,-1772.0,23281.0,0.0
-4425.0,-2021.0,23151.0,0.0
-4419.0,-2272.0,23063.0,0.0
-4438.0,-2535.0,23107.0,0.0
-4442.0,-2791.0,23072.0,0.0
-4444.0,-3045.0,23029.0,0.0
-4446.0,-3300.0,22984.0,0.0
-4437.0,-3545.0,22889.0,0.0
-4444.0,-3803.0,22866.0,0.0
-4445.0,-4057.0,22823.0,0.0
-4444.0,-4307.0,22764.0,0.0
-4448.0,-4564.0,22738.0,0.0
-4447.0,-4816.0,22681.0,0.0
-4449.0,-5070.0,22636.0,0.0
-4448.0,-5321.0,22583.0,0.0
-4447.0,-5574.0,22530.0,0.0
-4439.0,-5816.0,22442.0,0.0
-4443.0,-6075.0,22413.0,0.0
-4414.0,-6287.0,22216.0,0.0
-4368.0,-6471.0,21936.0,0.0
-4274.0,-6580.0,21423.0,0.0
-4436.0,-7083.0,22182.0,0.0
-4438.0,-7344.0,22149.0,0.0
-4433.0,-7594.0,22080.0,0.0
-4434.0,-7855.0,22039.0,0.0
-4431.0,-8108.0,21977.0,0.0
-3.0,-4.0,14.0,0.0
-6.0,-11.0,28.0,0.0
-3.0,-6.0,17.0,0.0
-5.0,-10.0,24.0,0.0
-3.0,-7.0,17.0,0.0
-8.0,-16.0,38.0,0.0
-6.0,-12.0,29.0,0.0
-6.0,-15.0,33.0,0.0
-6.0,-13.0,28.0,0.0
-9.0,-21.0,43.0,0.0
-8.0,-20.0,40.0,0.0
-8.0,-20.0,39.0,0.0
-8.0,-21.0,40.0,0.0
-10.0,-28.0,51.0,0.0
-9.0,-27.0,47.0,0.0
-10.0,-29.0,51.0,0.0
-16.0,-46.0,76.0,0.0
-13.0,-36.0,59.0,0.0
-12.0,-36.0,57.0,0.0
-15.0,-45.0,70.0,0.0
-14.0,-44.0,67.0,0.0
-13.0,-42.0,62.0,0.0
-15.0,-47.0,69.0,0.0
-16.0,-56.0,79.0,0.0
-14.0,-47.0,66.0,0.0
-19.0,-69.0,93.0,0.0
-17.0,-60.0,79.0,0.0
-18.0,-65.0,82.0,0.0
-17.0,-63.0,78.0,0.0
-18.0,-68.0,84.0,0.0
-18.0,-69.0,83.0,0.0
-17.0,-68.0,81.0,0.0
-19.0,-78.0,89.0,0.0
-17.0,-68.0,77.0,0.0
-18.0,-75.0,83.0,0.0
-20.0,-87.0,93.0,0.0
-18.0,-80.0,84.0,0.0
-20.0,-89.0,91.0,0.0
-20.0,-90.0,90.0,0.0
-20.0,-91.0,90.0,0.0
-20.0,-95.0,90.0,0.0
-19.0,-93.0,88.0,0.0
-19.0,-93.0,86.0,0.0
-20.0,-104.0,94.0,0.0
-22.0,-112.0,99.0,0.0
-22.0,-114.0,98.0,0.0
-20.0,-103.0,87.0,0.0
-22.0,-118.0,97.0,0.0
-22.0,-121.0,98.0,0.0
-21.0,-125.0,98.0,0.0
-21.0,-120.0,92.0,0.0
-22.0,-132.0,99.0,0.0
-21.0,-129.0,95.0,0.0
-23.0,-143.0,103.0,0.0
-22.0,-137.0,96.0,0.0
-20.0,-134.0,92.0,0.0
-23.0,-147.0,99.0,0.0
-22.0,-144.0,94.0,0.0
-23.0,-153.0,97.0,0.0
-23.0,-165.0,103.0,0.0
-21.0,-149.0,91.0,0.0
-20.0,-149.0,88.0,0.0
-22.0,-160.0,91.0,0.0
-21.0,-161.0,90.0,0.0
-19.0,-152.0,84.0,0.0
-20.0,-159.0,85.0,0.0
-19.0,-157.0,82.0,0.0
-20.0,-169.0,86.0,0.0
-18.0,-158.0,78.0,0.0
-18.0,-162.0,78.0,0.0
-17.0,-155.0,72.0,0.0
-16.0,-156.0,71.0,0.0
-17.0,-162.0,71.0,0.0
-17.0,-166.0,71.0,0.0
-16.0,-163.0,68.0,0.0
-16.0,-168.0,67.0,0.0
-16.0,-173.0,67.0,0.0
-22.0,-239.0,90.0,0.0
-25.0,-275.0,101.0,0.0
-24.0,-280.0,100.0,0.0
-24.0,-284.0,97.0,0.0
-24.0,-289.0,96.0,0.0
-23.0,-290.0,92.0,0.0
-23.0,-293.0,89.0,0.0
-22.0,-297.0,87.0,0.0
-2171.0,20515.0,19573.0,0.0
-2189.0,19965.0,19459.0,0.0
-2211.0,19463.0,19379.0,0.0
-2234.0,18992.0,19318.0,0.0
-2215.0,18191.0,18903.0,0.0
-2271.0,18026.0,19137.0,0.0
-2646.0,20304.0,22023.0,0.0
-2580.0,19154.0,21228.0,0.0
-2566.0,18431.0,20874.0,0.0
-2748.0,19106.0,22112.0,0.0
-2652.0,17846.0,21108.0,0.0
-2736.0,17833.0,21559.0,0.0
-2787.0,17593.0,21740.0,0.0
-2833.0,17324.0,21887.0,0.0
-4129.0,24464.0,31601.0,0.0
-4105.0,23573.0,31138.0,0.0
-4165.0,23178.0,31315.0,0.0
-4265.0,23004.0,31793.0,0.0
-4290.0,22424.0,31708.0,0.0
-3828.0,19400.0,28071.0,0.0
-3813.0,18725.0,27731.0,0.0
-3916.0,18647.0,28271.0,0.0
-3720.0,17165.0,26649.0,0.0
-3824.0,17103.0,27198.0,0.0
-3900.0,16910.0,27548.0,0.0
-3923.0,16484.0,27522.0,0.0
-3888.0,15826.0,27086.0,0.0
-4231.0,16686.0,29286.0,0.0
-4352.0,16623.0,29928.0,0.0
-4488.0,16601.0,30671.0,0.0
-4583.0,16409.0,31122.0,0.0
-4718.0,16355.0,31858.0,0.0
-4901.0,16438.0,32900.0,0.0
-4936.0,16013.0,32943.0,0.0
-4955.0,15541.0,32880.0,0.0
-4956.0,15025.0,32711.0,0.0
-4987.0,14607.0,32741.0,0.0
-3920.0,11087.0,25600.0,0.0
-5010.0,13675.0,32550.0,0.0
-4113.0,10829.0,26587.0,0.0
-4120.0,10459.0,26506.0,0.0
-4127.0,10091.0,26421.0,0.0
-4131.0,9724.0,26319.0,0.0
-4136.0,9363.0,26225.0,0.0
-4146.0,9021.0,26170.0,0.0
-4135.0,8640.0,25988.0,0.0
-4150.0,8318.0,25969.0,0.0
-4149.0,7967.0,25849.0,0.0
-4156.0,7637.0,25783.0,0.0
-4157.0,7302.0,25684.0,0.0
-4164.0,6980.0,25620.0,0.0
-4159.0,6644.0,25490.0,0.0
-4163.0,6325.0,25414.0,0.0
-4172.0,6019.0,25366.0,0.0
-4174.0,5705.0,25284.0,0.0
-4169.0,5387.0,25160.0,0.0
-4179.0,5091.0,25126.0,0.0
-4175.0,4782.0,25015.0,0.0
-4171.0,4477.0,24907.0,0.0
-4181.0,4189.0,24876.0,0.0
-4175.0,3888.0,24752.0,0.0
-4180.0,3601.0,24699.0,0.0
-4180.0,3312.0,24616.0,0.0
-4188.0,3032.0,24585.0,0.0
-4188.0,2748.0,24505.0,0.0
-4184.0,2464.0,24402.0,0.0
-4182.0,2183.0,24313.0,0.0
-4185.0,1909.0,24256.0,0.0
-4183.0,1634.0,24176.0,0.0
-4179.0,1360.0,24076.0,0.0
-4186.0,1092.0,24049.0,0.0
-4179.0,822.0,23941.0,0.0
-4186.0,557.0,23908.0,0.0
-4185.0,291.0,23833.0,0.0
-4186.0,28.0,23769.0,0.0
-4178.0,-233.0,23662.0,0.0
-4181.0,-494.0,23616.0,0.0
-4185.0,-754.0,23570.0,0.0
-4182.0,-1012.0,23492.0,0.0
-4176.0,-1268.0,23397.0,0.0
-4171.0,-1522.0,23307.0,0.0
-4166.0,-1774.0,23222.0,0.0
-4169.0,-2030.0,23183.0,0.0
-4131.0,-2262.0,22913.0,0.0
-4133.0,-2514.0,22866.0,0.0
-4158.0,-2780.0,22953.0,0.0
-4166.0,-3037.0,22942.0,0.0
-4159.0,-3282.0,22846.0,0.0
-4167.0,-3540.0,22837.0,0.0
-4164.0,-3788.0,22764.0,0.0
-4162.0,-4037.0,22707.0,0.0
-4165.0,-4289.0,22668.0,0.0
-4169.0,-4545.0,22639.0,0.0
-4167.0,-4793.0,22579.0,0.0
-4165.0,-5042.0,22519.0,0.0
-4166.0,-5294.0,22472.0,0.0
-4167.0,-5546.0,22431.0,0.0
-4159.0,-5787.0,22341.0,0.0
-4163.0,-6046.0,22319.0,0.0
-4126.0,-6242.0,22075.0,0.0
-4121.0,-6485.0,21997.0,0.0
-4121.0,-6736.0,21952.0,0.0
-4158.0,-7052.0,22105.0,0.0
-4158.0,-7309.0,22062.0,0.0
-4160.0,-7569.0,22028.0,0.0
-6.0,-9.0,27.0,0.0
-4160.0,-8086.0,21940.0,0.0
-6.0,-10.0,27.0,0.0
-4102.0,-8489.0,21551.0,0.0
-4096.0,-8736.0,21477.0,0.0
-5.0,-10.0,26.0,0.0
-4100.0,-9268.0,21418.0,0.0
-7.0,-16.0,37.0,0.0
-6.0,-12.0,27.0,0.0
-6.0,-15.0,33.0,0.0
-6.0,-15.0,33.0,0.0
-4.0,-10.0,21.0,0.0
-9.0,-22.0,46.0,0.0
-10.0,-26.0,50.0,0.0
-10.0,-27.0,50.0,0.0
-12.0,-33.0,60.0,0.0
-10.0,-28.0,50.0,0.0
-12.0,-36.0,61.0,0.0
-8.0,-21.0,38.0,0.0
-10.0,-29.0,49.0,0.0
-14.0,-44.0,72.0,0.0
-12.0,-39.0,61.0,0.0
-13.0,-44.0,68.0,0.0
-13.0,-46.0,68.0,0.0
-16.0,-57.0,83.0,0.0
-14.0,-49.0,69.0,0.0
-17.0,-60.0,83.0,0.0
-18.0,-68.0,92.0,0.0
-18.0,-69.0,90.0,0.0
-17.0,-65.0,84.0,0.0
-17.0,-66.0,82.0,0.0
-18.0,-74.0,91.0,0.0
-18.0,-74.0,90.0,0.0
-19.0,-80.0,93.0,0.0
-19.0,-83.0,96.0,0.0
-19.0,-83.0,92.0,0.0
-19.0,-82.0,92.0,0.0
-21.0,-94.0,102.0,0.0
-19.0,-91.0,96.0,0.0
-21.0,-101.0,105.0,0.0
-19.0,-94.0,95.0,0.0
-19.0,-94.0,93.0,0.0
-21.0,-107.0,104.0,0.0
-20.0,-101.0,95.0,0.0
-20.0,-104.0,96.0,0.0
-21.0,-115.0,104.0,0.0
-20.0,-114.0,100.0,0.0
-21.0,-118.0,101.0,0.0
-21.0,-125.0,105.0,0.0
-22.0,-129.0,107.0,0.0
-19.0,-113.0,91.0,0.0
-20.0,-123.0,97.0,0.0
-20.0,-131.0,101.0,0.0
-22.0,-146.0,111.0,0.0
-22.0,-143.0,105.0,0.0
-20.0,-138.0,98.0,0.0
-20.0,-135.0,95.0,0.0
-22.0,-150.0,103.0,0.0
-20.0,-144.0,97.0,0.0
-21.0,-156.0,102.0,0.0
-20.0,-152.0,97.0,0.0
-21.0,-160.0,100.0,0.0
-20.0,-156.0,95.0,0.0
-20.0,-162.0,97.0,0.0
-21.0,-169.0,98.0,0.0
-19.0,-165.0,93.0,0.0
-20.0,-171.0,94.0,0.0
-19.0,-165.0,89.0,0.0
-19.0,-176.0,92.0,0.0
-17.0,-161.0,82.0,0.0
-17.0,-160.0,79.0,0.0
-17.0,-165.0,80.0,0.0
-16.0,-156.0,74.0,0.0
-16.0,-166.0,75.0,0.0
-16.0,-168.0,74.0,0.0
-15.0,-164.0,70.0,0.0
-15.0,-169.0,71.0,0.0
-14.0,-169.0,69.0,0.0
-15.0,-185.0,72.0,0.0
-19.0,-233.0,88.0,0.0
-22.0,-278.0,103.0,0.0
-22.0,-285.0,101.0,0.0
-22.0,-289.0,99.0,0.0
-21.0,-293.0,97.0,0.0
-21.0,-296.0,95.0,0.0
-19.0,-291.0,90.0,0.0
-19.0,-295.0,87.0,0.0
-1815.0,19406.0,18568.0,0.0
-1817.0,18685.0,18263.0,0.0
-1872.0,18523.0,18495.0,0.0
-1958.0,18675.0,19049.0,0.0
-1995.0,18335.0,19106.0,0.0
-2032.0,18013.0,19178.0,0.0
-2406.0,20580.0,22386.0,0.0
-3475.0,28692.0,31889.0,0.0
-2304.0,18368.0,20861.0,0.0
-3548.0,27326.0,31715.0,0.0
-2492.0,18557.0,22011.0,0.0
-2519.0,18133.0,21983.0,0.0
-2538.0,17660.0,21886.0,0.0
-2584.0,17399.0,22045.0,0.0
-3633.0,23663.0,30653.0,0.0
-3710.0,23389.0,30984.0,0.0
-3735.0,22786.0,30871.0,0.0
-3886.0,22951.0,31808.0,0.0
-3911.0,22358.0,31703.0,0.0
-4293.0,23765.0,34485.0,0.0
-3460.0,18547.0,27546.0,0.0
-3538.0,18365.0,27924.0,0.0
-3640.0,18291.0,28479.0,0.0
-3509.0,17077.0,27232.0,0.0
-3484.0,16417.0,26823.0,0.0
-3597.0,16409.0,27475.0,0.0
-3670.0,16207.0,27819.0,0.0
-3723.0,15914.0,28014.0,0.0
-3724.0,15404.0,27814.0,0.0
-3707.0,14838.0,27494.0,0.0
-4275.0,16552.0,31488.0,0.0
-4398.0,16471.0,32179.0,0.0
-4460.0,16151.0,32419.0,0.0
-4554.0,15941.0,32892.0,0.0
-4583.0,15502.0,32895.0,0.0
-4600.0,15028.0,32817.0,0.0
-4602.0,14518.0,32640.0,0.0
-3630.0,11051.0,25593.0,0.0
-4639.0,13621.0,32521.0,0.0
-3815.0,10800.0,26598.0,0.0
-3813.0,10399.0,26437.0,0.0
-3824.0,10041.0,26373.0,0.0
-3834.0,9686.0,26304.0,0.0
-3835.0,9314.0,26173.0,0.0
-3847.0,8977.0,26128.0,0.0
-3851.0,8623.0,26022.0,0.0
-3856.0,8279.0,25936.0,0.0
-3859.0,7935.0,25833.0,0.0
-3862.0,7596.0,25733.0,0.0
-3868.0,7268.0,25658.0,0.0
-3875.0,6946.0,25586.0,0.0
-3874.0,6616.0,25473.0,0.0
-3885.0,6307.0,25431.0,0.0
-3887.0,5988.0,25335.0,0.0
-3887.0,5673.0,25238.0,0.0
-3886.0,5360.0,25132.0,0.0
-3897.0,5066.0,25104.0,0.0
-3892.0,4754.0,24971.0,0.0
-3896.0,4457.0,24903.0,0.0
-3906.0,4169.0,24870.0,0.0
-3903.0,3871.0,24757.0,0.0
-3910.0,3585.0,24716.0,0.0
-3910.0,3296.0,24626.0,0.0
-3913.0,3012.0,24558.0,0.0
-3907.0,2724.0,24437.0,0.0
-3913.0,2448.0,24398.0,0.0
-3914.0,2170.0,24323.0,0.0
-3912.0,1892.0,24227.0,0.0
-3917.0,1621.0,24183.0,0.0
-3918.0,1350.0,24109.0,0.0
-3914.0,1078.0,24011.0,0.0
-3921.0,812.0,23976.0,0.0
-3921.0,545.0,23904.0,0.0
-3919.0,281.0,23821.0,0.0
-3920.0,18.0,23761.0,0.0
-3914.0,-243.0,23659.0,0.0
-3916.0,-503.0,23607.0,0.0
-3921.0,-763.0,23565.0,0.0
-3918.0,-1019.0,23486.0,0.0
-3916.0,-1275.0,23407.0,0.0
-3913.0,-1530.0,23330.0,0.0
-3901.0,-1779.0,23197.0,0.0
-3906.0,-2034.0,23165.0,0.0
-3891.0,-2277.0,23017.0,0.0
-3886.0,-2525.0,22934.0,0.0
-3899.0,-2784.0,22950.0,0.0
-3911.0,-3044.0,22962.0,0.0
-3912.0,-3295.0,22915.0,0.0
-3919.0,-3552.0,22899.0,0.0
-3914.0,-3799.0,22826.0,0.0
-3920.0,-4055.0,22800.0,0.0
-3920.0,-4305.0,22748.0,0.0
-3918.0,-4554.0,22691.0,0.0
-3916.0,-4802.0,22627.0,0.0
-3920.0,-5058.0,22601.0,0.0
-3921.0,-5312.0,22559.0,0.0
-3908.0,-5546.0,22441.0,0.0
-3907.0,-5795.0,22384.0,0.0
-3913.0,-6058.0,22377.0,0.0
-3883.0,-6261.0,22157.0,0.0
-3858.0,-6472.0,21969.0,0.0
-5.0,-8.0,29.0,0.0
-3908.0,-7067.0,22170.0,0.0
-3903.0,-7313.0,22096.0,0.0
-6.0,-11.0,33.0,0.0
-3901.0,-7825.0,22001.0,0.0
-3901.0,-8085.0,21960.0,0.0
-3900.0,-8344.0,21915.0,0.0
-3872.0,-8545.0,21719.0,0.0
-5.0,-11.0,29.0,0.0
-3872.0,-9073.0,21645.0,0.0
-3878.0,-9354.0,21642.0,0.0
-3886.0,-9641.0,21649.0,0.0
-3.0,-7.0,17.0,0.0
-6.0,-13.0,31.0,0.0
-6.0,-17.0,36.0,0.0
-6.0,-15.0,31.0,0.0
-9.0,-24.0,49.0,0.0
-11.0,-31.0,60.0,0.0
-10.0,-29.0,54.0,0.0
-8.0,-26.0,47.0,0.0
-10.0,-29.0,52.0,0.0
-10.0,-33.0,57.0,0.0
-9.0,-30.0,50.0,0.0
-12.0,-40.0,65.0,0.0
-11.0,-36.0,59.0,0.0
-14.0,-52.0,80.0,0.0
-14.0,-51.0,78.0,0.0
-12.0,-46.0,68.0,0.0
-14.0,-50.0,72.0,0.0
-14.0,-54.0,77.0,0.0
-16.0,-60.0,83.0,0.0
-14.0,-58.0,79.0,0.0
-14.0,-55.0,73.0,0.0
-14.0,-59.0,77.0,0.0
-14.0,-60.0,75.0,0.0
-16.0,-71.0,89.0,0.0
-15.0,-66.0,80.0,0.0
-16.0,-74.0,87.0,0.0
-18.0,-79.0,92.0,0.0
-17.0,-81.0,91.0,0.0
-15.0,-71.0,78.0,0.0
-17.0,-83.0,89.0,0.0
-17.0,-82.0,87.0,0.0
-17.0,-87.0,90.0,0.0
-17.0,-89.0,89.0,0.0
-18.0,-95.0,94.0,0.0
-17.0,-92.0,90.0,0.0
-17.0,-94.0,90.0,0.0
-18.0,-103.0,95.0,0.0
-17.0,-98.0,89.0,0.0
-17.0,-100.0,89.0,0.0
-18.0,-110.0,95.0,0.0
-17.0,-105.0,88.0,0.0
-19.0,-122.0,100.0,0.0
-18.0,-116.0,94.0,0.0
-18.0,-119.0,94.0,0.0
-19.0,-130.0,101.0,0.0
-20.0,-136.0,102.0,0.0
-19.0,-135.0,99.0,0.0
-17.0,-127.0,91.0,0.0
-18.0,-140.0,99.0,0.0
-18.0,-137.0,94.0,0.0
-19.0,-142.0,96.0,0.0
-18.0,-147.0,97.0,0.0
-18.0,-151.0,97.0,0.0
-19.0,-157.0,98.0,0.0
-19.0,-158.0,97.0,0.0
-18.0,-160.0,95.0,0.0
-18.0,-160.0,93.0,0.0
-18.0,-167.0,95.0,0.0
-17.0,-170.0,93.0,0.0
-18.0,-168.0,90.0,0.0
-16.0,-162.0,86.0,0.0
-16.0,-163.0,83.0,0.0
-15.0,-156.0,78.0,0.0
-15.0,-162.0,79.0,0.0
-14.0,-154.0,73.0,0.0
-13.0,-157.0,71.0,0.0
-13.0,-159.0,71.0,0.0
-13.0,-160.0,69.0,0.0
-12.0,-157.0,66.0,0.0
-13.0,-171.0,70.0,0.0
-13.0,-176.0,69.0,0.0
-14.0,-205.0,78.0,0.0
-19.0,-275.0,101.0,0.0
-19.0,-284.0,102.0,0.0
-19.0,-290.0,100.0,0.0
-18.0,-290.0,97.0,0.0
-18.0,-295.0,95.0,0.0
-16.0,-289.0,90.0,0.0
-17.0,-302.0,90.0,0.0
-2807.0,34539.0,33139.0,0.0
-2818.0,33228.0,32568.0,0.0
-1713.0,19379.0,19402.0,0.0
-1763.0,19149.0,19585.0,0.0
-1784.0,18623.0,19459.0,0.0
-1793.0,17997.0,19212.0,0.0
-2134.0,20613.0,22483.0,0.0
-3079.0,28638.0,31916.0,0.0
-2055.0,18420.0,20976.0,0.0
-2175.0,18790.0,21866.0,0.0
-2220.0,18501.0,22004.0,0.0
-2230.0,17929.0,21795.0,0.0
-2252.0,17471.0,21710.0,0.0
-3252.0,24357.0,30943.0,0.0
-3379.0,24443.0,31749.0,0.0
-3355.0,23446.0,31142.0,0.0
-3359.0,22689.0,30824.0,0.0
-3489.0,22771.0,31646.0,0.0
-3535.0,22311.0,31721.0,0.0
-3168.0,19330.0,28124.0,0.0
-3132.0,18480.0,27520.0,0.0
-3268.0,18648.0,28430.0,0.0
-3302.0,18224.0,28450.0,0.0
-3319.0,17714.0,28327.0,0.0
-3340.0,17241.0,28247.0,0.0
-3379.0,16868.0,28321.0,0.0
-3393.0,16379.0,28191.0,0.0
-3401.0,15873.0,28019.0,0.0
-3358.0,15151.0,27434.0,0.0
-3409.0,14875.0,27640.0,0.0
-3913.0,16498.0,31471.0,0.0
-3967.0,16169.0,31676.0,0.0
-4099.0,16137.0,32484.0,0.0
-4186.0,15917.0,32938.0,0.0
-4207.0,15445.0,32871.0,0.0
-4216.0,14941.0,32719.0,0.0
-4241.0,14497.0,32687.0,0.0
-3346.0,11029.0,25618.0,0.0
-3483.0,11068.0,26501.0,0.0
-3519.0,10775.0,26617.0,0.0
-3529.0,10402.0,26523.0,0.0
-3525.0,9998.0,26338.0,0.0
-3533.0,9635.0,26243.0,0.0
-3546.0,9294.0,26198.0,0.0
-3556.0,8948.0,26124.0,0.0
-3559.0,8588.0,26001.0,0.0
-3565.0,8244.0,25908.0,0.0
-3575.0,7914.0,25849.0,0.0
-3580.0,7576.0,25749.0,0.0
-3582.0,7239.0,25638.0,0.0
-3588.0,6913.0,25556.0,0.0
-3596.0,6596.0,25489.0,0.0
-3600.0,6277.0,25401.0,0.0
-3607.0,5966.0,25335.0,0.0
-3613.0,5658.0,25265.0,0.0
-3617.0,5350.0,25182.0,0.0
-3619.0,5043.0,25087.0,0.0
-3625.0,4743.0,25019.0,0.0
-3631.0,4449.0,24959.0,0.0
-3630.0,4148.0,24854.0,0.0
-3632.0,3855.0,24767.0,0.0
-3631.0,3562.0,24667.0,0.0
-3637.0,3278.0,24611.0,0.0
-3640.0,2995.0,24538.0,0.0
-3643.0,2713.0,24468.0,0.0
