//X,Y,Z,Classification
84,-266,143,0.0
88,-275,153,0.0
94,-289,165,0.0
91,-275,160,0.0
92,-271,163,0.0
84,-245,151,0.0
79,-226,143,0.0
76,-216,139,0.0
70,-195,130,0.0
71,-193,131,0.0
0,0,0,0.0
0,0,0,0.0
0,0,0,0.0
0,0,0,0.0
0,0,0,0.0
0,0,0,0.0
9628,-23463,18757,0.0
9627,-23087,18887,0.0
9590,-22631,18943,0.0
9574,-22229,19039,0.0
9574,-21872,19164,0.0
9526,-21406,19191,0.0
9540,-21088,19342,0.0
9494,-20640,19365,0.0
9499,-20308,19492,0.0
9476,-19919,19559,0.0
9442,-19513,19602,0.0
9450,-19199,19729,0.0
9425,-18819,19786,0.0
9394,-18430,19827,0.0
9376,-18075,19894,0.0
9389,-17780,20026,0.0
9352,-17394,20049,0.0
9360,-17097,20167,0.0
9323,-16718,20186,0.0
9314,-16392,20262,0.0
9462,-16344,20681,0.0
9745,-16515,21400,0.0
9858,-16387,21747,0.0
10178,-16590,22552,0.0
10443,-16688,23241,0.0
11411,-17872,25506,1.0
11383,-17467,25549,1.0
0,0,0,0.0
0,0,0,0.0
0,0,0,0.0
11584,-16329,26427,1.0
11602,-15996,26572,1.0
0,0,0,0.0
11595,-15275,26758,1.0
11589,-14915,26845,1.0
11621,-14603,27018,1.0
11644,-14279,27169,1.0
11575,-13845,27102,1.0
0,0,0,0.0
11612,-13193,27379,1.0
11586,-12817,27411,1.0
11635,-12525,27617,1.0
11622,-12165,27676,1.0
11589,-11788,27690,1.0
11576,-11432,27748,1.0
11592,-11106,27874,1.0
11607,-10779,27996,1.0
11642,-10468,28165,1.0
11663,-10143,28301,1.0
11612,-9760,28264,1.0
0,0,0,0.0
11667,-9123,28563,1.0
11742,-8838,28829,1.0
11713,-8473,28838,1.0
11722,-8137,28939,1.0
11705,-7783,28978,1.0
11699,-7438,29043,1.0
11696,-7095,29113,1.0
0,0,0,0.0
11745,-6439,29391,1.0
11778,-6113,29549,1.0
11774,-5767,29614,1.0
11785,-5427,29716,1.0
11762,-5071,29732,1.0
11822,-4750,29958,1.0
11812,-4399,30006,1.0
11794,-4046,30035,1.0
11804,-3700,30129,1.0
11748,-3336,30057,1.0
11808,-3004,30281,1.0
11791,-2649,30307,1.0
10259,-2000,26430,0.0
9590,-1584,24764,0.0
9259,-1252,23960,0.0
9111,-959,23629,0.0
9099,-684,23652,0.0
9103,-410,23713,0.0
9125,-134,23821,0.0
9131,143,23888,0.0
9131,421,23939,0.0
9130,702,23986,0.0
9173,987,24146,0.0
9149,1267,24133,0.0
9168,1554,24231,0.0
9174,1841,24294,0.0
9183,2132,24365,0.0
9180,2420,24407,0.0
9183,2712,24459,0.0
9202,3011,24558,0.0
9220,3312,24651,0.0
9222,3609,24703,0.0
9229,3912,24768,0.0
9234,4215,24827,0.0
9252,4527,24920,0.0
9259,4837,24985,0.0
9265,5149,25047,0.0
9274,5465,25114,0.0
9277,5779,25165,0.0
9,5,26,0.0
14,10,41,0.0
12,9,35,0.0
12,9,34,0.0
17,13,49,0.0
23,19,64,0.0
25,22,70,0.0
28,24,77,0.0
27,25,77,0.0
29,29,84,0.0
32,33,90,0.0
31,33,88,0.0
31,34,89,0.0
38,43,108,0.0
34,40,96,0.0
37,45,105,0.0
37,46,104,0.0
38,50,109,0.0
39,52,109,0.0
43,59,123,0.0
42,59,119,0.0
46,68,131,0.0
48,73,137,0.0
44,68,125,0.0
42,68,122,0.0
45,75,131,0.0
45,75,129,0.0
44,76,127,0.0
46,82,132,0.0
44,80,127,0.0
45,84,130,0.0
43,82,122,0.0
43,86,126,0.0
42,86,122,0.0
40,85,118,0.0
42,88,121,0.0
40,86,116,0.0
40,88,116,0.0
38,87,111,0.0
39,92,114,0.0
36,89,109,0.0
38,95,114,0.0
37,94,110,0.0
35,93,106,0.0
35,93,104,0.0
35,95,104,0.0
36,99,106,0.0
35,99,104,0.0
36,107,108,0.0
36,107,107,0.0
35,106,103,0.0
36,114,109,0.0
37,117,109,0.0
37,121,111,0.0
37,120,108,0.0
36,123,108,0.0
52,-281,77,0.0
52,-277,78,0.0
54,-279,83,0.0
55,-279,86,0.0
57,-284,90,0.0
58,-286,95,0.0
59,-282,98,0.0
59,-282,100,0.0
61,-284,104,0.0
63,-285,108,0.0
63,-283,111,0.0
64,-279,113,0.0
65,-284,119,0.0
66,-279,121,0.0
66,-274,122,0.0
68,-280,129,0.0
68,-276,130,0.0
68,-271,132,0.0
71,-279,138,0.0
71,-273,140,0.0
72,-270,142,0.0
74,-275,148,0.0
85,-309,172,0.0
78,-281,160,0.0
74,-260,151,0.0
72,-251,150,0.0
69,-238,145,0.0
69,-234,147,0.0
63,-210,135,0.0
60,-195,128,0.0
61,-198,134,0.0
56,-178,124,0.0
0,0,0,0.0
622,-1892,1371,0.0
0,0,0,0.0
0,0,0,0.0
0,0,0,0.0
8288,-23594,18757,0.0
8269,-23154,18834,0.0
8248,-22717,18903,0.0
8262,-22380,19050,0.0
8247,-21971,19131,0.0
8225,-21550,19193,0.0
8214,-21160,19275,0.0
8213,-20802,19382,0.0
8196,-20408,19447,0.0
8184,-20031,19522,0.0
8184,-19689,19626,0.0
8146,-19259,19634,0.0
8144,-18921,19730,0.0
8147,-18597,19835,0.0
8142,-18257,19919,0.0
8121,-17884,19960,0.0
8114,-17548,20036,0.0
8107,-17218,20114,0.0
8055,-16793,20073,0.0
8093,-16560,20257,0.0
8105,-16275,20376,0.0
8263,-16279,20863,0.0
8451,-16333,21428,0.0
8687,-16463,22116,0.0
8948,-16625,22871,0.0
9912,-18052,25439,1.0
9948,-17753,25630,1.0
9958,-17409,25756,1.0
9988,-17103,25934,1.0
0,0,0,0.0
10063,-16508,26321,1.0
10080,-16179,26462,1.0
0,0,0,0.0
10070,-15455,26626,1.0
0,0,0,0.0
10056,-14732,26773,1.0
0,0,0,0.0
10356,-14456,27758,1.0
0,0,0,0.0
10400,-13804,28056,1.0
0,0,0,0.0
0,0,0,0.0
0,0,0,0.0
0,0,0,0.0
0,0,0,0.0
0,0,0,0.0
10140,-11065,27956,1.0
10162,-10749,28099,1.0
10161,-10409,28178,1.0
10114,-10026,28131,1.0
10145,-9720,28299,1.0
10163,-9400,28425,1.0
10160,-9060,28497,1.0
10136,-8705,28511,1.0
10133,-8368,28578,1.0
10206,-8091,28863,1.0
10204,-7753,28935,1.0
0,0,0,0.0
10214,-7087,29118,1.0
0,0,0,0.0
10285,-6459,29472,1.0
10258,-6103,29469,1.0
10271,-5773,29582,1.0
10305,-5451,29757,1.0
0,0,0,0.0
10284,-4759,29842,1.0
0,0,0,0.0
0,0,0,0.0
10294,-3739,30089,1.0
10323,-3406,30248,1.0
10353,-3069,30407,1.0
10362,-2726,30503,1.0
10351,-2375,30547,1.0
8519,-1669,25198,0.0
8269,-1341,24516,0.0
7964,-1022,23665,0.0
7718,-728,22987,0.0
7955,-479,23746,0.0
7961,-207,23817,0.0
7954,65,23850,0.0
7963,340,23931,0.0
7980,617,24037,0.0
7967,893,24049,0.0
7988,1175,24163,0.0
7985,1455,24206,0.0
8000,1740,24306,0.0
7997,2023,24348,0.0
7995,2308,24395,0.0
8013,2601,24504,0.0
8026,2895,24595,0.0
8007,3180,24590,0.0
8028,3481,24705,0.0
8028,3777,24757,0.0
8029,4075,24813,0.0
8030,4376,24868,0.0
8046,4687,24972,0.0
8045,4992,25021,0.0
8047,5300,25079,0.0
8057,5617,25161,0.0
8057,5930,25214,0.0
8076,6259,25323,0.0
15,11,48,0.0
15,13,50,0.0
15,14,50,0.0
17,17,57,0.0
25,24,82,0.0
26,27,86,0.0
25,26,82,0.0
25,27,81,0.0
27,31,88,0.0
32,37,102,0.0
29,36,97,0.0
36,45,116,0.0
34,45,112,0.0
32,44,106,0.0
35,50,115,0.0
35,51,115,0.0
38,58,126,0.0
38,60,127,0.0
37,61,125,0.0
42,70,139,0.0
43,74,142,0.0
42,74,140,0.0
36,66,123,0.0
39,72,129,0.0
40,77,134,0.0
41,82,139,0.0
42,85,140,0.0
42,87,141,0.0
40,88,138,0.0
39,87,133,0.0
38,86,130,0.0
37,87,127,0.0
37,87,125,0.0
37,92,128,0.0
37,94,129,0.0
34,90,120,0.0
33,88,115,0.0
34,93,119,0.0
35,98,122,0.0
35,100,121,0.0
33,97,116,0.0
33,101,117,0.0
32,99,112,0.0
32,102,114,0.0
31,99,108,0.0
30,101,108,0.0
30,101,106,0.0
33,112,115,0.0
32,114,114,0.0
30,111,109,0.0
30,115,111,0.0
32,123,114,0.0
31,123,112,0.0
32,129,116,0.0
42,-276,78,0.0
41,-269,79,0.0
43,-274,84,0.0
44,-276,87,0.0
45,-277,92,0.0
45,-272,93,0.0
47,-273,97,0.0
48,-278,103,0.0
49,-275,104,0.0
49,-274,107,0.0
50,-272,110,0.0
52,-279,116,0.0
52,-273,117,0.0
53,-276,122,0.0
54,-275,125,0.0
55,-277,130,0.0
56,-275,132,0.0
56,-272,135,0.0
56,-266,135,0.0
58,-272,142,0.0
58,-263,141,0.0
65,-289,159,0.0
66,-288,162,0.0
60,-260,151,0.0
60,-258,153,0.0
58,-241,146,0.0
56,-230,143,0.0
56,-226,145,0.0
53,-213,139,0.0
52,-203,136,0.0
53,-204,140,0.0
49,-184,130,0.0
45,-164,118,0.0
43,-157,116,0.0
0,0,0,0.0
517,-1793,1383,0.0
6956,-23685,18697,0.0
6960,-23294,18810,0.0
6945,-22850,18873,0.0
6957,-22498,19005,0.0
6953,-22098,19092,0.0
6953,-21719,19189,0.0
6952,-21342,19283,0.0
6930,-20907,19317,0.0
6935,-20555,19420,0.0
6924,-20166,19483,0.0
6927,-19821,19580,0.0
6917,-19440,19638,0.0
6903,-19059,19687,0.0
6892,-18686,19739,0.0
6913,-18405,19882,0.0
6908,-18061,19953,0.0
6890,-17685,19982,0.0
6886,-17350,20052,0.0
6881,-17016,20118,0.0
6882,-16700,20198,0.0
6884,-16390,20283,0.0
7003,-16355,20711,0.0
7201,-16494,21375,0.0
7281,-16353,21692,0.0
7513,-16545,22467,0.0
7746,-16715,23242,0.0
8421,-17808,25359,1.0
8488,-17586,25650,1.0
0,0,0,0.0
8764,-17411,26665,1.0
8949,-17402,27318,1.0
0,0,0,0.0
0,0,0,0.0
0,0,0,0.0
0,0,0,0.0
0,0,0,0.0
0,0,0,0.0
9613,-15932,30005,1.0
0,0,0,0.0
0,0,0,0.0
0,0,0,0.0
9610,-14397,30357,1.0
0,0,0,0.0
0,0,0,0.0
9602,-13257,30599,1.0
0,0,0,0.0
0,0,0,0.0
0,0,0,0.0
0,0,0,0.0
0,0,0,0.0
0,0,0,0.0
0,0,0,0.0
0,0,0,0.0
0,0,0,0.0
0,0,0,0.0
0,0,0,0.0
9519,-8763,31343,1.0
0,0,0,0.0
0,0,0,0.0
0,0,0,0.0
0,0,0,0.0
0,0,0,0.0
9393,-6512,31408,1.0
0,0,0,0.0
0,0,0,0.0
0,0,0,0.0
0,0,0,0.0
0,0,0,0.0
9451,-4398,32079,1.0
9369,-4003,31880,1.0
0,0,0,0.0
0,0,0,0.0
9254,-2889,31723,1.0
0,0,0,0.0
7406,-1741,25510,0.0
7134,-1400,24632,0.0
6835,-1076,23657,0.0
6604,-781,22917,0.0
6823,-541,23733,0.0
6833,-273,23821,0.0
6828,-2,23864,0.0
6815,267,23878,0.0
6837,540,24013,0.0
6833,814,24055,0.0
6848,1091,24167,0.0
6824,1364,24140,0.0
6833,1644,24231,0.0
6843,1927,24325,0.0
6825,2203,24320,0.0
6848,2495,24460,0.0
6854,2783,24541,0.0
6843,3066,24563,0.0
6850,3359,24647,0.0
6863,3658,24756,0.0
6859,3951,24803,0.0
6870,4255,24901,0.0
6869,4555,24959,0.0
6853,4846,24965,0.0
6866,5161,25074,0.0
6866,5468,25135,0.0
6864,5777,25191,0.0
6873,6099,25285,0.0
7,7,31,0.0
9,10,37,0.0
15,15,57,0.0
16,17,63,0.0
18,20,69,0.0
16,19,62,0.0
18,23,73,0.0
21,27,82,0.0
22,30,87,0.0
24,34,94,0.0
26,38,100,0.0
26,39,101,0.0
27,42,106,0.0
28,46,110,0.0
28,47,111,0.0
27,47,108,0.0
31,56,124,0.0
31,58,126,0.0
31,60,125,0.0
32,63,129,0.0
34,69,136,0.0
34,69,134,0.0
36,76,142,0.0
33,73,133,0.0
34,77,135,0.0
36,84,145,0.0
33,80,133,0.0
34,83,137,0.0
33,84,135,0.0
32,84,131,0.0
28,78,119,0.0
29,82,123,0.0
30,87,127,0.0
29,86,123,0.0
27,81,113,0.0
29,93,125,0.0
27,86,114,0.0
27,89,117,0.0
27,93,119,0.0
26,90,111,0.0
26,93,114,0.0
26,94,113,0.0
26,99,115,0.0
25,99,112,0.0
25,100,111,0.0
25,101,110,0.0
23,97,104,0.0
23,98,102,0.0
23,101,104,0.0
23,104,104,0.0
23,108,105,0.0
25,119,113,0.0
22,107,100,0.0
24,121,111,0.0
24,-272,81,0.0
25,-266,82,0.0
26,-276,89,0.0
25,-267,89,0.0
27,-271,93,0.0
27,-269,96,0.0
29,-273,101,0.0
30,-274,104,0.0
30,-268,105,0.0
31,-272,110,0.0
32,-269,112,0.0
32,-271,117,0.0
32,-268,119,0.0
33,-264,121,0.0
35,-270,127,0.0
34,-263,128,0.0
37,-271,134,0.0
37,-266,135,0.0
36,-257,134,0.0
40,-284,153,0.0
42,-288,159,0.0
40,-268,152,0.0
37,-245,143,0.0
36,-228,136,0.0
35,-217,132,0.0
33,-199,124,0.0
34,-207,133,0.0
36,-208,136,0.0
32,-187,125,0.0
30,-171,117,0.0
33,-180,128,0.0
29,-155,112,0.0
30,-161,119,0.0
356,-1863,1407,0.0
0,0,0,0.0
4711,-23683,18708,0.0
4730,-23321,18839,0.0
4733,-22881,18902,0.0
4740,-22474,18982,0.0
4757,-22117,19100,0.0
4754,-21678,19141,0.0
4761,-21292,19220,0.0
4773,-20937,19320,0.0
4793,-20622,19453,0.0
4783,-20180,19459,0.0
4794,-19837,19554,0.0
4802,-19492,19640,0.0
4810,-19149,19724,0.0
4809,-18772,19767,0.0
4813,-18426,19835,0.0
4828,-18121,19942,0.0
4829,-17774,19999,0.0
4830,-17424,20047,0.0
4835,-17102,20121,0.0
4837,-16769,20176,0.0
4844,-16458,20253,0.0
4875,-16229,20427,0.0
4995,-16294,20981,0.0
5101,-16305,21482,0.0
5253,-16447,22172,0.0
5398,-16552,22839,0.0
0,0,0,0.0
6029,-17721,25626,1.0
0,0,0,0.0
0,0,0,0.0
0,0,0,0.0
0,0,0,0.0
0,0,0,0.0
6726,-17317,28986,1.0
0,0,0,0.0
0,0,0,0.0
0,0,0,0.0
0,0,0,0.0
0,0,0,0.0
0,0,0,0.0
0,0,0,0.0
0,0,0,0.0
0,0,0,0.0
0,0,0,0.0
0,0,0,0.0
0,0,0,0.0
0,0,0,0.0
0,0,0,0.0
0,0,0,0.0
0,0,0,0.0
7167,-11713,32128,1.0
0,0,0,0.0
0,0,0,0.0
0,0,0,0.0
0,0,0,0.0
0,0,0,0.0
7039,-9301,32013,1.0
0,0,0,0.0
0,0,0,0.0
0,0,0,0.0
0,0,0,0.0
6789,-7221,31256,1.0
0,0,0,0.0
0,0,0,0.0
0,0,0,0.0
0,0,0,0.0
7016,-5660,32710,1.0
0,0,0,0.0
0,0,0,0.0
6999,-4565,32889,1.0
0,0,0,0.0
6905,-3789,32624,1.0
0,0,0,0.0
0,0,0,0.0
0,0,0,0.0
5492,-1868,26230,0.0
5150,-1480,24667,0.0
4961,-1164,23827,0.0
4895,-889,23575,0.0
4903,-630,23679,0.0
4913,-368,23801,0.0
4915,-103,23877,0.0
4910,162,23922,0.0
4907,428,23981,0.0
4894,695,23989,0.0
4903,966,24104,0.0
4902,1239,24174,0.0
4897,1511,24227,0.0
4904,1789,24341,0.0
4891,2062,24352,0.0
4883,2338,24392,0.0
4891,2625,24511,0.0
4890,2908,24585,0.0
4879,3188,24609,0.0
4880,3478,24699,0.0
4875,3767,24759,0.0
4873,4060,24833,0.0
4867,4353,24893,0.0
4854,4641,24914,0.0
4853,4945,25006,0.0
4853,5252,25094,0.0
2,1,10,0.0
0,0,0,0.0
4,4,21,0.0
6,7,28,0.0
12,17,64,0.0
9,12,45,0.0
12,18,64,0.0
14,21,69,0.0
15,24,78,0.0
17,30,93,0.0
17,31,93,0.0
16,29,86,0.0
16,31,87,0.0
19,40,108,0.0
16,35,90,0.0
17,37,94,0.0
19,44,106,0.0
19,45,106,0.0
19,47,106,0.0
22,55,120,0.0
21,54,117,0.0
22,60,127,0.0
21,60,121,0.0
21,59,116,0.0
22,66,128,0.0
22,68,127,0.0
22,70,127,0.0
23,77,136,0.0
23,77,132,0.0
21,74,125,0.0
22,79,131,0.0
21,77,124,0.0
19,75,119,0.0
19,78,119,0.0
19,79,118,0.0
20,85,124,0.0
19,84,121,0.0
18,82,114,0.0
18,87,119,0.0
17,86,114,0.0
18,90,117,0.0
17,89,113,0.0
17,94,116,0.0
16,91,112,0.0
17,95,114,0.0
16,91,105,0.0
16,94,107,0.0
16,96,106,0.0
15,95,103,0.0
15,98,105,0.0
14,96,101,0.0
14,99,101,0.0
14,102,102,0.0
14,109,107,0.0
14,109,105,0.0
13,112,104,0.0
12,-282,86,0.0
12,-283,89,0.0
13,-279,92,0.0
14,-275,94,0.0
14,-275,97,0.0
14,-274,100,0.0
16,-281,106,0.0
16,-280,109,0.0
16,-277,112,0.0
18,-274,113,0.0
18,-276,118,0.0
19,-273,120,0.0
19,-273,123,0.0
21,-284,132,0.0
21,-275,132,0.0
21,-273,135,0.0
23,-275,139,0.0
23,-270,140,0.0
24,-284,151,0.0
27,-304,166,0.0
27,-296,166,0.0
27,-279,161,0.0
26,-272,160,0.0
25,-251,152,0.0
25,-243,151,0.0
23,-221,141,0.0
24,-217,142,0.0
24,-218,146,0.0
21,-184,126,0.0
23,-193,135,0.0
22,-186,133,0.0
20,-166,120,0.0
18,-144,108,0.0
20,-152,116,0.0
18,-137,107,0.0
14,-102,82,0.0
13,-88,73,0.0
11,-76,63,0.0
3214,-22274,19055,0.0
3221,-21819,19082,0.0
3243,-21477,19199,0.0
3260,-21105,19284,0.0
3277,-20744,19373,0.0
3292,-20379,19453,0.0
3298,-19965,19477,0.0
3316,-19641,19585,0.0
3332,-19303,19673,0.0
3350,-18988,19778,0.0
3357,-18609,19813,0.0
3366,-18262,19873,0.0
3380,-17937,19954,0.0
3391,-17608,20023,0.0
3404,-17293,20104,0.0
3389,-16838,20013,0.0
3424,-16645,20229,0.0
3434,-16334,20300,0.0
3508,-16323,20747,0.0
3614,-16449,21385,0.0
3676,-16365,21764,0.0
3802,-16549,22520,0.0
3914,-16661,23199,0.0
4310,-17938,25566,1.0
4345,-17681,25796,1.0
0,0,0,0.0
0,0,0,0.0
0,0,0,0.0
4791,-17781,28551,1.0
4863,-17626,29007,1.0
0,0,0,0.0
0,0,0,0.0
0,0,0,0.0
0,0,0,0.0
5056,-16224,30335,1.0
0,0,0,0.0
0,0,0,0.0
0,0,0,0.0
5164,-14944,31162,1.0
0,0,0,0.0
0,0,0,0.0
0,0,0,0.0
0,0,0,0.0
5024,-12639,30559,1.0
0,0,0,0.0
5125,-12141,31288,1.0
0,0,0,0.0
5194,-11551,31830,1.0
0,0,0,0.0
0,0,0,0.0
0,0,0,0.0
5178,-10037,31985,1.0
0,0,0,0.0
0,0,0,0.0
0,0,0,0.0
4963,-8227,30923,1.0
0,0,0,0.0
0,0,0,0.0
4985,-7225,31286,1.0
5097,-7035,32068,1.0
5164,-6772,32576,1.0
0,0,0,0.0
5179,-6075,32839,1.0
0,0,0,0.0
0,0,0,0.0
0,0,0,0.0
0,0,0,0.0
0,0,0,0.0
0,0,0,0.0
5029,-3455,32526,1.0
4988,-3078,32368,1.0
4956,-2710,32260,1.0
4072,-1938,26589,0.0
3763,-1525,24657,0.0
3674,-1227,24149,0.0
3594,-943,23706,0.0
3526,-671,23340,0.0
3576,-422,23754,0.0
3583,-162,23880,0.0
3576,100,23921,0.0
3575,365,24004,0.0
3564,629,24022,0.0
3562,897,24111,0.0
3553,1163,24141,0.0
3546,1432,24189,0.0
3545,1705,24285,0.0
3538,1978,24335,0.0
3532,2254,24408,0.0
3528,2533,24486,0.0
3521,2811,24545,0.0
3514,3091,24604,0.0
3503,3373,24652,0.0
3497,3659,24722,0.0
3488,3945,24775,0.0
3483,4240,24866,0.0
3470,4528,24907,0.0
3463,4825,24982,0.0
3458,5129,25081,0.0
2,2,14,0.0
2,4,18,0.0
2,4,18,0.0
4,7,30,0.0
9,18,73,0.0
9,18,68,0.0
8,17,60,0.0
11,23,79,0.0
13,29,95,0.0
12,30,93,0.0
12,31,94,0.0
13,33,98,0.0
12,31,88,0.0
16,45,122,0.0
12,35,93,0.0
14,43,111,0.0
15,51,126,0.0
14,47,113,0.0
15,53,121,0.0
15,56,127,0.0
14,56,123,0.0
17,67,142,0.0
16,63,130,0.0
17,73,146,0.0
16,73,142,0.0
15,70,132,0.0
15,73,135,0.0
16,79,142,0.0
15,78,137,0.0
16,84,145,0.0
15,81,135,0.0
14,79,130,0.0
13,81,129,0.0
15,93,144,0.0
14,88,134,0.0
13,90,133,0.0
13,93,134,0.0
12,90,127,0.0
13,95,131,0.0
12,95,128,0.0
13,99,130,0.0
11,91,117,0.0
11,96,120,0.0
10,93,115,0.0
11,103,125,0.0
10,102,120,0.0
9,97,112,0.0
9,98,111,0.0
9,104,115,0.0
9,106,115,0.0
8,106,112,0.0
9,109,114,0.0
8,109,111,0.0
8,116,116,0.0
7,117,113,0.0
8,123,117,0.0
-1,-298,93,0.0
0,-300,97,0.0
0,-288,97,0.0
0,-286,99,0.0
1,-283,102,0.0
1,-279,104,0.0
2,-272,105,0.0
3,-277,110,0.0
3,-272,112,0.0
4,-279,118,0.0
4,-274,119,0.0
4,-266,120,0.0
5,-264,122,0.0
6,-264,125,0.0
6,-260,127,0.0
7,-269,135,0.0
7,-262,135,0.0
8,-266,140,0.0
9,-288,156,0.0
10,-297,165,0.0
11,-302,172,0.0
10,-279,163,0.0
11,-270,162,0.0
11,-253,155,0.0
11,-246,154,0.0
10,-228,147,0.0
11,-227,150,0.0
11,-216,146,0.0
11,-221,152,0.0
11,-202,143,0.0
11,-181,130,0.0
11,-183,135,0.0
10,-162,122,0.0
9,-151,117,0.0
9,-126,100,0.0
7,-98,79,0.0
6,-86,72,0.0
5,-79,67,0.0
6,-79,68,0.0
1734,-21677,19150,0.0
1761,-21332,19260,0.0
1784,-20960,19341,0.0
1807,-20593,19419,0.0
1832,-20260,19524,0.0
1852,-19874,19573,0.0
1870,-19510,19635,0.0
1889,-19142,19686,0.0
1910,-18827,19787,0.0
1929,-18482,19853,0.0
1948,-18159,19935,0.0
1965,-17814,19989,0.0
1981,-17479,20047,0.0
1997,-17151,20107,0.0
2012,-16829,20169,0.0
2024,-16474,20186,0.0
2046,-16231,20334,0.0
2107,-16277,20854,0.0
2164,-16292,21346,0.0
2234,-16384,21959,0.0
2318,-16564,22709,0.0
2400,-16705,23434,0.0
2616,-17753,25487,1.0
2627,-17368,25522,1.0
0,0,0,0.0
0,0,0,0.0
2876,-17589,27752,1.0
0,0,0,0.0
0,0,0,0.0
0,0,0,0.0
3092,-17034,29656,1.0
3118,-16727,29871,1.0
3154,-16471,30182,1.0
3181,-16175,30423,1.0
3208,-15873,30656,1.0
0,0,0,0.0
0,0,0,0.0
0,0,0,0.0
3240,-14335,30915,1.0
0,0,0,0.0
0,0,0,0.0
0,0,0,0.0
0,0,0,0.0
3228,-12312,30854,1.0
0,0,0,0.0
0,0,0,0.0
0,0,0,0.0
3311,-11092,31754,1.0
3309,-10714,31783,1.0
0,0,0,0.0
0,0,0,0.0
0,0,0,0.0
0,0,0,0.0
3211,-8620,31077,1.0
0,0,0,0.0
0,0,0,0.0
0,0,0,0.0
3236,-7296,31598,1.0
3287,-7060,32168,1.0
0,0,0,0.0
0,0,0,0.0
0,0,0,0.0
0,0,0,0.0
3305,-5345,32814,1.0
3288,-4968,32748,1.0
3279,-4605,32764,1.0
0,0,0,0.0
3222,-3838,32423,1.0
0,0,0,0.0
0,0,0,0.0
3145,-2732,32028,1.0
2611,-1985,26706,0.0
2427,-1579,24919,0.0
2363,-1278,24374,0.0
2283,-981,23658,0.0
2257,-718,23501,0.0
2269,-467,23745,0.0
2267,-208,23844,0.0
2260,50,23898,0.0
2257,312,23994,0.0
2248,575,24036,0.0
2238,838,24059,0.0
2229,1102,24111,0.0
2225,1371,24217,0.0
2214,1639,24252,0.0
2208,1912,24351,0.0
2199,2184,24412,0.0
2191,2460,24485,0.0
2179,2734,24521,0.0
2170,3015,24611,0.0
2161,3298,24689,0.0
2144,3571,24689,0.0
2135,3861,24784,0.0
2121,4146,24832,0.0
2112,4442,24937,0.0
2097,4728,24967,0.0
2085,5030,25067,0.0
2072,5327,25128,0.0
1,3,16,0.0
2,5,25,0.0
1,3,16,0.0
4,12,52,0.0
5,15,59,0.0
5,20,73,0.0
5,20,68,0.0
5,21,73,0.0
6,25,80,0.0
7,31,98,0.0
6,32,96,0.0
8,35,102,0.0
7,36,101,0.0
7,40,108,0.0
7,37,95,0.0
7,44,109,0.0
7,45,108,0.0
7,47,111,0.0
8,58,133,0.0
8,57,126,0.0
9,63,135,0.0
9,67,140,0.0
8,67,136,0.0
8,70,139,0.0
7,66,127,0.0
8,70,133,0.0
7,71,130,0.0
8,83,147,0.0
7,80,139,0.0
6,74,126,0.0
7,84,139,0.0
6,86,138,0.0
6,91,143,0.0
6,90,140,0.0
5,86,131,0.0
5,94,138,0.0
4,90,128,0.0
5,94,132,0.0
5,99,136,0.0
4,98,130,0.0
4,94,123,0.0
4,104,134,0.0
4,104,130,0.0
3,96,118,0.0
2,100,120,0.0
2,98,115,0.0
3,102,117,0.0
1,105,117,0.0
2,103,113,0.0
1,99,106,0.0
1,112,117,0.0
1,105,107,0.0
0,113,113,0.0
0,122,121,0.0
0,115,111,0.0
-16,-328,104,0.0
-16,-321,106,0.0
-14,-318,108,0.0
-14,-312,111,0.0
-12,-303,111,0.0
-11,-282,107,0.0
-11,-282,110,0.0
-11,-276,111,0.0
-9,-272,113,0.0
-8,-267,114,0.0
-9,-270,119,0.0
-9,-267,121,0.0
-7,-254,118,0.0
-7,-260,124,0.0
-7,-263,129,0.0
-7,-267,135,0.0
-6,-258,134,0.0
-5,-270,144,0.0
-6,-303,166,0.0
-5,-293,164,0.0
-5,-278,160,0.0
-4,-263,156,0.0
-3,-256,155,0.0
-3,-244,151,0.0
-2,-235,149,0.0
-2,-218,142,0.0
-2,-216,143,0.0
-1,-206,141,0.0
-1,-204,142,0.0
0,-185,132,0.0
0,-175,127,0.0
0,-179,133,0.0
0,-154,117,0.0
0,-149,117,0.0
0,0,0,0.0
1,-118,96,0.0
171,-24843,20715,0.0
214,-25079,21373,0.0
253,-24689,21506,0.0
291,-24231,21570,0.0
302,-21937,19957,0.0
330,-21338,19836,0.0
362,-21037,19985,0.0
396,-20829,20219,0.0
412,-19829,19667,0.0
448,-19826,20095,0.0
519,-21307,22068,0.0
489,-18674,19763,0.0
515,-18349,19843,0.0
540,-18046,19944,0.0
565,-17721,20015,0.0
587,-17393,20077,0.0
609,-17082,20154,0.0
630,-16731,20178,0.0
651,-16424,20251,0.0
674,-16209,20432,0.0
709,-16246,20941,0.0
743,-16249,21419,0.0
774,-16189,21825,0.0
822,-16454,22691,0.0
0,0,0,0.0
950,-17499,25264,1.0
974,-17227,25454,1.0
994,-16883,25538,1.0
1009,-16508,25568,1.0
1031,-16228,25740,1.0
1045,-15834,25728,1.0
0,0,0,0.0
1123,-15828,27009,1.0
1162,-15790,27627,1.0
0,0,0,0.0
1225,-15508,28549,1.0
0,0,0,0.0
0,0,0,0.0
0,0,0,0.0
1288,-14209,29093,1.0
0,0,0,0.0
0,0,0,0.0
1310,-13042,29063,1.0
1325,-12756,29270,1.0
0,0,0,0.0
1359,-12210,29757,1.0
0,0,0,0.0
1370,-11476,29791,1.0
1386,-11205,30054,1.0
1394,-10877,30170,1.0
0,0,0,0.0
0,0,0,0.0
1393,-9735,30023,1.0
1400,-9417,30153,1.0
1401,-9063,30164,1.0
0,0,0,0.0
0,0,0,0.0
1342,-7682,28951,1.0
1343,-7357,28990,1.0
0,0,0,0.0
1336,-6686,28958,1.0
1341,-6397,29142,1.0
1371,-6221,29879,1.0
0,0,0,0.0
1406,-5729,30857,1.0
1344,-5166,29606,1.0
1341,-4846,29667,1.0
1336,-4519,29683,1.0
1344,-4239,30029,1.0
1336,-3905,30005,1.0
1337,-3601,30216,1.0
1334,-3283,30350,1.0
0,0,0,0.0
1312,-2612,30264,1.0
1123,-1970,26122,0.0
1078,-1631,25285,0.0
1035,-1314,24470,0.0
992,-1013,23664,0.0
984,-757,23696,0.0
978,-502,23773,0.0
969,-246,23827,0.0
961,11,23871,0.0
952,270,23949,0.0
941,530,23978,0.0
932,792,24043,0.0
922,1055,24099,0.0
912,1322,24186,0.0
901,1588,24245,0.0
889,1855,24297,0.0
876,2124,24335,0.0
865,2398,24427,0.0
851,2674,24505,0.0
838,2950,24571,0.0
825,3232,24660,0.0
808,3505,24672,0.0
793,3790,24750,0.0
776,4073,24803,0.0
761,4361,24870,0.0
744,4655,24962,0.0
725,4942,24993,0.0
708,5245,25101,0.0
0,5,23,0.0
0,7,32,0.0
0,6,28,0.0
1,9,35,0.0
1,19,70,0.0
2,19,71,0.0
1,16,58,0.0
1,23,78,0.0
1,25,83,0.0
1,25,79,0.0
2,27,80,0.0
1,33,97,0.0
2,34,94,0.0
2,34,94,0.0
1,41,106,0.0
1,41,106,0.0
0,42,103,0.0
1,45,108,0.0
1,53,122,0.0
1,50,113,0.0
1,60,131,0.0
1,60,128,0.0
0,64,131,0.0
0,66,133,0.0
0,66,130,0.0
0,71,135,0.0
0,77,141,0.0
0,81,146,0.0
0,77,136,0.0
0,83,142,0.0
-1,86,143,0.0
-1,88,143,0.0
-1,90,143,0.0
-1,87,135,0.0
-2,88,133,0.0
-2,99,146,0.0
-1,90,130,0.0
-2,103,145,0.0
-3,98,136,0.0
-3,96,130,0.0
-3,95,127,0.0
-3,105,135,0.0
-4,98,123,0.0
-4,105,131,0.0
-4,103,124,0.0
-4,98,116,0.0
-4,103,119,0.0
-4,100,113,0.0
-5,105,117,0.0
-5,99,107,0.0
-5,106,113,0.0
-6,110,114,0.0
-6,120,122,0.0
-6,115,115,0.0
-6,122,119,0.0
-31,-356,114,0.0
-30,-342,114,0.0
-29,-342,118,0.0
-27,-337,120,0.0
-27,-322,119,0.0
-25,-315,119,0.0
-24,-307,121,0.0
-24,-316,128,0.0
-23,-307,128,0.0
-22,-290,125,0.0
-22,-296,131,0.0
-20,-279,127,0.0
-20,-289,135,0.0
-20,-279,134,0.0
-20,-288,143,0.0
-19,-285,144,0.0
-20,-299,157,0.0
-20,-313,168,0.0
-19,-300,165,0.0
-17,-269,152,0.0
-16,-272,157,0.0
-16,-260,154,0.0
-15,-250,152,0.0
-13,-229,143,0.0
-13,-223,143,0.0
-11,-209,137,0.0
-11,-206,138,0.0
-10,-196,135,0.0
-109,-2002,1403,0.0
0,0,0,0.0
0,0,0,0.0
0,0,0,0.0
0,0,0,0.0
0,0,0,0.0
0,0,0,0.0
-1171,-24900,20407,0.0
0,0,0,0.0
-1123,-25040,21438,0.0
-1077,-24603,21528,0.0
-1030,-24123,21570,0.0
-987,-23701,21657,0.0
-942,-23242,21701,0.0
-903,-22863,21812,0.0
-863,-22434,21869,0.0
-825,-22053,21965,0.0
-787,-21664,22049,0.0
-752,-21283,22132,0.0
-715,-20857,22163,0.0
-680,-20471,22227,0.0
-647,-20099,22302,0.0
-615,-19731,22372,0.0
-585,-19372,22447,0.0
-555,-18993,22493,0.0
-523,-18556,22463,0.0
-495,-18200,22521,0.0
-469,-17885,22627,0.0
-443,-17570,22728,0.0
-419,-17293,22875,0.0
-394,-16923,22894,0.0
-368,-16485,22813,0.0
-341,-15960,22594,0.0
-308,-15094,21864,0.0
-296,-15230,22578,0.0
-283,-15293,23207,0.0
-263,-14974,23265,0.0
-243,-14633,23284,0.0
-225,-14333,23361,0.0
-209,-14047,23457,0.0
-191,-13724,23489,0.0
-175,-13404,23521,0.0
-159,-13106,23585,0.0
-144,-12794,23621,0.0
-130,-12500,23683,0.0
-116,-12197,23724,0.0
-103,-11897,23766,0.0
-91,-11588,23786,0.0
-79,-11301,23848,0.0
-68,-10972,23815,0.0
-58,-10693,23881,0.0
-48,-10462,24057,0.0
-39,-10185,24130,0.0
-30,-9901,24180,0.0
-20,-9084,22888,0.0
-14,-9333,24274,0.0
-7,-8545,22960,0.0
-1,-8788,24415,0.0
4,-8251,23721,0.0
9,-8171,24336,0.0
14,-7810,24119,0.0
18,-7595,24350,0.0
22,-7410,24689,0.0
25,-7155,24808,0.0
28,-6874,24835,0.0
30,-6620,24962,0.0
31,-6354,25047,0.0
32,-6081,25104,0.0
33,-5811,25172,0.0
33,-5542,25242,0.0
33,-5267,25289,0.0
31,-5008,25416,0.0
29,-4733,25463,0.0
27,-4452,25479,0.0
25,-4186,25580,0.0
22,-3908,25610,0.0
18,-3640,25713,0.0
14,-3369,25796,0.0
9,-3074,25701,0.0
3,-2752,25313,0.0
-2,-2482,25383,0.0
-8,-2242,25791,0.0
-15,-1990,26146,0.0
-23,-1697,26001,0.0
-31,-1433,26312,0.0
-41,-1151,26397,0.0
-49,-868,26444,0.0
-60,-584,26479,0.0
-70,-299,26545,0.0
-80,-12,26526,0.0
-91,267,26034,0.0
-102,545,25883,0.0
-116,834,26189,0.0
-131,1137,26674,0.0
-141,1393,26076,0.0
-161,1740,27091,0.0
-177,2042,27197,0.0
-194,2345,27283,0.0
-211,2649,27370,0.0
-229,2956,27443,0.0
-247,3266,27532,0.0
-267,3577,27611,0.0
-287,3887,27666,0.0
-307,4203,27736,0.0
-328,4525,27832,0.0
-351,4846,27906,0.0
-374,5172,27992,0.0
-398,5502,28077,0.0
-422,5831,28146,0.0
-448,6162,28209,0.0
-472,6472,28171,0.0
-488,6656,27607,0.0
-619,8401,33267,0.0
-637,8594,32549,0.0
-655,8769,31818,0.0
-1,23,79,0.0
-1,19,65,0.0
-1,27,89,0.0
-1,24,75,0.0
-1,30,89,0.0
-2,35,101,0.0
-1,32,90,0.0
-2,40,109,0.0
-3,40,107,0.0
-3,37,95,0.0
-3,50,123,0.0
-4,53,125,0.0
-4,58,136,0.0
-5,60,135,0.0
-5,60,131,0.0
-4,61,129,0.0
-4,62,128,0.0
-5,66,134,0.0
-6,72,141,0.0
-7,77,147,0.0
-6,79,146,0.0
-7,85,154,0.0
-8,89,157,0.0
-7,86,148,0.0
-8,89,150,0.0
-9,100,162,0.0
-8,99,158,0.0
-9,101,157,0.0
-9,104,159,0.0
-10,110,165,0.0
-10,110,161,0.0
-10,111,158,0.0
-11,111,156,0.0
-11,116,157,0.0
-11,113,150,0.0
-12,123,160,0.0
-12,120,153,0.0
-12,123,153,0.0
-12,120,145,0.0
-12,120,142,0.0
-13,122,143,0.0
-12,122,139,0.0
-12,122,136,0.0
-12,117,128,0.0
-13,125,134,0.0
-14,125,131,0.0
-13,130,133,0.0
-14,135,134,0.0
-15,135,132,0.0
57,-267,71,0.0
57,-263,73,0.0
59,-266,77,0.0
59,-262,79,0.0
61,-267,83,0.0
62,-263,85,0.0
63,-268,90,0.0
63,-259,90,0.0
64,-260,94,0.0
64,-260,97,0.0
67,-266,102,0.0
67,-262,104,0.0
71,-269,110,0.0
70,-264,112,0.0
72,-268,117,0.0
72,-264,118,0.0
73,-261,121,0.0
74,-265,126,0.0
75,-263,128,0.0
77,-263,132,0.0
75,-255,131,0.0
77,-256,136,0.0
80,-261,142,0.0
85,-274,153,0.0
88,-277,159,0.0
83,-259,152,0.0
80,-243,146,0.0
72,-219,136,0.0
76,-226,144,0.0
66,-192,125,0.0
68,-197,131,0.0
687,-1936,1320,0.0
0,0,0,0.0
699,-1909,1364,0.0
0,0,0,0.0
0,0,0,0.0
0,0,0,0.0
9307,-23821,18693,0.0
9287,-23389,18782,0.0
9266,-22965,18871,0.0
9247,-22549,18958,0.0
9243,-22174,19074,0.0
9231,-21786,19172,0.0
9190,-21334,19205,0.0
9194,-20992,19331,0.0
9164,-20577,19385,0.0
9161,-20225,19490,0.0
9144,-19849,19566,0.0
9110,-19439,19603,0.0
9106,-19099,19703,0.0
9089,-18734,19771,0.0
9071,-18371,19836,0.0
9061,-18030,19917,0.0
9058,-17705,20012,0.0
9027,-17330,20044,0.0
9033,-17028,20156,0.0
9024,-16698,20231,0.0
9002,-16351,20277,0.0
9164,-16334,20737,0.0
9428,-16486,21432,0.0
9560,-16397,21828,0.0
9838,-16546,22562,0.0
10140,-16719,23355,0.0
11076,-17897,25619,1.0
11073,-17530,25718,1.0
11137,-17267,25969,1.0
11194,-16996,26210,1.0
11187,-16625,26297,1.0
11252,-16359,26551,1.0
11246,-15994,26640,1.0
11189,-15558,26604,1.0
11225,-15252,26787,1.0
11206,-14875,26841,1.0
0,0,0,0.0
0,0,0,0.0
11202,-13821,27116,1.0
0,0,0,0.0
11199,-13124,27296,1.0
11187,-12766,27358,1.0
11262,-12506,27631,1.0
11287,-12188,27783,1.0
0,0,0,0.0
0,0,0,0.0
11276,-11145,28020,1.0
11295,-10821,28154,1.0
11299,-10483,28249,1.0
11241,-10089,28189,1.0
11290,-9791,28392,1.0
11292,-9452,28481,1.0
11293,-9113,28567,1.0
11357,-8823,28810,1.0
0,0,0,0.0
11333,-8123,28912,1.0
11287,-7749,28872,1.0
11356,-7456,29127,1.0
0,0,0,0.0
0,0,0,0.0
11389,-6451,29443,1.0
11379,-6103,29495,1.0
0,0,0,0.0
11462,-5458,29861,1.0
11411,-5089,29801,1.0
0,0,0,0.0
11375,-4385,29852,1.0
11421,-4057,30045,1.0
11357,-3689,29948,1.0
11337,-3339,29967,1.0
11386,-3007,30168,1.0
11328,-2645,30084,1.0
9988,-2027,26588,0.0
9310,-1603,24839,0.0
9037,-1278,24163,0.0
8810,-974,23608,0.0
8818,-701,23683,0.0
8826,-428,23757,0.0
8828,-153,23814,0.0
8853,123,23930,0.0
8852,401,23980,0.0
8857,681,24046,0.0
8866,963,24120,0.0
8821,1238,24044,0.0
8853,1525,24183,0.0
8836,1806,24185,0.0
8899,2107,24404,0.0
8884,2392,24415,0.0
8899,2686,24504,0.0
8894,2977,24538,0.0
8915,3278,24644,0.0
8919,3576,24703,0.0
8924,3876,24764,0.0
8936,4182,24841,0.0
8948,4490,24922,0.0
8941,4792,24950,0.0
8953,5105,25030,0.0
8954,5416,25079,0.0
8978,5743,25190,0.0
8995,6070,25286,0.0
11,8,32,0.0
11,8,32,0.0
17,13,50,0.0
14,12,42,0.0
21,18,60,0.0
22,20,66,0.0
25,24,75,0.0
21,21,64,0.0
25,26,75,0.0
25,27,75,0.0
27,30,80,0.0
27,31,80,0.0
33,39,98,0.0
31,39,94,0.0
33,41,96,0.0
31,40,92,0.0
37,51,111,0.0
36,50,108,0.0
34,49,103,0.0
38,55,112,0.0
40,61,120,0.0
40,62,119,0.0
38,61,113,0.0
39,66,118,0.0
39,67,118,0.0
40,70,119,0.0
42,75,125,0.0
41,74,121,0.0
44,82,131,0.0
41,79,122,0.0
35,72,108,0.0
38,78,117,0.0
36,76,109,0.0
36,78,109,0.0
36,77,106,0.0
36,80,107,0.0
36,82,108,0.0
35,83,106,0.0
36,87,109,0.0
32,81,100,0.0
35,89,106,0.0
35,91,106,0.0
32,85,98,0.0
32,89,99,0.0
34,94,103,0.0
32,93,100,0.0
33,96,101,0.0
33,100,104,0.0
34,105,106,0.0
33,104,102,0.0
33,107,103,0.0
33,110,104,0.0
33,114,105,0.0
34,117,106,0.0
35,125,110,0.0
57,-278,75,0.0
56,-266,75,0.0
57,-269,78,0.0
58,-270,82,0.0
61,-277,87,0.0
60,-269,88,0.0
62,-276,94,0.0
62,-271,95,0.0
63,-270,98,0.0
66,-273,102,0.0
67,-278,108,0.0
68,-277,110,0.0
68,-272,112,0.0
68,-269,114,0.0
71,-275,120,0.0
71,-270,121,0.0
71,-267,124,0.0
73,-270,128,0.0
74,-266,131,0.0
75,-269,136,0.0
75,-260,135,0.0
76,-263,140,0.0
86,-292,159,0.0
86,-286,160,0.0
84,-278,160,0.0
76,-246,145,0.0
74,-234,142,0.0
73,-229,143,0.0
65,-202,129,0.0
64,-194,126,0.0
63,-191,128,0.0
0,0,0,0.0
678,-1946,1365,0.0
0,0,0,0.0
0,0,0,0.0
0,0,0,0.0
9129,-24570,18925,0.0
8952,-23710,18689,0.0
8971,-23379,18858,0.0
8912,-22851,18858,0.0
8928,-22520,19014,0.0
8906,-22101,19090,0.0
8903,-21729,19200,0.0
8879,-21315,19267,0.0
8861,-20919,19341,0.0
8845,-20531,19418,0.0
8832,-20158,19501,0.0
8811,-19769,19563,0.0
8801,-19413,19649,0.0
8777,-19026,19699,0.0
8782,-18708,19814,0.0
8755,-18324,19855,0.0
8742,-17975,19926,0.0
8738,-17647,20016,0.0
8730,-17314,20094,0.0
8699,-16940,20119,0.0
8697,-16626,20209,0.0
8704,-16331,20319,0.0
8847,-16286,20744,0.0
9084,-16406,21395,0.0
9275,-16429,21938,0.0
9540,-16569,22663,0.0
9825,-16729,23438,0.0
10617,-17714,25430,1.0
10734,-17547,25816,1.0
10771,-17246,26009,1.0
0,0,0,0.0
10850,-16647,26403,1.0
0,0,0,0.0
0,0,0,0.0
10852,-15578,26707,1.0
0,0,0,0.0
0,0,0,0.0
10821,-14479,26918,1.0
10813,-14119,26991,1.0
10812,-13771,27082,1.0
0,0,0,0.0
10846,-13122,27349,1.0
10829,-12758,27398,1.0
10892,-12487,27645,1.0
0,0,0,0.0
10895,-11804,27832,1.0
10895,-11460,27916,1.0
10842,-11064,27864,1.0
10898,-10781,28095,1.0
10871,-10415,28110,1.0
0,0,0,0.0
10954,-9811,28489,1.0
10957,-9473,28579,1.0
10975,-9148,28709,1.0
10906,-8751,28608,1.0
10934,-8435,28761,1.0
10978,-8130,28959,1.0
10938,-7761,28933,1.0
10951,-7431,29043,1.0
11013,-7133,29286,1.0
10963,-6761,29229,1.0
11034,-6463,29495,1.0
0,0,0,0.0
10991,-5756,29530,1.0
11041,-5440,29741,1.0
10992,-5075,29682,1.0
11022,-4745,29837,1.0
11023,-4403,29913,1.0
11006,-4052,29938,1.0
0,0,0,0.0
11015,-3366,30106,1.0
11041,-3028,30248,1.0
11052,-2683,30349,1.0
9656,-2040,26579,0.0
9054,-1627,24977,0.0
8804,-1302,24342,0.0
8502,-987,23561,0.0
8517,-717,23656,0.0
8544,-446,23784,0.0
8554,-172,23862,0.0
8540,103,23877,0.0
8545,379,23942,0.0
8565,659,24047,0.0
8566,939,24104,0.0
8565,1220,24150,0.0
8566,1502,24201,0.0
8574,1787,24276,0.0
8586,2076,24359,0.0
8584,2363,24405,0.0
8592,2654,24477,0.0
8603,2949,24557,0.0
8615,3246,24641,0.0
8604,3536,24657,0.0
8615,3838,24737,0.0
8615,4137,24786,0.0
8635,4450,24894,0.0
8642,4756,24961,0.0
8656,5070,25047,0.0
8652,5377,25086,0.0
8663,5696,25166,0.0
8667,6012,25224,0.0
9,6,29,0.0
11144,8549,32553,0.0
20,17,63,0.0
20,17,60,0.0
18,16,55,0.0
26,24,79,0.0
23,23,70,0.0
31,32,94,0.0
33,35,100,0.0
30,32,90,0.0
31,35,94,0.0
34,39,103,0.0
33,40,101,0.0
32,40,98,0.0
36,46,108,0.0
38,51,116,0.0
36,50,112,0.0
38,55,117,0.0
39,56,118,0.0
41,62,126,0.0
39,62,121,0.0
40,66,126,0.0
38,63,118,0.0
38,65,119,0.0
38,67,119,0.0
42,75,130,0.0
42,77,129,0.0
42,79,130,0.0
39,77,122,0.0
40,81,126,0.0
41,85,129,0.0
38,81,120,0.0
40,86,125,0.0
38,85,120,0.0
39,89,123,0.0
37,87,118,0.0
37,91,120,0.0
33,83,107,0.0
36,92,116,0.0
34,88,108,0.0
35,92,110,0.0
35,94,110,0.0
35,97,112,0.0
34,97,110,0.0
31,92,101,0.0
31,95,102,0.0
31,97,102,0.0
34,104,109,0.0
33,106,107,0.0
33,108,107,0.0
33,112,108,0.0
31,107,101,0.0
34,119,110,0.0
34,121,110,0.0
34,125,111,0.0
37,-264,75,0.0
37,-258,76,0.0
39,-269,83,0.0
40,-264,85,0.0
42,-272,91,0.0
42,-268,93,0.0
43,-269,96,0.0
43,-266,98,0.0
44,-262,100,0.0
44,-262,103,0.0
46,-269,109,0.0
46,-265,110,0.0
47,-260,112,0.0
48,-264,117,0.0
49,-263,121,0.0
50,-264,124,0.0
50,-260,126,0.0
51,-258,129,0.0
53,-263,134,0.0
53,-258,136,0.0
51,-247,133,0.0
62,-291,161,0.0
60,-280,159,0.0
57,-262,153,0.0
55,-244,146,0.0
51,-226,138,0.0
51,-217,137,0.0
49,-205,131,0.0
47,-193,127,0.0
47,-190,128,0.0
46,-183,126,0.0
43,-171,121,0.0
42,-164,119,0.0
37,-144,107,0.0
509,-1883,1425,0.0
0,0,0,0.0
6632,-23628,18720,0.0
6637,-23239,18833,0.0
6627,-22802,18900,0.0
6627,-22405,18993,0.0
6635,-22040,19108,0.0
6621,-21611,19159,0.0
6627,-21257,19270,0.0
6619,-20856,19333,0.0
6613,-20473,19404,0.0
6614,-20113,19492,0.0
6618,-19769,19590,0.0
6601,-19365,19622,0.0
6609,-19042,19729,0.0
6611,-18704,19816,0.0
6610,-18362,19894,0.0
6590,-17972,19913,0.0
6594,-17655,20005,0.0
6584,-17300,20050,0.0
6592,-16999,20153,0.0
6550,-16573,20100,0.0
6587,-16348,20285,0.0
6715,-16347,20755,0.0
6891,-16451,21375,0.0
6996,-16378,21781,0.0
7203,-16527,22500,0.0
7433,-16716,23300,0.0
8132,-17920,25579,1.0
0,0,0,0.0
8336,-17619,26393,1.0
0,0,0,0.0
8655,-17530,27581,1.0
0,0,0,0.0
0,0,0,0.0
0,0,0,0.0
0,0,0,0.0
0,0,0,0.0
0,0,0,0.0
0,0,0,0.0
0,0,0,0.0
0,0,0,0.0
0,0,0,0.0
0,0,0,0.0
0,0,0,0.0
0,0,0,0.0
9382,-13485,31172,1.0
9362,-13076,31191,1.0
0,0,0,0.0
0,0,0,0.0
0,0,0,0.0
0,0,0,0.0
0,0,0,0.0
0,0,0,0.0
9440,-10543,32054,1.0
0,0,0,0.0
0,0,0,0.0
9290,-9273,31796,1.0
0,0,0,0.0
9039,-8309,31094,1.0
0,0,0,0.0
8807,-7403,30453,1.0
8877,-7112,30771,1.0
8973,-6837,31186,1.0
0,0,0,0.0
0,0,0,0.0
0,0,0,0.0
9342,-5646,32796,1.0
9320,-5266,32801,1.0
0,0,0,0.0
0,0,0,0.0
0,0,0,0.0
0,0,0,0.0
0,0,0,0.0
9027,-2950,32249,1.0
0,0,0,0.0
7182,-1771,25784,0.0
6850,-1414,24652,0.0
6535,-1085,23579,0.0
6532,-819,23623,0.0
6550,-555,23746,0.0
6537,-287,23760,0.0
6545,-18,23847,0.0
6555,251,23942,0.0
6554,523,23999,0.0
6563,796,24091,0.0
6551,1070,24108,0.0
6555,1346,24179,0.0
6560,1626,24264,0.0
6563,1906,24334,0.0
6563,2187,24392,0.0
6562,2470,24450,0.0
6562,2755,24513,0.0
6560,3042,24570,0.0
6565,3334,24649,0.0
6565,3625,24712,0.0
6562,3918,24764,0.0
6563,4214,24829,0.0
6569,4517,24918,0.0
6572,4820,24993,0.0
6574,5128,25067,0.0
6563,5426,25090,0.0
6569,5742,25181,0.0
3,3,13,0.0
6562,6364,25286,0.0
8,8,35,0.0
13,13,52,0.0
12,14,49,0.0
13,14,52,0.0
14,18,59,0.0
17,22,70,0.0
17,23,72,0.0
16,23,68,0.0
21,32,90,0.0
20,30,83,0.0
21,33,88,0.0
23,37,94,0.0
24,40,98,0.0
26,45,106,0.0
23,42,96,0.0
27,50,112,0.0
27,51,113,0.0
31,61,129,0.0
29,58,119,0.0
29,60,119,0.0
29,62,120,0.0
26,59,111,0.0
30,70,127,0.0
29,68,121,0.0
31,75,131,0.0
28,72,121,0.0
28,72,118,0.0
28,75,121,0.0
27,75,118,0.0
26,73,112,0.0
27,78,117,0.0
24,72,104,0.0
25,78,112,0.0
25,80,112,0.0
23,75,102,0.0
25,83,112,0.0
24,81,106,0.0
23,83,105,0.0
23,84,104,0.0
23,83,102,0.0
22,82,98,0.0
22,85,99,0.0
23,94,107,0.0
21,87,98,0.0
20,85,93,0.0
22,94,100,0.0
21,93,97,0.0
20,91,94,0.0
21,99,98,0.0
20,95,94,0.0
22,110,106,0.0
22,112,105,0.0
21,111,102,0.0
35,-277,80,0.0
36,-275,82,0.0
37,-277,87,0.0
37,-272,88,0.0
38,-274,93,0.0
40,-280,98,0.0
41,-279,100,0.0
41,-275,102,0.0
41,-273,105,0.0
43,-281,112,0.0
43,-272,111,0.0
44,-276,117,0.0
44,-273,119,0.0
46,-277,125,0.0
46,-273,127,0.0
46,-269,128,0.0
48,-274,133,0.0
48,-271,136,0.0
48,-266,137,0.0
49,-265,140,0.0
54,-282,153,0.0
57,-293,164,0.0
52,-263,151,0.0
51,-256,150,0.0
51,-250,151,0.0
49,-231,143,0.0
44,-208,131,0.0
45,-207,134,0.0
42,-188,124,0.0
44,-196,134,0.0
45,-196,136,0.0
41,-177,126,0.0
0,0,0,0.0
35,-147,109,0.0
478,-1946,1483,0.0
0,0,0,0.0
5995,-23531,18773,0.0
5998,-23124,18868,0.0
6004,-22734,18971,0.0
5994,-22293,19023,0.0
6009,-21948,19153,0.0
5998,-21513,19195,0.0
6011,-21176,19319,0.0
5995,-20742,19347,0.0
6007,-20403,19458,0.0
6002,-20019,19519,0.0
6010,-19683,19622,0.0
5999,-19290,19661,0.0
6005,-18956,19753,0.0
6000,-18590,19808,0.0
6010,-18276,19912,0.0
5997,-17899,19941,0.0
6002,-17579,20029,0.0
6000,-17242,20090,0.0
5993,-16894,20133,0.0
6008,-16614,20254,0.0
6007,-16292,20318,0.0
6123,-16282,20776,0.0
6275,-16361,21363,0.0
6422,-16412,21932,0.0
6631,-16610,22720,0.0
6807,-16705,23395,0.0
0,0,0,0.0
7600,-17893,26281,1.0
7745,-17853,26862,1.0
0,0,0,0.0
0,0,0,0.0
0,0,0,0.0
0,0,0,0.0
8365,-17276,29443,1.0
0,0,0,0.0
0,0,0,0.0
0,0,0,0.0
8523,-16021,30342,1.0
0,0,0,0.0
8638,-15448,30918,1.0
0,0,0,0.0
0,0,0,0.0
0,0,0,0.0
0,0,0,0.0
0,0,0,0.0
0,0,0,0.0
0,0,0,0.0
0,0,0,0.0
0,0,0,0.0
0,0,0,0.0
0,0,0,0.0
0,0,0,0.0
8786,-10686,32552,1.0
8728,-10240,32421,1.0
0,0,0,0.0
0,0,0,0.0
0,0,0,0.0
0,0,0,0.0
0,0,0,0.0
0,0,0,0.0
0,0,0,0.0
0,0,0,0.0
0,0,0,0.0
0,0,0,0.0
0,0,0,0.0
8664,-5721,33174,1.0
0,0,0,0.0
8601,-4944,33099,1.0
0,0,0,0.0
8506,-4159,32898,1.0
8463,-3774,32818,1.0
0,0,0,0.0
8354,-3004,32560,1.0
8301,-2623,32434,1.0
6598,-1799,25848,0.0
6279,-1437,24658,0.0
6011,-1113,23670,0.0
5998,-847,23679,0.0
5994,-581,23722,0.0
5998,-316,23802,0.0
6007,-48,23896,0.0
6004,219,23948,0.0
6003,489,24004,0.0
6008,762,24091,0.0
6007,1035,24146,0.0
5979,1304,24101,0.0
6008,1586,24281,0.0
6005,1864,24333,0.0
6002,2143,24388,0.0
6001,2425,24451,0.0
5999,2707,24506,0.0
6010,3000,24620,0.0
5997,3282,24636,0.0
5994,3571,24691,0.0
6009,3873,24822,0.0
6004,4166,24871,0.0
5996,4458,24906,0.0
6000,4763,24996,0.0
5996,5064,25053,0.0
5991,5367,25105,0.0
5994,5680,25191,0.0
8,8,35,0.0
6,5,24,0.0
15,16,61,0.0
11,12,45,0.0
15,17,62,0.0
18,21,73,0.0
19,25,84,0.0
19,24,77,0.0
18,25,74,0.0
21,31,91,0.0
22,35,99,0.0
22,36,99,0.0
22,38,99,0.0
22,38,98,0.0
25,46,111,0.0
23,43,103,0.0
24,45,105,0.0
26,52,117,0.0
27,56,121,0.0
27,58,123,0.0
31,66,137,0.0
30,66,132,0.0
31,72,139,0.0
26,63,120,0.0
28,68,126,0.0
30,76,136,0.0
31,81,141,0.0
29,78,133,0.0
28,78,130,0.0
29,82,133,0.0
29,85,133,0.0
29,87,134,0.0
28,88,132,0.0
24,78,115,0.0
26,85,122,0.0
25,84,117,0.0
26,91,126,0.0
25,89,121,0.0
24,89,117,0.0
25,94,120,0.0
24,95,119,0.0
24,96,118,0.0
23,94,113,0.0
23,98,115,0.0
21,91,105,0.0
21,96,107,0.0
21,97,106,0.0
23,108,116,0.0
21,102,107,0.0
22,110,113,0.0
19,100,101,0.0
20,108,107,0.0
20,111,107,0.0
20,115,108,0.0
20,114,105,0.0
27,-274,81,0.0
27,-269,83,0.0
29,-275,88,0.0
28,-266,88,0.0
30,-270,93,0.0
30,-266,94,0.0
32,-278,103,0.0
32,-277,105,0.0
32,-272,106,0.0
33,-273,110,0.0
34,-269,112,0.0
36,-276,118,0.0
36,-272,120,0.0
36,-268,122,0.0
38,-273,128,0.0
39,-278,134,0.0
39,-274,136,0.0
39,-271,137,0.0
40,-265,138,0.0
43,-276,148,0.0
46,-295,162,0.0
45,-277,156,0.0
43,-258,149,0.0
41,-244,145,0.0
39,-232,141,0.0
36,-206,128,0.0
36,-201,127,0.0
37,-204,134,0.0
34,-186,125,0.0
34,-179,123,0.0
34,-173,121,0.0
30,-157,113,0.0
30,-150,110,0.0
28,-140,105,0.0
0,0,0,0.0
0,0,0,0.0
5036,-23328,18789,0.0
5048,-22944,18898,0.0
5053,-22536,18980,0.0
5059,-22140,19067,0.0
5066,-21753,19153,0.0
5079,-21399,19262,0.0
5073,-20965,19294,0.0
5082,-20610,19389,0.0
5091,-20259,19484,0.0
5088,-19860,19526,0.0
5099,-19527,19625,0.0
5103,-19171,19697,0.0
5118,-18861,19812,0.0
5103,-18446,19809,0.0
5123,-18165,19943,0.0
5119,-17803,19985,0.0
5120,-17463,20045,0.0
5129,-17150,20132,0.0
5102,-16724,20077,0.0
5129,-16482,20237,0.0
5147,-16215,20366,0.0
5264,-16254,20885,0.0
5396,-16326,21463,0.0
5553,-16459,22144,0.0
5726,-16625,22891,0.0
0,0,0,0.0
6370,-17738,25600,1.0
6647,-18117,26777,1.0
0,0,0,0.0
0,0,0,0.0
0,0,0,0.0
0,0,0,0.0
0,0,0,0.0
0,0,0,0.0
0,0,0,0.0
0,0,0,0.0
0,0,0,0.0
0,0,0,0.0
7398,-15655,30625,1.0
0,0,0,0.0
0,0,0,0.0
7518,-14724,31346,1.0
0,0,0,0.0
0,0,0,0.0
0,0,0,0.0
0,0,0,0.0
0,0,0,0.0
0,0,0,0.0
0,0,0,0.0
0,0,0,0.0
0,0,0,0.0
0,0,0,0.0
0,0,0,0.0
7577,-10249,32526,1.0
7496,-9770,32260,1.0
0,0,0,0.0
0,0,0,0.0
0,0,0,0.0
7081,-7838,30774,1.0
0,0,0,0.0
0,0,0,0.0
0,0,0,0.0
7450,-6791,32707,1.0
7473,-6447,32893,1.0
0,0,0,0.0
0,0,0,0.0
0,0,0,0.0
7407,-4938,32931,1.0
0,0,0,0.0
7312,-4157,32679,1.0
0,0,0,0.0
0,0,0,0.0
0,0,0,0.0
7146,-2648,32281,1.0
5761,-1848,26095,0.0
5432,-1471,24672,0.0
5210,-1149,23725,0.0
5183,-882,23668,0.0
5175,-618,23702,0.0
5183,-355,23801,0.0
5181,-90,23863,0.0
5177,175,23908,0.0
5173,443,23958,0.0
5168,710,24006,0.0
5173,982,24099,0.0
5172,1254,24163,0.0
5163,1526,24196,0.0
5167,1803,24290,0.0
5171,2084,24382,0.0
5170,2364,24454,0.0
5157,2639,24464,0.0
5163,2928,24572,0.0
5155,3209,24608,0.0
5156,3500,24693,0.0
5151,3788,24749,0.0
5145,4079,24807,0.0
5140,4372,24863,0.0
5136,4669,24928,0.0
5137,4972,25014,0.0
4,3,16,0.0
5131,5585,25163,0.0
1,1,7,0.0
3,3,15,0.0
7,7,33,0.0
10,14,52,0.0
11,14,53,0.0
14,20,70,0.0
16,24,81,0.0
14,22,70,0.0
18,28,87,0.0
20,34,100,0.0
20,35,99,0.0
17,33,90,0.0
20,38,102,0.0
19,37,97,0.0
21,43,106,0.0
22,47,114,0.0
21,47,111,0.0
22,51,116,0.0
22,53,115,0.0
25,62,133,0.0
25,64,134,0.0
25,66,134,0.0
24,67,133,0.0
24,68,130,0.0
23,67,125,0.0
24,73,134,0.0
26,80,141,0.0
25,80,137,0.0
23,77,130,0.0
25,84,139,0.0
22,80,128,0.0
23,85,132,0.0
22,83,127,0.0
22,87,129,0.0
20,78,113,0.0
21,84,120,0.0
20,85,118,0.0
20,86,117,0.0
19,85,113,0.0
20,92,119,0.0
19,91,115,0.0
19,93,114,0.0
19,94,114,0.0
19,99,117,0.0
19,100,115,0.0
16,89,101,0.0
17,96,107,0.0
17,100,109,0.0
15,94,100,0.0
16,102,107,0.0
16,105,107,0.0
16,104,104,0.0
16,112,109,0.0
16,118,112,0.0
15,111,104,0.0
18,-263,79,0.0
19,-263,82,0.0
20,-269,87,0.0
21,-270,91,0.0
21,-268,93,0.0
22,-267,96,0.0
23,-275,103,0.0
24,-266,103,0.0
24,-269,107,0.0
25,-272,111,0.0
26,-270,114,0.0
26,-266,116,0.0
28,-269,121,0.0
28,-266,122,0.0
28,-263,124,0.0
29,-266,130,0.0
30,-265,133,0.0
31,-267,138,0.0
32,-266,141,0.0
35,-287,155,0.0
34,-275,153,0.0
33,-265,151,0.0
33,-252,148,0.0
31,-230,137,0.0
29,-214,132,0.0
30,-211,133,0.0
29,-206,132,0.0
27,-190,126,0.0
28,-184,124,0.0
25,-160,111,0.0
25,-161,114,0.0
26,-162,118,0.0
23,-145,108,0.0
23,-137,104,0.0
24,-142,111,0.0
4096,-23642,18782,0.0
15,-87,71,0.0
4112,-22772,18915,0.0
4133,-22421,19040,0.0
4138,-21996,19097,0.0
4152,-21627,19196,0.0
4162,-21242,19273,0.0
4165,-20827,19316,0.0
4183,-20497,19433,0.0
4191,-20122,19500,0.0
4197,-19751,19563,0.0
4210,-19410,19651,0.0
4220,-19066,19733,0.0
4234,-18742,19828,0.0
4234,-18367,19863,0.0
4242,-18033,19936,0.0
4245,-17680,19983,0.0
4257,-17372,20075,0.0
4264,-17047,20143,0.0
4268,-16712,20193,0.0
4272,-16388,20250,0.0
4336,-16288,20587,0.0
4432,-16305,21081,0.0
4528,-16308,21572,0.0
4686,-16528,22371,0.0
4819,-16637,23046,0.0
5302,-17916,25401,1.0
5354,-17704,25697,1.0
5502,-17799,26455,1.0
0,0,0,0.0
0,0,0,0.0
5887,-17811,28464,1.0
5927,-17531,28715,1.0
0,0,0,0.0
0,0,0,0.0
6062,-16714,29535,1.0
6124,-16484,29896,1.0
0,0,0,0.0
0,0,0,0.0
6218,-15540,30537,1.0
0,0,0,0.0
0,0,0,0.0
0,0,0,0.0
0,0,0,0.0
6268,-13718,31100,1.0
0,0,0,0.0
0,0,0,0.0
0,0,0,0.0
0,0,0,0.0
6310,-11913,31643,1.0
0,0,0,0.0
6349,-11237,31981,1.0
0,0,0,0.0
6381,-10546,32285,1.0
0,0,0,0.0
0,0,0,0.0
0,0,0,0.0
6156,-8747,31441,1.0
0,0,0,0.0
6038,-7886,30990,1.0
5979,-7464,30755,1.0
6076,-7237,31331,1.0
0,0,0,0.0
6263,-6744,32458,1.0
6272,-6395,32590,1.0
0,0,0,0.0
0,0,0,0.0
0,0,0,0.0
0,0,0,0.0
0,0,0,0.0
0,0,0,0.0
0,0,0,0.0
6127,-3429,32526,1.0
0,0,0,0.0
6003,-2662,32050,1.0
4907,-1890,26270,0.0
4590,-1498,24651,0.0
4463,-1195,24042,0.0
4383,-914,23681,0.0
4340,-647,23517,0.0
4371,-390,23757,0.0
4378,-128,23870,0.0
4367,135,23891,0.0
4372,402,23996,0.0
4365,668,24033,0.0
4363,937,24104,0.0
4364,1208,24193,0.0
4357,1480,24235,0.0
4358,1755,24326,0.0
4350,2027,24361,0.0
4338,2301,24386,0.0
4343,2585,24499,0.0
4341,2869,24585,0.0
4331,3148,24615,0.0
4327,3435,24684,0.0
4323,3724,24762,0.0
4311,4008,24787,0.0
4310,4305,24884,0.0
4303,4599,24942,0.0
4301,4903,25039,0.0
0,0,0,0.0
3,4,20,0.0
2,2,9,0.0
0,0,0,0.0
6,8,35,0.0
9,14,55,0.0
8,13,47,0.0
11,19,66,0.0
11,19,67,0.0
12,21,70,0.0
13,26,81,0.0
12,24,74,0.0
12,25,74,0.0
14,32,90,0.0
15,35,94,0.0
15,35,93,0.0
15,40,100,0.0
17,44,107,0.0
16,43,102,0.0
17,49,113,0.0
17,51,113,0.0
18,54,116,0.0
19,58,122,0.0
19,62,126,0.0
18,59,117,0.0
18,65,125,0.0
20,72,137,0.0
20,72,131,0.0
19,73,130,0.0
17,71,123,0.0
19,75,129,0.0
19,81,133,0.0
19,80,130,0.0
17,79,125,0.0
18,87,133,0.0
17,83,126,0.0
17,84,125,0.0
16,83,118,0.0
16,85,120,0.0
15,87,118,0.0
15,88,118,0.0
15,88,116,0.0
16,94,121,0.0
15,95,119,0.0
14,94,115,0.0
13,89,106,0.0
13,93,109,0.0
12,90,103,0.0
12,86,97,0.0
12,90,99,0.0
12,99,106,0.0
11,96,100,0.0
11,99,102,0.0
12,105,105,0.0
12,112,111,0.0
11,105,101,0.0
11,111,105,0.0
17,-279,85,0.0
18,-281,88,0.0
19,-289,95,0.0
19,-285,96,0.0
20,-277,97,0.0
20,-282,102,0.0
21,-279,105,0.0
22,-283,109,0.0
23,-281,112,0.0
24,-279,115,0.0
24,-274,117,0.0
25,-280,123,0.0
25,-276,124,0.0
26,-271,125,0.0
27,-279,133,0.0
27,-273,134,0.0
28,-278,140,0.0
29,-273,141,0.0
31,-285,152,0.0
34,-300,163,0.0
33,-286,160,0.0
32,-273,156,0.0
32,-265,156,0.0
30,-243,145,0.0
28,-228,140,0.0
27,-210,132,0.0
30,-225,146,0.0
29,-220,146,0.0
26,-190,129,0.0
26,-187,129,0.0
24,-172,122,0.0
24,-163,118,0.0
23,-153,113,0.0
21,-134,102,0.0
0,0,0,0.0
3776,-23546,18755,0.0
3790,-23129,18839,0.0
3807,-22744,18941,0.0
3821,-22346,19026,0.0
3832,-21942,19099,0.0
3846,-21562,19186,0.0
3863,-21211,19291,0.0
3870,-20809,19345,0.0
3881,-20440,19424,0.0
3895,-20086,19510,0.0
3900,-19701,19559,0.0
3916,-19373,19660,0.0
3928,-19031,19740,0.0
3939,-18692,19819,0.0
3947,-18348,19885,0.0
3953,-17995,19937,0.0
3960,-17658,19999,0.0
3974,-17352,20093,0.0
3978,-17011,20142,0.0
3984,-16685,20201,0.0
3998,-16393,20298,0.0
4061,-16302,20644,0.0
4163,-16362,21195,0.0
4234,-16289,21587,0.0
4379,-16486,22355,0.0
4518,-16648,23102,0.0
4979,-17947,25492,1.0
4985,-17584,25568,1.0
0,0,0,0.0
0,0,0,0.0
0,0,0,0.0
0,0,0,0.0
5580,-17581,28845,1.0
0,0,0,0.0
0,0,0,0.0
0,0,0,0.0
0,0,0,0.0
0,0,0,0.0
0,0,0,0.0
0,0,0,0.0
0,0,0,0.0
5908,-14917,31029,1.0
0,0,0,0.0
0,0,0,0.0
0,0,0,0.0
0,0,0,0.0
0,0,0,0.0
0,0,0,0.0
0,0,0,0.0
0,0,0,0.0
0,0,0,0.0
0,0,0,0.0
0,0,0,0.0
5978,-10503,32178,1.0
0,0,0,0.0
0,0,0,0.0
5859,-9209,31750,1.0
0,0,0,0.0
0,0,0,0.0
5592,-7764,30517,1.0
5600,-7434,30636,1.0
0,0,0,0.0
0,0,0,0.0
0,0,0,0.0
5886,-6384,32526,1.0
5881,-6021,32581,1.0
5938,-5719,32983,1.0
5888,-5312,32792,1.0
0,0,0,0.0
0,0,0,0.0
0,0,0,0.0
5796,-3816,32638,1.0
5747,-3430,32456,1.0
0,0,0,0.0
0,0,0,0.0
4634,-1908,26404,0.0
4310,-1507,24632,0.0
4209,-1209,24132,0.0
4125,-925,23719,0.0
4062,-654,23436,0.0
4104,-401,23753,0.0
4104,-140,23827,0.0
4106,123,23917,0.0
4096,388,23943,0.0
4088,653,23981,0.0
4093,922,24095,0.0
4087,1191,24140,0.0
4088,1464,24235,0.0
4078,1734,24262,0.0
4077,2010,24349,0.0
4080,2291,24457,0.0
4068,2566,24482,0.0
4061,2844,24537,0.0
4059,3130,24621,0.0
4053,3415,24688,0.0
4043,3698,24724,0.0
4042,3992,24824,0.0
4036,4285,24892,0.0
4023,4574,24928,0.0
4015,4869,24984,0.0
0,0,0,0.0
1,1,4,0.0
4,6,27,0.0
3,4,18,0.0
6,9,38,0.0
9,15,59,0.0
7,13,48,0.0
10,19,69,0.0
10,20,69,0.0
14,29,94,0.0
11,25,78,0.0
15,33,101,0.0
13,29,85,0.0
15,37,103,0.0
16,41,111,0.0
16,41,108,0.0
17,43,109,0.0
17,48,118,0.0
18,51,120,0.0
17,52,119,0.0
17,53,121,0.0
19,62,136,0.0
20,68,143,0.0
19,66,134,0.0
19,69,138,0.0
18,68,131,0.0
17,65,124,0.0
21,81,149,0.0
19,80,144,0.0
18,76,134,0.0
20,87,147,0.0
19,86,144,0.0
18,87,141,0.0
19,91,145,0.0
18,91,141,0.0
17,90,136,0.0
17,91,134,0.0
16,94,136,0.0
17,95,134,0.0
16,96,132,0.0
15,99,133,0.0
14,93,122,0.0
15,98,126,0.0
14,94,118,0.0
14,96,119,0.0
13,101,122,0.0
13,100,118,0.0
12,97,112,0.0
11,99,110,0.0
12,107,117,0.0
12,110,119,0.0
11,103,109,0.0
11,107,110,0.0
11,113,115,0.0
11,117,116,0.0
11,121,117,0.0
11,124,117,0.0
9,-278,85,0.0
10,-283,91,0.0
10,-266,88,0.0
11,-273,94,0.0
11,-271,96,0.0
13,-275,101,0.0
13,-271,103,0.0
13,-266,104,0.0
14,-269,109,0.0
15,-275,114,0.0
16,-273,117,0.0
16,-269,119,0.0
16,-270,123,0.0
17,-262,123,0.0
17,-268,128,0.0
18,-272,135,0.0
19,-265,134,0.0
20,-274,143,0.0
21,-275,147,0.0
23,-299,164,0.0
23,-289,162,0.0
24,-286,166,0.0
23,-273,162,0.0
21,-244,148,0.0
22,-242,151,0.0
22,-237,151,0.0
22,-221,144,0.0
21,-216,144,0.0
21,-204,140,0.0
21,-203,142,0.0
20,-186,133,0.0
20,-178,131,0.0
18,-160,120,0.0
17,-147,113,0.0
15,-125,98,0.0
13,-106,85,0.0
11,-85,70,0.0
9,-72,60,0.0
2908,-22203,19037,0.0
2926,-21810,19116,0.0
2948,-21464,19230,0.0
2962,-21060,19285,0.0
2982,-20718,19389,0.0
2997,-20342,19458,0.0
