//X,Y,Z,Classification
-55.0,-141.0,93.0,0.0
-62.0,-163.0,105.0,0.0
-55.0,-145.0,91.0,0.0
-62.0,-166.0,102.0,0.0
-58.0,-158.0,94.0,0.0
-58.0,-161.0,95.0,0.0
-63.0,-176.0,100.0,0.0
-58.0,-167.0,92.0,0.0
-62.0,-180.0,97.0,0.0
-63.0,-183.0,96.0,0.0
-61.0,-180.0,92.0,0.0
-63.0,-191.0,95.0,0.0
-63.0,-190.0,92.0,0.0
-64.0,-199.0,94.0,0.0
-62.0,-197.0,90.0,0.0
-60.0,-191.0,84.0,0.0
-63.0,-204.0,88.0,0.0
-61.0,-201.0,84.0,0.0
-59.0,-199.0,81.0,0.0
-58.0,-196.0,76.0,0.0
-60.0,-208.0,79.0,0.0
-77.0,-271.0,99.0,0.0
-80.0,-282.0,100.0,0.0
-80.0,-286.0,98.0,0.0
-78.0,-283.0,94.0,0.0
-77.0,-285.0,91.0,0.0
-75.0,-283.0,87.0,0.0
-75.0,-285.0,84.0,0.0
-75.0,-289.0,82.0,0.0
-75.0,-291.0,79.0,0.0
-74.0,-295.0,77.0,0.0
-74.0,-297.0,74.0,0.0
0.0,0.0,0.0,0.0
-12518.0,37165.0,33416.0,0.0
-6888.0,20021.0,18395.0,0.0
-6885.0,19589.0,18390.0,0.0
-6876.0,19149.0,18370.0,0.0
-12205.0,33269.0,32614.0,0.0
-6857.0,18292.0,18324.0,0.0
0.0,0.0,0.0,0.0
0.0,0.0,0.0,0.0
-7192.0,17977.0,19226.0,0.0
-11971.0,29273.0,31998.0,0.0
-11992.0,28686.0,32053.0,0.0
-11968.0,28002.0,31986.0,0.0
-11937.0,27314.0,31898.0,0.0
-11923.0,26677.0,31856.0,0.0
-11721.0,25639.0,31310.0,0.0
0.0,0.0,0.0,0.0
-668.0,1396.0,1784.0,0.0
0.0,0.0,0.0,0.0
-11820.0,23579.0,31537.0,0.0
-11650.0,22700.0,31073.0,0.0
-11875.0,22596.0,31661.0,0.0
-11914.0,22131.0,31751.0,0.0
-12949.0,23477.0,34494.0,0.0
-725.0,1284.0,1932.0,0.0
0.0,0.0,0.0,0.0
-12890.0,21690.0,34279.0,0.0
0.0,0.0,0.0,0.0
-12796.0,20455.0,33990.0,0.0
-12756.0,19864.0,33863.0,0.0
-12757.0,19345.0,33843.0,0.0
-12681.0,18716.0,33617.0,0.0
-12654.0,18172.0,33521.0,0.0
-12605.0,17604.0,33368.0,0.0
-12585.0,17084.0,33288.0,0.0
0.0,0.0,0.0,0.0
-12530.0,16046.0,33088.0,0.0
0.0,0.0,0.0,0.0
0.0,0.0,0.0,0.0
0.0,0.0,0.0,0.0
-12405.0,14036.0,32640.0,0.0
-12346.0,13520.0,32455.0,0.0
-12191.0,12911.0,32016.0,0.0
-12391.0,12680.0,32508.0,0.0
-10047.0,9926.0,26332.0,0.0
-10051.0,9577.0,26314.0,0.0
-10034.0,9211.0,26241.0,0.0
-10011.0,8845.0,26153.0,0.0
-9983.0,8479.0,26049.0,0.0
-9970.0,8128.0,25985.0,0.0
-9945.0,7773.0,25888.0,0.0
-9938.0,7435.0,25839.0,0.0
-9931.0,7100.0,25789.0,0.0
-9898.0,6751.0,25671.0,0.0
-9885.0,6419.0,25605.0,0.0
-9861.0,6082.0,25509.0,0.0
-9855.0,5760.0,25457.0,0.0
-9841.0,5437.0,25387.0,0.0
-9824.0,5114.0,25308.0,0.0
-9805.0,4794.0,25225.0,0.0
-9808.0,4487.0,25193.0,0.0
-9787.0,4171.0,25102.0,0.0
-9766.0,3858.0,25011.0,0.0
-9761.0,3554.0,24960.0,0.0
-9746.0,3249.0,24883.0,0.0
-9736.0,2947.0,24818.0,0.0
-9723.0,2647.0,24747.0,0.0
-9717.0,2351.0,24689.0,0.0
-9697.0,2053.0,24596.0,0.0
-9690.0,1761.0,24535.0,0.0
-9677.0,1469.0,24463.0,0.0
-10824.0,1321.0,27314.0,0.0
-10134.0,936.0,25526.0,0.0
-10134.0,636.0,25482.0,0.0
-10447.0,349.0,26220.0,0.0
-11018.0,45.0,27601.0,0.0
-13182.0,-331.0,32957.0,2.0
0.0,0.0,0.0,0.0
0.0,0.0,0.0,0.0
0.0,0.0,0.0,0.0
-13358.0,-1885.0,33133.0,2.0
-13246.0,-2251.0,32787.0,2.0
-13141.0,-2611.0,32459.0,2.0
-13096.0,-2977.0,32277.0,2.0
-13027.0,-3334.0,32039.0,2.0
-12960.0,-3688.0,31806.0,2.0
-12882.0,-4033.0,31544.0,2.0
0.0,0.0,0.0,0.0
-13050.0,-4828.0,31809.0,2.0
-13016.0,-5184.0,31652.0,2.0
0.0,0.0,0.0,0.0
0.0,0.0,0.0,0.0
-856.0,-414.0,2069.0,0.0
0.0,0.0,0.0,0.0
-858.0,-463.0,2062.0,0.0
0.0,0.0,0.0,0.0
-863.0,-515.0,2063.0,0.0
-852.0,-532.0,2032.0,0.0
-863.0,-563.0,2055.0,0.0
0.0,0.0,0.0,0.0
-858.0,-608.0,2030.0,0.0
0.0,0.0,0.0,0.0
-870.0,-666.0,2047.0,0.0
-869.0,-690.0,2040.0,0.0
-865.0,-711.0,2022.0,0.0
-877.0,-746.0,2045.0,0.0
-861.0,-756.0,2001.0,0.0
-857.0,-777.0,1987.0,0.0
-855.0,-800.0,1975.0,0.0
-11.0,-11.0,28.0,0.0
-843.0,-838.0,1936.0,0.0
-856.0,-874.0,1958.0,0.0
-18.0,-18.0,41.0,0.0
-13.0,-14.0,31.0,0.0
-16.0,-18.0,38.0,0.0
-13.0,-16.0,32.0,0.0
-14.0,-17.0,34.0,0.0
-16.0,-19.0,37.0,0.0
-15.0,-19.0,34.0,0.0
-17.0,-22.0,39.0,0.0
-18.0,-23.0,41.0,0.0
-26.0,-34.0,57.0,0.0
-18.0,-25.0,42.0,0.0
-16.0,-23.0,38.0,0.0
-20.0,-28.0,44.0,0.0
-25.0,-36.0,55.0,0.0
-26.0,-39.0,58.0,0.0
-23.0,-36.0,52.0,0.0
-26.0,-40.0,58.0,0.0
-28.0,-44.0,61.0,0.0
-21.0,-34.0,46.0,0.0
-31.0,-51.0,67.0,0.0
-20.0,-34.0,44.0,0.0
-28.0,-48.0,60.0,0.0
-30.0,-50.0,62.0,0.0
-26.0,-47.0,56.0,0.0
-33.0,-58.0,69.0,0.0
-31.0,-57.0,65.0,0.0
-26.0,-49.0,55.0,0.0
-40.0,-77.0,84.0,0.0
-33.0,-64.0,68.0,0.0
-33.0,-65.0,68.0,0.0
-37.0,-73.0,75.0,0.0
-37.0,-76.0,76.0,0.0
-37.0,-78.0,75.0,0.0
-46.0,-97.0,91.0,0.0
-42.0,-90.0,83.0,0.0
-43.0,-93.0,85.0,0.0
-45.0,-99.0,87.0,0.0
-49.0,-109.0,94.0,0.0
-46.0,-106.0,89.0,0.0
-48.0,-110.0,91.0,0.0
-50.0,-116.0,94.0,0.0
-52.0,-122.0,96.0,0.0
-47.0,-112.0,86.0,0.0
-56.0,-137.0,103.0,0.0
-54.0,-136.0,100.0,0.0
-52.0,-132.0,95.0,0.0
-53.0,-135.0,95.0,0.0
-58.0,-149.0,102.0,0.0
-55.0,-147.0,98.0,0.0
-55.0,-148.0,96.0,0.0
-56.0,-152.0,97.0,0.0
-61.0,-169.0,105.0,0.0
-59.0,-164.0,99.0,0.0
-57.0,-163.0,95.0,0.0
-61.0,-177.0,102.0,0.0
-56.0,-164.0,92.0,0.0
-58.0,-175.0,95.0,0.0
-57.0,-174.0,92.0,0.0
-61.0,-186.0,96.0,0.0
-59.0,-182.0,91.0,0.0
-57.0,-180.0,87.0,0.0
-59.0,-189.0,90.0,0.0
-58.0,-189.0,88.0,0.0
-58.0,-194.0,87.0,0.0
-60.0,-199.0,87.0,0.0
-58.0,-198.0,83.0,0.0
-57.0,-195.0,80.0,0.0
-53.0,-187.0,74.0,0.0
-58.0,-203.0,78.0,0.0
-70.0,-253.0,94.0,0.0
-78.0,-288.0,103.0,0.0
-77.0,-284.0,98.0,0.0
-77.0,-290.0,97.0,0.0
-76.0,-293.0,95.0,0.0
-74.0,-290.0,90.0,0.0
-75.0,-293.0,87.0,0.0
-74.0,-296.0,85.0,0.0
-73.0,-297.0,82.0,0.0
-73.0,-301.0,79.0,0.0
-73.0,-305.0,77.0,0.0
-5967.0,18740.0,16582.0,0.0
-6035.0,18552.0,16773.0,0.0
-6888.0,20720.0,19142.0,0.0
-6853.0,20177.0,19048.0,0.0
-6862.0,19772.0,19072.0,0.0
-6491.0,18302.0,18041.0,0.0
-6629.0,18288.0,18421.0,0.0
-6747.0,18211.0,18746.0,0.0
-6861.0,18119.0,19063.0,0.0
-6955.0,17967.0,19319.0,0.0
-11547.0,29176.0,32065.0,0.0
-11529.0,28491.0,32007.0,0.0
-11387.0,27515.0,31601.0,0.0
0.0,0.0,0.0,0.0
-11255.0,25999.0,31214.0,0.0
-11311.0,25541.0,31358.0,0.0
0.0,0.0,0.0,0.0
-11219.0,24189.0,31071.0,0.0
-11327.0,23862.0,31359.0,0.0
-11344.0,23343.0,31388.0,0.0
-11296.0,22697.0,31238.0,0.0
-11488.0,22540.0,31753.0,0.0
-11523.0,22067.0,31829.0,0.0
-12473.0,23308.0,34431.0,0.0
-12462.0,22720.0,34379.0,0.0
-12434.0,22110.0,34281.0,0.0
-12412.0,21518.0,34194.0,0.0
-12391.0,20938.0,34112.0,0.0
0.0,0.0,0.0,0.0
-12308.0,19739.0,33834.0,0.0
-12248.0,19125.0,33642.0,0.0
0.0,0.0,0.0,0.0
-11050.0,16335.0,30299.0,0.0
-12184.0,17513.0,33379.0,0.0
-12194.0,17035.0,33378.0,0.0
-12107.0,16430.0,33109.0,0.0
-12105.0,15949.0,33072.0,0.0
-12091.0,15457.0,33003.0,0.0
0.0,0.0,0.0,0.0
-12056.0,14483.0,32841.0,0.0
-11991.0,13950.0,32631.0,0.0
-11940.0,13442.0,32458.0,0.0
-11821.0,12868.0,32099.0,0.0
-12032.0,12655.0,32637.0,0.0
-9733.0,9881.0,26371.0,0.0
-9726.0,9521.0,26321.0,0.0
-9706.0,9153.0,26237.0,0.0
-9678.0,8782.0,26130.0,0.0
-9653.0,8420.0,26033.0,0.0
-9646.0,8075.0,25980.0,0.0
-9630.0,7727.0,25905.0,0.0
-9603.0,7374.0,25798.0,0.0
-9598.0,7042.0,25751.0,0.0
-9585.0,6707.0,25683.0,0.0
-9572.0,6375.0,25612.0,0.0
-9554.0,6043.0,25528.0,0.0
-9543.0,5719.0,25463.0,0.0
-9513.0,5388.0,25349.0,0.0
-9516.0,5077.0,25319.0,0.0
-9495.0,4756.0,25224.0,0.0
-9485.0,4444.0,25160.0,0.0
-9465.0,4129.0,25069.0,0.0
-9455.0,3822.0,25002.0,0.0
-9451.0,3519.0,24955.0,0.0
-9438.0,3216.0,24881.0,0.0
-9430.0,2916.0,24819.0,0.0
-9419.0,2618.0,24749.0,0.0
-9407.0,2321.0,24675.0,0.0
-9379.0,2023.0,24561.0,0.0
-9393.0,1736.0,24554.0,0.0
-9386.0,1445.0,24492.0,0.0
-10484.0,1294.0,27308.0,0.0
-9825.0,912.0,25547.0,0.0
-9820.0,614.0,25487.0,0.0
-10148.0,327.0,26290.0,0.0
-10687.0,22.0,27634.0,0.0
-12668.0,-353.0,32688.0,2.0
-12686.0,-734.0,32673.0,2.0
-12706.0,-1115.0,32658.0,2.0
-12727.0,-1495.0,32649.0,2.0
0.0,0.0,0.0,0.0
-12786.0,-2261.0,32663.0,2.0
0.0,0.0,0.0,0.0
-12637.0,-2981.0,32149.0,2.0
-12630.0,-3351.0,32060.0,2.0
-815.0,-240.0,2065.0,0.0
-862.0,-279.0,2180.0,0.0
0.0,0.0,0.0,0.0
-840.0,-321.0,2113.0,0.0
0.0,0.0,0.0,0.0
-846.0,-373.0,2120.0,0.0
0.0,0.0,0.0,0.0
-826.0,-413.0,2060.0,0.0
-824.0,-436.0,2048.0,0.0
-851.0,-474.0,2111.0,0.0
-12353.0,-7239.0,30549.0,2.0
-837.0,-515.0,2064.0,0.0
-846.0,-545.0,2083.0,0.0
-839.0,-564.0,2060.0,0.0
0.0,0.0,0.0,0.0
-833.0,-609.0,2035.0,0.0
-860.0,-654.0,2095.0,0.0
-843.0,-665.0,2047.0,0.0
-823.0,-674.0,1995.0,0.0
-850.0,-720.0,2051.0,0.0
-861.0,-755.0,2075.0,0.0
-822.0,-745.0,1974.0,0.0
-837.0,-783.0,2004.0,0.0
-821.0,-792.0,1959.0,0.0
-822.0,-818.0,1956.0,0.0
-17.0,-17.0,41.0,0.0
-9.0,-10.0,23.0,0.0
-20.0,-23.0,50.0,0.0
-14.0,-16.0,35.0,0.0
-24.0,-28.0,58.0,0.0
-19.0,-23.0,46.0,0.0
-17.0,-22.0,42.0,0.0
-22.0,-28.0,54.0,0.0
-19.0,-23.0,44.0,0.0
-13.0,-17.0,32.0,0.0
-17.0,-22.0,40.0,0.0
-25.0,-34.0,60.0,0.0
-30.0,-41.0,69.0,0.0
-19.0,-28.0,45.0,0.0
-30.0,-44.0,71.0,0.0
-24.0,-35.0,54.0,0.0
-25.0,-39.0,58.0,0.0
-21.0,-32.0,47.0,0.0
-32.0,-50.0,71.0,0.0
-25.0,-41.0,57.0,0.0
-31.0,-51.0,70.0,0.0
-28.0,-48.0,63.0,0.0
-29.0,-50.0,65.0,0.0
-27.0,-48.0,61.0,0.0
-32.0,-57.0,71.0,0.0
-29.0,-52.0,63.0,0.0
-32.0,-60.0,70.0,0.0
-30.0,-57.0,66.0,0.0
-34.0,-64.0,71.0,0.0
-31.0,-61.0,67.0,0.0
-37.0,-73.0,78.0,0.0
-38.0,-77.0,81.0,0.0
-44.0,-89.0,91.0,0.0
-44.0,-92.0,93.0,0.0
-41.0,-87.0,86.0,0.0
-44.0,-95.0,91.0,0.0
-43.0,-95.0,88.0,0.0
-49.0,-110.0,100.0,0.0
-44.0,-101.0,90.0,0.0
-48.0,-108.0,95.0,0.0
-48.0,-114.0,96.0,0.0
-47.0,-112.0,93.0,0.0
-48.0,-115.0,93.0,0.0
-50.0,-121.0,96.0,0.0
-53.0,-132.0,102.0,0.0
-54.0,-136.0,102.0,0.0
-52.0,-134.0,99.0,0.0
-56.0,-147.0,106.0,0.0
-55.0,-145.0,103.0,0.0
-56.0,-152.0,105.0,0.0
-55.0,-150.0,101.0,0.0
-55.0,-151.0,99.0,0.0
-56.0,-157.0,100.0,0.0
-57.0,-163.0,101.0,0.0
-55.0,-161.0,98.0,0.0
-57.0,-166.0,99.0,0.0
-56.0,-169.0,97.0,0.0
-59.0,-179.0,101.0,0.0
-59.0,-182.0,100.0,0.0
-58.0,-183.0,97.0,0.0
-58.0,-186.0,97.0,0.0
-59.0,-191.0,96.0,0.0
-59.0,-193.0,95.0,0.0
-57.0,-192.0,92.0,0.0
-57.0,-194.0,90.0,0.0
-58.0,-195.0,88.0,0.0
-55.0,-191.0,83.0,0.0
-55.0,-195.0,83.0,0.0
-56.0,-201.0,83.0,0.0
-53.0,-194.0,77.0,0.0
-54.0,-197.0,76.0,0.0
-65.0,-244.0,91.0,0.0
-75.0,-284.0,103.0,0.0
-75.0,-291.0,101.0,0.0
-74.0,-292.0,99.0,0.0
-73.0,-289.0,94.0,0.0
-73.0,-292.0,92.0,0.0
-70.0,-288.0,87.0,0.0
-72.0,-299.0,87.0,0.0
-69.0,-294.0,82.0,0.0
-69.0,-296.0,79.0,0.0
-68.0,-300.0,77.0,0.0
-5731.0,18668.0,16608.0,0.0
-5790.0,18456.0,16777.0,0.0
-6802.0,21212.0,19703.0,0.0
-6816.0,20799.0,19739.0,0.0
-6793.0,20278.0,19666.0,0.0
-6769.0,19768.0,19590.0,0.0
-6720.0,19201.0,19444.0,0.0
-6523.0,18227.0,18862.0,0.0
-6633.0,18130.0,19175.0,0.0
-6696.0,17898.0,19345.0,0.0
-11109.0,29039.0,32083.0,0.0
-11108.0,28392.0,32064.0,0.0
-11178.0,27934.0,32251.0,0.0
-11108.0,27133.0,32027.0,0.0
0.0,0.0,0.0,0.0
-10920.0,25481.0,31449.0,0.0
0.0,0.0,0.0,0.0
-10657.0,23740.0,30653.0,0.0
-10767.0,23428.0,30948.0,0.0
-10976.0,23324.0,31529.0,0.0
-10954.0,22727.0,31442.0,0.0
-11079.0,22438.0,31777.0,0.0
0.0,0.0,0.0,0.0
0.0,0.0,0.0,0.0
0.0,0.0,0.0,0.0
-669.0,1228.0,1914.0,0.0
-11966.0,21399.0,34183.0,0.0
0.0,0.0,0.0,0.0
-10752.0,18254.0,30661.0,0.0
-10923.0,18060.0,31121.0,0.0
-11889.0,19135.0,33841.0,0.0
-11832.0,18530.0,33646.0,0.0
-11105.0,16916.0,31548.0,0.0
-10998.0,16287.0,31211.0,0.0
-11735.0,16888.0,33271.0,0.0
0.0,0.0,0.0,0.0
-11677.0,15844.0,33036.0,0.0
-11698.0,15398.0,33058.0,0.0
0.0,0.0,0.0,0.0
0.0,0.0,0.0,0.0
-11568.0,13852.0,32584.0,0.0
-11478.0,13299.0,32294.0,0.0
-11493.0,12873.0,32297.0,0.0
-11645.0,12599.0,32685.0,0.0
-9399.0,9815.0,26350.0,0.0
-9378.0,9443.0,26260.0,0.0
-9379.0,9095.0,26227.0,0.0
-9348.0,8721.0,26108.0,0.0
-9328.0,8363.0,26020.0,0.0
-9319.0,8018.0,25960.0,0.0
-9297.0,7666.0,25863.0,0.0
-9293.0,7332.0,25817.0,0.0
-9268.0,6986.0,25714.0,0.0
-9252.0,6650.0,25632.0,0.0
-9246.0,6323.0,25577.0,0.0
-9225.0,5990.0,25483.0,0.0
-9218.0,5670.0,25428.0,0.0
-9203.0,5347.0,25348.0,0.0
-9188.0,5029.0,25270.0,0.0
-9174.0,4712.0,25193.0,0.0
-9164.0,4401.0,25126.0,0.0
-9166.0,4098.0,25092.0,0.0
-9151.0,3789.0,25007.0,0.0
-9138.0,3484.0,24934.0,0.0
-9131.0,3184.0,24872.0,0.0
-9117.0,2883.0,24793.0,0.0
-9109.0,2586.0,24730.0,0.0
-9105.0,2293.0,24676.0,0.0
-9090.0,1998.0,24594.0,0.0
-9091.0,1709.0,24553.0,0.0
-9078.0,1420.0,24474.0,0.0
-10157.0,1268.0,27333.0,0.0
-9501.0,888.0,25521.0,0.0
-9489.0,590.0,25440.0,0.0
-9845.0,305.0,26345.0,0.0
-10349.0,0.0,27639.0,0.0
-11841.0,-365.0,31566.0,2.0
-12091.0,-746.0,32168.0,2.0
0.0,0.0,0.0,0.0
-12197.0,-1501.0,32319.0,2.0
0.0,0.0,0.0,0.0
-12255.0,-2256.0,32338.0,2.0
-12273.0,-2633.0,32315.0,2.0
-12173.0,-2980.0,31986.0,2.0
-830.0,-228.0,2179.0,0.0
-835.0,-255.0,2187.0,0.0
-12020.0,-4033.0,31377.0,2.0
-800.0,-293.0,2085.0,0.0
-814.0,-322.0,2116.0,0.0
0.0,0.0,0.0,0.0
-826.0,-376.0,2137.0,0.0
-812.0,-395.0,2098.0,0.0
-809.0,-418.0,2084.0,0.0
-806.0,-440.0,2071.0,0.0
-813.0,-468.0,2082.0,0.0
-11901.0,-7203.0,30403.0,2.0
-822.0,-523.0,2098.0,0.0
-813.0,-540.0,2067.0,0.0
-800.0,-556.0,2030.0,0.0
-11740.0,-8507.0,29679.0,2.0
-11706.0,-8833.0,29513.0,2.0
-11720.0,-9193.0,29466.0,2.0
-811.0,-660.0,2036.0,0.0
-810.0,-683.0,2025.0,0.0
-827.0,-723.0,2062.0,0.0
-804.0,-728.0,2002.0,0.0
-826.0,-771.0,2047.0,0.0
-6.0,-6.0,18.0,0.0
-13.0,-13.0,34.0,0.0
-8.0,-8.0,21.0,0.0
-12.0,-13.0,31.0,0.0
-6.0,-7.0,16.0,0.0
-16.0,-18.0,41.0,0.0
-17.0,-20.0,42.0,0.0
-20.0,-23.0,49.0,0.0
-15.0,-18.0,38.0,0.0
-21.0,-26.0,51.0,0.0
-15.0,-20.0,38.0,0.0
-15.0,-21.0,39.0,0.0
-17.0,-22.0,41.0,0.0
-18.0,-26.0,46.0,0.0
-17.0,-25.0,42.0,0.0
-26.0,-38.0,64.0,0.0
-15.0,-22.0,36.0,0.0
-12.0,-20.0,31.0,0.0
-17.0,-27.0,42.0,0.0
-21.0,-33.0,50.0,0.0
-24.0,-39.0,57.0,0.0
-26.0,-43.0,62.0,0.0
-24.0,-41.0,56.0,0.0
-26.0,-44.0,61.0,0.0
-31.0,-54.0,72.0,0.0
-23.0,-42.0,55.0,0.0
-22.0,-39.0,50.0,0.0
-31.0,-58.0,71.0,0.0
-31.0,-59.0,72.0,0.0
-30.0,-58.0,68.0,0.0
-29.0,-58.0,67.0,0.0
-33.0,-64.0,72.0,0.0
-31.0,-64.0,71.0,0.0
-30.0,-61.0,66.0,0.0
-30.0,-62.0,65.0,0.0
-35.0,-74.0,76.0,0.0
-39.0,-85.0,86.0,0.0
-41.0,-92.0,90.0,0.0
-41.0,-91.0,86.0,0.0
-38.0,-85.0,80.0,0.0
-44.0,-102.0,94.0,0.0
-43.0,-100.0,89.0,0.0
-45.0,-106.0,93.0,0.0
-45.0,-109.0,92.0,0.0
-48.0,-117.0,98.0,0.0
-45.0,-113.0,91.0,0.0
-45.0,-116.0,92.0,0.0
-50.0,-128.0,100.0,0.0
-45.0,-120.0,91.0,0.0
-47.0,-127.0,93.0,0.0
-49.0,-132.0,96.0,0.0
-51.0,-139.0,98.0,0.0
-51.0,-141.0,97.0,0.0
-48.0,-136.0,92.0,0.0
-50.0,-143.0,94.0,0.0
-51.0,-149.0,95.0,0.0
-51.0,-153.0,95.0,0.0
-51.0,-153.0,93.0,0.0
-49.0,-149.0,89.0,0.0
-52.0,-161.0,93.0,0.0
-50.0,-157.0,89.0,0.0
-54.0,-174.0,96.0,0.0
-52.0,-169.0,91.0,0.0
-53.0,-177.0,92.0,0.0
-53.0,-177.0,91.0,0.0
-53.0,-178.0,89.0,0.0
-53.0,-182.0,88.0,0.0
-53.0,-186.0,88.0,0.0
-51.0,-181.0,82.0,0.0
-51.0,-185.0,82.0,0.0
-49.0,-177.0,76.0,0.0
-48.0,-180.0,74.0,0.0
-48.0,-179.0,72.0,0.0
-48.0,-184.0,72.0,0.0
-54.0,-210.0,79.0,0.0
-72.0,-282.0,103.0,0.0
-69.0,-278.0,98.0,0.0
-70.0,-284.0,97.0,0.0
-70.0,-289.0,94.0,0.0
-68.0,-284.0,90.0,0.0
-68.0,-289.0,88.0,0.0
-67.0,-290.0,85.0,0.0
-66.0,-294.0,82.0,0.0
-66.0,-297.0,81.0,0.0
-65.0,-300.0,78.0,0.0
-5511.0,18647.0,16677.0,0.0
-5565.0,18419.0,16831.0,0.0
-6551.0,21210.0,19805.0,0.0
-6536.0,20698.0,19747.0,0.0
-6517.0,20186.0,19678.0,0.0
-6071.0,18388.0,18318.0,0.0
-6192.0,18345.0,18674.0,0.0
-6280.0,18195.0,18926.0,0.0
-6385.0,18087.0,19228.0,0.0
-6447.0,17859.0,19403.0,0.0
-10666.0,28882.0,32074.0,0.0
-10545.0,27916.0,31688.0,0.0
-10568.0,27344.0,31730.0,0.0
-10685.0,27023.0,32059.0,0.0
-601.0,1486.0,1804.0,0.0
-10455.0,25247.0,31320.0,0.0
0.0,0.0,0.0,0.0
-10511.0,24221.0,31433.0,0.0
-10392.0,23386.0,31050.0,0.0
-10357.0,22756.0,30918.0,0.0
-10581.0,22697.0,31559.0,0.0
-10669.0,22333.0,31789.0,0.0
-11605.0,23703.0,34545.0,0.0
0.0,0.0,0.0,0.0
0.0,0.0,0.0,0.0
0.0,0.0,0.0,0.0
0.0,0.0,0.0,0.0
-11505.0,20700.0,34078.0,0.0
-10355.0,18148.0,30640.0,0.0
0.0,0.0,0.0,0.0
-10708.0,17786.0,31619.0,0.0
-10370.0,16757.0,30586.0,0.0
-10532.0,16551.0,31027.0,0.0
-10673.0,16304.0,31409.0,0.0
-10878.0,16144.0,31974.0,0.0
-11029.0,15897.0,32382.0,0.0
-11256.0,15745.0,33007.0,0.0
-11229.0,15237.0,32891.0,0.0
-11270.0,14825.0,32969.0,0.0
0.0,0.0,0.0,0.0
-11164.0,13773.0,32578.0,0.0
-11064.0,13206.0,32247.0,0.0
-11126.0,12836.0,32386.0,0.0
-11297.0,12588.0,32843.0,0.0
-9080.0,9763.0,26363.0,0.0
-9056.0,9388.0,26260.0,0.0
-9042.0,9026.0,26181.0,0.0
-9030.0,8671.0,26112.0,0.0
-9015.0,8317.0,26032.0,0.0
-8999.0,7966.0,25950.0,0.0
-8989.0,7624.0,25884.0,0.0
-8971.0,7280.0,25796.0,0.0
-8955.0,6941.0,25714.0,0.0
-8945.0,6609.0,25644.0,0.0
-8929.0,6277.0,25562.0,0.0
-8917.0,5950.0,25488.0,0.0
-8908.0,5629.0,25421.0,0.0
-8896.0,5310.0,25351.0,0.0
-8887.0,4993.0,25284.0,0.0
-8882.0,4684.0,25232.0,0.0
-8868.0,4371.0,25151.0,0.0
-8855.0,4061.0,25070.0,0.0
-8842.0,3755.0,24992.0,0.0
-8830.0,3450.0,24919.0,0.0
-8823.0,3152.0,24856.0,0.0
-8814.0,2853.0,24789.0,0.0
-8803.0,2557.0,24713.0,0.0
-8803.0,2265.0,24669.0,0.0
-8787.0,1971.0,24581.0,0.0
-8790.0,1684.0,24547.0,0.0
-8806.0,1400.0,24545.0,0.0
-9815.0,1242.0,27308.0,0.0
-9196.0,866.0,25539.0,0.0
-9178.0,568.0,25439.0,0.0
-9573.0,286.0,26485.0,0.0
-9994.0,-21.0,27593.0,0.0
-11306.0,-384.0,31157.0,2.0
-11328.0,-744.0,31156.0,2.0
0.0,0.0,0.0,0.0
0.0,0.0,0.0,0.0
-788.0,-126.0,2157.0,0.0
-11758.0,-2254.0,32072.0,2.0
-797.0,-177.0,2171.0,0.0
-793.0,-201.0,2156.0,0.0
-795.0,-227.0,2157.0,0.0
0.0,0.0,0.0,0.0
-795.0,-276.0,2145.0,0.0
-11517.0,-4361.0,31007.0,2.0
-811.0,-332.0,2179.0,0.0
-812.0,-358.0,2177.0,0.0
-787.0,-372.0,2107.0,0.0
-11778.0,-5915.0,31415.0,2.0
-796.0,-424.0,2120.0,0.0
-787.0,-444.0,2091.0,0.0
-796.0,-474.0,2109.0,0.0
-778.0,-487.0,2058.0,0.0
-790.0,-519.0,2083.0,0.0
-795.0,-546.0,2091.0,0.0
-776.0,-557.0,2035.0,0.0
-794.0,-594.0,2077.0,0.0
-797.0,-620.0,2079.0,0.0
-11344.0,-9190.0,29487.0,2.0
-772.0,-650.0,2005.0,0.0
-11401.0,-9940.0,29472.0,2.0
-792.0,-715.0,2044.0,0.0
-785.0,-733.0,2020.0,0.0
-778.0,-750.0,1993.0,0.0
-17.0,-16.0,45.0,0.0
-14.0,-14.0,38.0,0.0
-11.0,-12.0,31.0,0.0
-14.0,-15.0,38.0,0.0
-17.0,-19.0,45.0,0.0
-24.0,-28.0,62.0,0.0
-23.0,-27.0,61.0,0.0
-19.0,-23.0,49.0,0.0
-17.0,-21.0,44.0,0.0
-18.0,-23.0,46.0,0.0
-16.0,-21.0,41.0,0.0
-16.0,-21.0,41.0,0.0
-16.0,-22.0,41.0,0.0
-20.0,-29.0,52.0,0.0
-16.0,-25.0,43.0,0.0
-25.0,-37.0,61.0,0.0
-21.0,-31.0,51.0,0.0
-25.0,-39.0,64.0,0.0
-22.0,-35.0,56.0,0.0
-21.0,-33.0,51.0,0.0
-25.0,-41.0,61.0,0.0
-28.0,-48.0,69.0,0.0
-27.0,-47.0,66.0,0.0
-27.0,-48.0,66.0,0.0
-27.0,-49.0,66.0,0.0
-22.0,-42.0,55.0,0.0
-30.0,-54.0,69.0,0.0
-33.0,-63.0,78.0,0.0
-30.0,-59.0,71.0,0.0
-35.0,-70.0,82.0,0.0
-35.0,-70.0,81.0,0.0
-32.0,-64.0,73.0,0.0
-35.0,-73.0,81.0,0.0
-36.0,-77.0,83.0,0.0
-38.0,-82.0,87.0,0.0
-39.0,-86.0,90.0,0.0
-38.0,-85.0,86.0,0.0
-40.0,-90.0,88.0,0.0
-41.0,-96.0,92.0,0.0
-39.0,-92.0,86.0,0.0
-40.0,-96.0,88.0,0.0
-41.0,-100.0,89.0,0.0
-45.0,-111.0,97.0,0.0
-42.0,-106.0,90.0,0.0
-45.0,-114.0,96.0,0.0
-45.0,-117.0,95.0,0.0
-47.0,-123.0,99.0,0.0
-45.0,-121.0,94.0,0.0
-46.0,-125.0,95.0,0.0
-50.0,-140.0,104.0,0.0
-49.0,-139.0,100.0,0.0
-47.0,-133.0,95.0,0.0
-49.0,-140.0,97.0,0.0
-49.0,-143.0,97.0,0.0
-49.0,-147.0,97.0,0.0
-49.0,-150.0,97.0,0.0
-52.0,-160.0,101.0,0.0
-53.0,-166.0,102.0,0.0
-51.0,-163.0,97.0,0.0
-50.0,-162.0,94.0,0.0
-50.0,-165.0,94.0,0.0
-52.0,-172.0,95.0,0.0
-55.0,-185.0,100.0,0.0
-52.0,-177.0,93.0,0.0
-54.0,-187.0,96.0,0.0
-52.0,-184.0,92.0,0.0
-50.0,-178.0,86.0,0.0
-53.0,-194.0,92.0,0.0
-50.0,-182.0,83.0,0.0
-48.0,-182.0,80.0,0.0
-50.0,-190.0,82.0,0.0
-46.0,-180.0,75.0,0.0
-47.0,-184.0,75.0,0.0
-44.0,-179.0,70.0,0.0
-50.0,-200.0,76.0,0.0
-64.0,-262.0,96.0,0.0
-68.0,-282.0,101.0,0.0
-66.0,-279.0,96.0,0.0
-66.0,-285.0,94.0,0.0
-63.0,-278.0,89.0,0.0
-63.0,-282.0,86.0,0.0
-63.0,-285.0,84.0,0.0
-63.0,-290.0,82.0,0.0
-62.0,-290.0,79.0,0.0
-62.0,-294.0,76.0,0.0
-5281.0,18593.0,16715.0,0.0
-5340.0,18382.0,16885.0,0.0
-6252.0,21050.0,19756.0,0.0
-6237.0,20532.0,19689.0,0.0
-5901.0,18995.0,18611.0,0.0
-6041.0,19012.0,19034.0,0.0
-6137.0,18883.0,19318.0,0.0
-6171.0,18564.0,19408.0,0.0
-6159.0,18112.0,19351.0,0.0
-10201.0,29322.0,32016.0,0.0
-10214.0,28696.0,32025.0,0.0
0.0,0.0,0.0,0.0
-10131.0,27186.0,31703.0,0.0
-11454.0,30032.0,35805.0,0.0
-562.0,1442.0,1759.0,0.0
-596.0,1495.0,1863.0,0.0
0.0,0.0,0.0,0.0
-9890.0,23606.0,30787.0,0.0
-10046.0,23409.0,31235.0,0.0
-9983.0,22708.0,31005.0,0.0
-10175.0,22592.0,31571.0,0.0
-10239.0,22184.0,31733.0,0.0
-11151.0,23568.0,34519.0,0.0
0.0,0.0,0.0,0.0
-11144.0,22399.0,34419.0,0.0
0.0,0.0,0.0,0.0
-11077.0,21149.0,34130.0,0.0
0.0,0.0,0.0,0.0
-11036.0,19992.0,33924.0,0.0
-9990.0,17617.0,30670.0,0.0
-10012.0,17183.0,30702.0,0.0
-10023.0,16732.0,30695.0,0.0
-10154.0,16482.0,31058.0,0.0
-10274.0,16208.0,31386.0,0.0
-10462.0,16035.0,31920.0,0.0
-10584.0,15749.0,32249.0,0.0
-10860.0,15681.0,33045.0,0.0
-10816.0,15147.0,32869.0,0.0
-10806.0,14668.0,32795.0,0.0
0.0,0.0,0.0,0.0
-10764.0,13700.0,32580.0,0.0
-10616.0,13068.0,32085.0,0.0
-10741.0,12779.0,32419.0,0.0
-10920.0,12547.0,32914.0,0.0
-8744.0,9693.0,26319.0,0.0
-8728.0,9326.0,26234.0,0.0
-8709.0,8960.0,26140.0,0.0
-8703.0,8611.0,26081.0,0.0
-8686.0,8255.0,25992.0,0.0
-8681.0,7916.0,25940.0,0.0
-8656.0,7561.0,25826.0,0.0
-8646.0,7224.0,25756.0,0.0
-8646.0,6897.0,25715.0,0.0
-8625.0,6559.0,25615.0,0.0
-8615.0,6232.0,25546.0,0.0
-8606.0,5909.0,25477.0,0.0
-8590.0,5583.0,25390.0,0.0
-8587.0,5269.0,25339.0,0.0
-8576.0,4954.0,25267.0,0.0
-8564.0,4641.0,25190.0,0.0
-8554.0,4331.0,25117.0,0.0
-8546.0,4025.0,25053.0,0.0
-8527.0,3717.0,24954.0,0.0
-8532.0,3421.0,24924.0,0.0
-8511.0,3118.0,24820.0,0.0
-8511.0,2823.0,24774.0,0.0
-8499.0,2528.0,24699.0,0.0
-8488.0,2235.0,24621.0,0.0
-8484.0,1945.0,24564.0,0.0
-8489.0,1659.0,24533.0,0.0
-8532.0,1381.0,24612.0,0.0
-9478.0,1217.0,27292.0,0.0
-8884.0,844.0,25529.0,0.0
-8874.0,548.0,25452.0,0.0
-9285.0,266.0,26580.0,0.0
-9654.0,-41.0,27582.0,0.0
-10929.0,-405.0,31164.0,2.0
-10896.0,-761.0,31007.0,2.0
0.0,0.0,0.0,0.0
-10990.0,-1484.0,31146.0,2.0
-754.0,-127.0,2136.0,0.0
-757.0,-151.0,2138.0,0.0
-767.0,-178.0,2161.0,0.0
-11213.0,-2964.0,31511.0,2.0
-762.0,-226.0,2138.0,0.0
-776.0,-255.0,2174.0,0.0
-765.0,-275.0,2136.0,0.0
-759.0,-298.0,2115.0,0.0
-780.0,-332.0,2170.0,0.0
-773.0,-353.0,2145.0,0.0
-748.0,-365.0,2069.0,0.0
-770.0,-401.0,2126.0,0.0
-762.0,-421.0,2100.0,0.0
-779.0,-455.0,2141.0,0.0
-776.0,-478.0,2128.0,0.0
-760.0,-492.0,2079.0,0.0
-763.0,-519.0,2082.0,0.0
-763.0,-542.0,2076.0,0.0
-763.0,-566.0,2071.0,0.0
-765.0,-592.0,2072.0,0.0
-761.0,-613.0,2056.0,0.0
-766.0,-641.0,2060.0,0.0
-8.0,-7.0,23.0,0.0
-3.0,-2.0,10.0,0.0
-10.0,-9.0,29.0,0.0
-8.0,-8.0,25.0,0.0
-5.0,-6.0,17.0,0.0
-11.0,-12.0,33.0,0.0
-13.0,-14.0,35.0,0.0
-15.0,-16.0,41.0,0.0
-13.0,-15.0,36.0,0.0
-15.0,-17.0,41.0,0.0
-19.0,-23.0,51.0,0.0
-14.0,-18.0,40.0,0.0
-14.0,-17.0,37.0,0.0
-11.0,-14.0,29.0,0.0
-18.0,-24.0,48.0,0.0
-15.0,-21.0,41.0,0.0
-16.0,-22.0,42.0,0.0
-17.0,-25.0,46.0,0.0
-18.0,-27.0,47.0,0.0
-14.0,-22.0,39.0,0.0
-16.0,-24.0,41.0,0.0
-15.0,-24.0,39.0,0.0
-20.0,-33.0,53.0,0.0
-16.0,-27.0,42.0,0.0
-23.0,-39.0,59.0,0.0
-24.0,-41.0,60.0,0.0
-23.0,-40.0,59.0,0.0
-20.0,-37.0,53.0,0.0
-24.0,-45.0,62.0,0.0
-30.0,-57.0,76.0,0.0
-27.0,-52.0,68.0,0.0
-26.0,-51.0,66.0,0.0
-23.0,-46.0,57.0,0.0
-25.0,-50.0,62.0,0.0
-34.0,-70.0,82.0,0.0
-28.0,-59.0,68.0,0.0
-35.0,-73.0,82.0,0.0
-32.0,-71.0,78.0,0.0
-33.0,-73.0,80.0,0.0
-32.0,-70.0,74.0,0.0
-34.0,-78.0,80.0,0.0
-37.0,-84.0,85.0,0.0
-37.0,-86.0,85.0,0.0
-37.0,-87.0,84.0,0.0
-38.0,-93.0,88.0,0.0
-41.0,-101.0,93.0,0.0
-40.0,-101.0,92.0,0.0
-41.0,-106.0,93.0,0.0
-43.0,-110.0,94.0,0.0
-42.0,-111.0,93.0,0.0
-42.0,-114.0,93.0,0.0
-43.0,-120.0,96.0,0.0
-45.0,-123.0,97.0,0.0
-45.0,-127.0,97.0,0.0
-44.0,-125.0,93.0,0.0
-45.0,-131.0,96.0,0.0
-47.0,-137.0,97.0,0.0
-45.0,-136.0,95.0,0.0
-47.0,-142.0,96.0,0.0
-44.0,-137.0,91.0,0.0
-46.0,-144.0,93.0,0.0
-44.0,-142.0,89.0,0.0
-45.0,-144.0,89.0,0.0
-46.0,-152.0,91.0,0.0
-46.0,-154.0,90.0,0.0
-45.0,-150.0,86.0,0.0
-44.0,-150.0,84.0,0.0
-47.0,-162.0,88.0,0.0
-44.0,-155.0,82.0,0.0
-44.0,-157.0,81.0,0.0
-47.0,-173.0,87.0,0.0
-43.0,-162.0,79.0,0.0
-43.0,-163.0,77.0,0.0
-42.0,-161.0,73.0,0.0
-45.0,-175.0,78.0,0.0
-42.0,-169.0,73.0,0.0
-42.0,-172.0,72.0,0.0
-39.0,-162.0,66.0,0.0
-42.0,-174.0,69.0,0.0
-41.0,-171.0,66.0,0.0
-58.0,-249.0,93.0,0.0
-63.0,-273.0,98.0,0.0
-63.0,-278.0,96.0,0.0
-61.0,-275.0,92.0,0.0
-61.0,-279.0,89.0,0.0
-61.0,-281.0,87.0,0.0
-60.0,-285.0,85.0,0.0
-60.0,-288.0,82.0,0.0
-60.0,-291.0,80.0,0.0
-59.0,-293.0,77.0,0.0
-5091.0,18685.0,16881.0,0.0
-5922.0,21246.0,19611.0,0.0
-5852.0,20523.0,19357.0,0.0
-5920.0,20292.0,19554.0,0.0
-5877.0,19694.0,19391.0,0.0
-5868.0,19217.0,19333.0,0.0
-5894.0,18868.0,19398.0,0.0
-5901.0,18464.0,19397.0,0.0
-5922.0,18107.0,19439.0,0.0
-5999.0,17923.0,19666.0,0.0
-9775.0,28540.0,32005.0,0.0
-9807.0,27975.0,32067.0,0.0
-9774.0,27241.0,31922.0,0.0
-7242.0,19717.0,23621.0,0.0
-7237.0,19245.0,23573.0,0.0
-7208.0,18720.0,23450.0,0.0
-7269.0,18433.0,23615.0,0.0
0.0,0.0,0.0,0.0
-9688.0,23414.0,31394.0,0.0
-9678.0,22827.0,31318.0,0.0
-9814.0,22588.0,31716.0,0.0
-9830.0,22074.0,31729.0,0.0
-10718.0,23473.0,34547.0,0.0
0.0,0.0,0.0,0.0
0.0,0.0,0.0,0.0
-623.0,1267.0,2004.0,0.0
0.0,0.0,0.0,0.0
-10604.0,20418.0,33947.0,0.0
0.0,0.0,0.0,0.0
-9624.0,17561.0,30725.0,0.0
-9619.0,17078.0,30664.0,0.0
-9724.0,16791.0,30957.0,0.0
-9856.0,16545.0,31331.0,0.0
-9900.0,16150.0,31428.0,0.0
-10227.0,16204.0,32420.0,0.0
-10450.0,16072.0,33078.0,0.0
-10419.0,15549.0,32932.0,0.0
-10421.0,15079.0,32890.0,0.0
-10375.0,14550.0,32697.0,0.0
-10383.0,14103.0,32677.0,0.0
-10333.0,13582.0,32468.0,0.0
-10194.0,12958.0,31984.0,0.0
-10358.0,12725.0,32452.0,0.0
-8438.0,10007.0,26395.0,0.0
-8427.0,9642.0,26323.0,0.0
-8408.0,9271.0,26222.0,0.0
-8396.0,8913.0,26145.0,0.0
-8389.0,8562.0,26083.0,0.0
-8377.0,8212.0,26003.0,0.0
-8359.0,7860.0,25907.0,0.0
-8349.0,7519.0,25833.0,0.0
-8341.0,7184.0,25766.0,0.0
-8330.0,6849.0,25691.0,0.0
-8313.0,6514.0,25597.0,0.0
-8309.0,6192.0,25544.0,0.0
-8300.0,5869.0,25475.0,0.0
-8294.0,5551.0,25412.0,0.0
-8278.0,5230.0,25321.0,0.0
-8270.0,4917.0,25254.0,0.0
-8265.0,4608.0,25197.0,0.0
-8255.0,4299.0,25119.0,0.0
-8247.0,3994.0,25055.0,0.0
-8239.0,3691.0,24984.0,0.0
-8220.0,3386.0,24882.0,0.0
-8220.0,3091.0,24836.0,0.0
-8216.0,2797.0,24780.0,0.0
-8201.0,2501.0,24691.0,0.0
-8192.0,2209.0,24618.0,0.0
-8195.0,1922.0,24581.0,0.0
-8197.0,1637.0,24539.0,0.0
-8286.0,1366.0,24760.0,0.0
-9151.0,1193.0,27291.0,0.0
-8566.0,821.0,25498.0,0.0
-8570.0,528.0,25460.0,0.0
-8988.0,247.0,26649.0,0.0
0.0,0.0,0.0,0.0
-10503.0,-425.0,31017.0,2.0
-10488.0,-778.0,30909.0,2.0
-10461.0,-1129.0,30766.0,2.0
-736.0,-104.0,2164.0,0.0
-743.0,-130.0,2177.0,0.0
-742.0,-155.0,2169.0,0.0
-743.0,-179.0,2168.0,0.0
-10774.0,-2962.0,31353.0,2.0
-720.0,-222.0,2094.0,0.0
-740.0,-253.0,2146.0,0.0
-741.0,-277.0,2144.0,0.0
-745.0,-304.0,2151.0,0.0
-738.0,-325.0,2125.0,0.0
-770.0,-365.0,2213.0,0.0
-756.0,-383.0,2169.0,0.0
-731.0,-395.0,2090.0,0.0
-749.0,-429.0,2139.0,0.0
-742.0,-449.0,2114.0,0.0
-749.0,-478.0,2129.0,0.0
-750.0,-503.0,2125.0,0.0
-741.0,-522.0,2094.0,0.0
-6.0,-4.0,19.0,0.0
-5.0,-4.0,18.0,0.0
-3.0,-2.0,10.0,0.0
-12.0,-9.0,34.0,0.0
-4.0,-3.0,14.0,0.0
-12.0,-11.0,37.0,0.0
-13.0,-13.0,39.0,0.0
-7.0,-6.0,20.0,0.0
-5.0,-4.0,15.0,0.0
-12.0,-13.0,36.0,0.0
-7.0,-7.0,22.0,0.0
-8.0,-8.0,23.0,0.0
-7.0,-8.0,20.0,0.0
-16.0,-18.0,45.0,0.0
-9.0,-12.0,29.0,0.0
-18.0,-23.0,50.0,0.0
-12.0,-15.0,34.0,0.0
-19.0,-26.0,54.0,0.0
-16.0,-23.0,46.0,0.0
-16.0,-22.0,44.0,0.0
-18.0,-25.0,49.0,0.0
-16.0,-24.0,46.0,0.0
-19.0,-29.0,53.0,0.0
-21.0,-31.0,56.0,0.0
-20.0,-32.0,55.0,0.0
-25.0,-39.0,66.0,0.0
-22.0,-35.0,58.0,0.0
-15.0,-26.0,42.0,0.0
-26.0,-46.0,71.0,0.0
-24.0,-41.0,63.0,0.0
-25.0,-44.0,66.0,0.0
-19.0,-36.0,52.0,0.0
-22.0,-40.0,57.0,0.0
-29.0,-55.0,76.0,0.0
-24.0,-47.0,63.0,0.0
-26.0,-52.0,69.0,0.0
-31.0,-62.0,79.0,0.0
-31.0,-64.0,79.0,0.0
-25.0,-52.0,64.0,0.0
-24.0,-51.0,60.0,0.0
-28.0,-60.0,70.0,0.0
-31.0,-66.0,76.0,0.0
-31.0,-69.0,77.0,0.0
-31.0,-69.0,75.0,0.0
-35.0,-80.0,85.0,0.0
-35.0,-85.0,88.0,0.0
-41.0,-97.0,98.0,0.0
-34.0,-82.0,80.0,0.0
-37.0,-92.0,89.0,0.0
-40.0,-99.0,94.0,0.0
-38.0,-99.0,92.0,0.0
-36.0,-93.0,84.0,0.0
-37.0,-98.0,87.0,0.0
-39.0,-105.0,91.0,0.0
-41.0,-114.0,96.0,0.0
-40.0,-110.0,91.0,0.0
-39.0,-110.0,89.0,0.0
-40.0,-117.0,91.0,0.0
-41.0,-120.0,92.0,0.0
-42.0,-123.0,92.0,0.0
-42.0,-126.0,93.0,0.0
-44.0,-134.0,95.0,0.0
-42.0,-133.0,93.0,0.0
-45.0,-144.0,99.0,0.0
-44.0,-142.0,95.0,0.0
-45.0,-148.0,96.0,0.0
-47.0,-157.0,100.0,0.0
-46.0,-153.0,95.0,0.0
-46.0,-157.0,95.0,0.0
-45.0,-157.0,92.0,0.0
-42.0,-149.0,86.0,0.0
-45.0,-162.0,90.0,0.0
-45.0,-164.0,89.0,0.0
-44.0,-164.0,87.0,0.0
-45.0,-173.0,90.0,0.0
-45.0,-172.0,87.0,0.0
-44.0,-172.0,84.0,0.0
-44.0,-173.0,83.0,0.0
-41.0,-167.0,77.0,0.0
-43.0,-174.0,78.0,0.0
-43.0,-176.0,77.0,0.0
-40.0,-172.0,73.0,0.0
-40.0,-174.0,72.0,0.0
-39.0,-168.0,67.0,0.0
-39.0,-175.0,67.0,0.0
-52.0,-232.0,87.0,0.0
-59.0,-269.0,97.0,0.0
-59.0,-274.0,96.0,0.0
-59.0,-277.0,94.0,0.0
-56.0,-272.0,88.0,0.0
-57.0,-275.0,86.0,0.0
-57.0,-280.0,84.0,0.0
-56.0,-284.0,82.0,0.0
-54.0,-281.0,78.0,0.0
-56.0,-291.0,77.0,0.0
-4862.0,18640.0,16921.0,0.0
-5149.0,19287.0,17890.0,0.0
-5265.0,19270.0,18261.0,0.0
-5351.0,19136.0,18529.0,0.0
-5744.0,20073.0,19859.0,0.0
-5914.0,20192.0,20412.0,0.0
-5523.0,18429.0,19035.0,0.0
-5713.0,18622.0,19656.0,0.0
-5715.0,18201.0,19632.0,0.0
-5750.0,17891.0,19723.0,0.0
-9360.0,28448.0,32052.0,0.0
-9441.0,28028.0,32278.0,0.0
-9434.0,27354.0,32204.0,0.0
-7132.0,20195.0,24307.0,0.0
-7195.0,19894.0,24482.0,0.0
-7222.0,19497.0,24537.0,0.0
-7233.0,19062.0,24536.0,0.0
-7223.0,18581.0,24464.0,0.0
-7232.0,18155.0,24454.0,0.0
-7043.0,17254.0,23782.0,0.0
-7193.0,17191.0,24251.0,0.0
-7306.0,17030.0,24593.0,0.0
0.0,0.0,0.0,0.0
0.0,0.0,0.0,0.0
-10211.0,22052.0,34209.0,0.0
-568.0,1196.0,1902.0,0.0
0.0,0.0,0.0,0.0
-10188.0,20336.0,33972.0,0.0
-9227.0,17928.0,30717.0,0.0
-9250.0,17492.0,30749.0,0.0
-9247.0,17009.0,30688.0,0.0
-9348.0,16722.0,30977.0,0.0
-9499.0,16515.0,31425.0,0.0
-9549.0,16130.0,31543.0,0.0
-9768.0,16024.0,32215.0,0.0
0.0,0.0,0.0,0.0
-10027.0,15486.0,32963.0,0.0
-10007.0,14984.0,32846.0,0.0
0.0,0.0,0.0,0.0
-9995.0,14042.0,32701.0,0.0
-9970.0,13554.0,32566.0,0.0
-9833.0,12924.0,32064.0,0.0
-9976.0,12670.0,32481.0,0.0
-8107.0,9939.0,26350.0,0.0
-8107.0,9586.0,26308.0,0.0
-8095.0,9223.0,26227.0,0.0
-8083.0,8864.0,26146.0,0.0
-8067.0,8505.0,26050.0,0.0
-8057.0,8157.0,25972.0,0.0
-8046.0,7812.0,25895.0,0.0
-8041.0,7476.0,25833.0,0.0
-8027.0,7135.0,25745.0,0.0
-8024.0,6808.0,25689.0,0.0
-8014.0,6479.0,25617.0,0.0
-7998.0,6147.0,25518.0,0.0
-7993.0,5829.0,25460.0,0.0
-7984.0,5509.0,25387.0,0.0
-7975.0,5194.0,25313.0,0.0
-7967.0,4881.0,25243.0,0.0
-7957.0,4570.0,25165.0,0.0
-7951.0,4264.0,25103.0,0.0
-7945.0,3961.0,25039.0,0.0
-7938.0,3659.0,24971.0,0.0
-7924.0,3357.0,24882.0,0.0
-7920.0,3062.0,24822.0,0.0
-7913.0,2767.0,24753.0,0.0
-7914.0,2478.0,24712.0,0.0
-7897.0,2184.0,24609.0,0.0
-7888.0,1895.0,24534.0,0.0
-7894.0,1612.0,24508.0,0.0
-8017.0,1349.0,24842.0,0.0
-8807.0,1167.0,27235.0,0.0
-8263.0,801.0,25500.0,0.0
-8277.0,509.0,25493.0,0.0
-8698.0,228.0,26737.0,0.0
-10040.0,-89.0,30800.0,2.0
-10037.0,-441.0,30727.0,2.0
-10081.0,-795.0,30800.0,2.0
-704.0,-80.0,2148.0,0.0
-710.0,-106.0,2164.0,0.0
-698.0,-128.0,2121.0,0.0
-736.0,-160.0,2234.0,0.0
-712.0,-179.0,2153.0,0.0
-715.0,-205.0,2160.0,0.0
-699.0,-224.0,2107.0,0.0
-717.0,-254.0,2156.0,0.0
-722.0,-281.0,2167.0,0.0
-718.0,-305.0,2151.0,0.0
-732.0,-335.0,2185.0,0.0
-716.0,-351.0,2130.0,0.0
-9.0,-5.0,31.0,0.0
-713.0,-399.0,2113.0,0.0
-5.0,-3.0,15.0,0.0
-721.0,-452.0,2128.0,0.0
-4.0,-3.0,13.0,0.0
0.0,0.0,3.0,0.0
-8.0,-6.0,25.0,0.0
-5.0,-4.0,17.0,0.0
-4.0,-3.0,14.0,0.0
-8.0,-6.0,26.0,0.0
-6.0,-5.0,21.0,0.0
-5.0,-5.0,18.0,0.0
-1.0,-1.0,4.0,0.0
-6.0,-6.0,22.0,0.0
-10.0,-11.0,32.0,0.0
-5.0,-5.0,16.0,0.0
-4.0,-4.0,12.0,0.0
-8.0,-9.0,24.0,0.0
-12.0,-13.0,34.0,0.0
-10.0,-12.0,31.0,0.0
-6.0,-8.0,21.0,0.0
-16.0,-20.0,46.0,0.0
-13.0,-17.0,39.0,0.0
-14.0,-20.0,44.0,0.0
-12.0,-17.0,35.0,0.0
-13.0,-19.0,40.0,0.0
-10.0,-14.0,29.0,0.0
-18.0,-28.0,54.0,0.0
-16.0,-23.0,44.0,0.0
-16.0,-25.0,46.0,0.0
-14.0,-23.0,42.0,0.0
-17.0,-27.0,48.0,0.0
-21.0,-35.0,59.0,0.0
-16.0,-28.0,46.0,0.0
-20.0,-36.0,56.0,0.0
-20.0,-34.0,54.0,0.0
-22.0,-40.0,61.0,0.0
-25.0,-46.0,68.0,0.0
-25.0,-47.0,68.0,0.0
-21.0,-41.0,59.0,0.0
-27.0,-52.0,72.0,0.0
-27.0,-54.0,72.0,0.0
-27.0,-54.0,71.0,0.0
-23.0,-48.0,62.0,0.0
-27.0,-57.0,71.0,0.0
-29.0,-62.0,77.0,0.0
-28.0,-62.0,73.0,0.0
-26.0,-58.0,68.0,0.0
-27.0,-60.0,69.0,0.0
-28.0,-67.0,75.0,0.0
-30.0,-71.0,77.0,0.0
-31.0,-76.0,81.0,0.0
-34.0,-82.0,85.0,0.0
-35.0,-86.0,88.0,0.0
-34.0,-85.0,84.0,0.0
-34.0,-90.0,87.0,0.0
-37.0,-96.0,90.0,0.0
-35.0,-94.0,87.0,0.0
-32.0,-87.0,79.0,0.0
-38.0,-106.0,94.0,0.0
-37.0,-103.0,89.0,0.0
-37.0,-106.0,90.0,0.0
-38.0,-112.0,92.0,0.0
-40.0,-116.0,95.0,0.0
-40.0,-122.0,96.0,0.0
-39.0,-119.0,92.0,0.0
-39.0,-122.0,92.0,0.0
-40.0,-128.0,94.0,0.0
-39.0,-126.0,90.0,0.0
-41.0,-132.0,92.0,0.0
-38.0,-127.0,87.0,0.0
-41.0,-136.0,91.0,0.0
-42.0,-143.0,93.0,0.0
-40.0,-138.0,88.0,0.0
-38.0,-132.0,83.0,0.0
-41.0,-146.0,89.0,0.0
-41.0,-151.0,90.0,0.0
-40.0,-148.0,85.0,0.0
-41.0,-154.0,87.0,0.0
-41.0,-158.0,87.0,0.0
-43.0,-167.0,89.0,0.0
-42.0,-163.0,84.0,0.0
-41.0,-164.0,83.0,0.0
-41.0,-165.0,81.0,0.0
-41.0,-167.0,79.0,0.0
-37.0,-156.0,72.0,0.0
-38.0,-162.0,73.0,0.0
-37.0,-159.0,70.0,0.0
-37.0,-160.0,68.0,0.0
-35.0,-158.0,65.0,0.0
-37.0,-167.0,67.0,0.0
-36.0,-164.0,63.0,0.0
-47.0,-219.0,82.0,0.0
-56.0,-266.0,97.0,0.0
-56.0,-272.0,96.0,0.0
-56.0,-276.0,94.0,0.0
-54.0,-271.0,89.0,0.0
-54.0,-275.0,87.0,0.0
-54.0,-278.0,84.0,0.0
-53.0,-282.0,82.0,0.0
-53.0,-284.0,80.0,0.0
-53.0,-288.0,78.0,0.0
-4695.0,18841.0,17185.0,0.0
-4782.0,18743.0,17467.0,0.0
-5034.0,19271.0,18347.0,0.0
-5136.0,19204.0,18681.0,0.0
-5239.0,19135.0,19018.0,0.0
-5299.0,18902.0,19195.0,0.0
-5422.0,18893.0,19605.0,0.0
-5337.0,18164.0,19260.0,0.0
-5518.0,18340.0,19873.0,0.0
-5548.0,18008.0,19943.0,0.0
-5592.0,17724.0,20062.0,0.0
-8966.0,27750.0,32105.0,0.0
-8982.0,27144.0,32103.0,0.0
-6851.0,20215.0,24442.0,0.0
-6979.0,20101.0,24850.0,0.0
-7118.0,20009.0,25296.0,0.0
-7133.0,19569.0,25303.0,0.0
-7116.0,19051.0,25197.0,0.0
-7104.0,18559.0,25112.0,0.0
-7090.0,18068.0,25017.0,0.0
-7074.0,17580.0,24913.0,0.0
-7032.0,17042.0,24723.0,0.0
-7078.0,16722.0,24837.0,0.0
-9740.0,22428.0,34118.0,0.0
-9775.0,21933.0,34180.0,0.0
-9772.0,21359.0,34107.0,0.0
-9719.0,20689.0,33862.0,0.0
-9785.0,20279.0,34033.0,0.0
-9765.0,19697.0,33903.0,0.0
-9147.0,17951.0,31702.0,0.0
-8983.0,17146.0,31079.0,0.0
-9098.0,16883.0,31422.0,0.0
-9064.0,16346.0,31250.0,0.0
-9344.0,16367.0,32157.0,0.0
-9342.0,15888.0,32095.0,0.0
-9583.0,15816.0,32866.0,0.0
-9663.0,15467.0,33081.0,0.0
-9631.0,14944.0,32914.0,0.0
-9628.0,14473.0,32846.0,0.0
0.0,0.0,0.0,0.0
-9578.0,13486.0,32563.0,0.0
-9484.0,12909.0,32185.0,0.0
-9622.0,12651.0,32596.0,0.0
-7788.0,9883.0,26338.0,0.0
-7793.0,9536.0,26308.0,0.0
-7785.0,9177.0,26233.0,0.0
-7774.0,8819.0,26150.0,0.0
-7749.0,8451.0,26023.0,0.0
-7746.0,8110.0,25963.0,0.0
-7747.0,7777.0,25920.0,0.0
-7737.0,7436.0,25839.0,0.0
-7721.0,7095.0,25743.0,0.0
-7715.0,6764.0,25672.0,0.0
-7702.0,6433.0,25586.0,0.0
-7707.0,6119.0,25553.0,0.0
-7689.0,5791.0,25448.0,0.0
-7680.0,5472.0,25373.0,0.0
-7681.0,5163.0,25327.0,0.0
-7666.0,4847.0,25234.0,0.0
-7665.0,4541.0,25182.0,0.0
-7654.0,4233.0,25099.0,0.0
-7653.0,3933.0,25047.0,0.0
-7639.0,3628.0,24955.0,0.0
-7635.0,3332.0,24896.0,0.0
-7634.0,3038.0,24845.0,0.0
-7626.0,2743.0,24771.0,0.0
-7614.0,2450.0,24684.0,0.0
-7606.0,2160.0,24610.0,0.0
-7603.0,1874.0,24554.0,0.0
-7599.0,1589.0,24491.0,0.0
-7717.0,1327.0,24821.0,0.0
-8503.0,1147.0,27297.0,0.0
-7957.0,781.0,25491.0,0.0
-7978.0,490.0,25507.0,0.0
-8408.0,209.0,26827.0,0.0
-691.0,-8.0,2203.0,0.0
-9594.0,-457.0,30485.0,2.0
-9634.0,-806.0,30545.0,2.0
-683.0,-81.0,2163.0,0.0
-695.0,-108.0,2196.0,0.0
-705.0,-135.0,2226.0,0.0
-691.0,-157.0,2174.0,0.0
-682.0,-179.0,2143.0,0.0
-682.0,-203.0,2136.0,0.0
-9692.0,-3233.0,30274.0,2.0
-703.0,-259.0,2194.0,0.0
-706.0,-286.0,2197.0,0.0
-9669.0,-4248.0,29998.0,2.0
-692.0,-329.0,2142.0,0.0
-697.0,-356.0,2155.0,0.0
-5.0,-3.0,17.0,0.0
-7.0,-5.0,26.0,0.0
-2.0,-2.0,9.0,0.0
-6.0,-4.0,19.0,0.0
-6.0,-4.0,19.0,0.0
-6.0,-5.0,20.0,0.0
-11.0,-9.0,37.0,0.0
-1.0,-1.0,7.0,0.0
-10.0,-8.0,33.0,0.0
-9.0,-7.0,30.0,0.0
-14.0,-12.0,45.0,0.0
-6.0,-6.0,22.0,0.0
-11.0,-11.0,35.0,0.0
-9.0,-9.0,28.0,0.0
-11.0,-12.0,36.0,0.0
-5.0,-5.0,18.0,0.0
-14.0,-15.0,42.0,0.0
-16.0,-19.0,52.0,0.0
-15.0,-17.0,45.0,0.0
-16.0,-20.0,51.0,0.0
-15.0,-19.0,47.0,0.0
-18.0,-23.0,54.0,0.0
-11.0,-15.0,35.0,0.0
-17.0,-23.0,52.0,0.0
-17.0,-24.0,51.0,0.0
-15.0,-21.0,44.0,0.0
-20.0,-29.0,59.0,0.0
-22.0,-32.0,63.0,0.0
-23.0,-36.0,68.0,0.0
-20.0,-34.0,61.0,0.0
-19.0,-31.0,57.0,0.0
-21.0,-36.0,62.0,0.0
-18.0,-32.0,53.0,0.0
-20.0,-35.0,58.0,0.0
-15.0,-27.0,44.0,0.0
-22.0,-40.0,63.0,0.0
-21.0,-40.0,60.0,0.0
-22.0,-42.0,63.0,0.0
-26.0,-50.0,73.0,0.0
-24.0,-48.0,69.0,0.0
-27.0,-55.0,77.0,0.0
-32.0,-67.0,90.0,0.0
-32.0,-66.0,88.0,0.0
-28.0,-62.0,80.0,0.0
-35.0,-77.0,96.0,0.0
-28.0,-65.0,80.0,0.0
-31.0,-71.0,85.0,0.0
-32.0,-76.0,89.0,0.0
-29.0,-68.0,78.0,0.0
-32.0,-78.0,87.0,0.0
-31.0,-75.0,82.0,0.0
-35.0,-89.0,94.0,0.0
-37.0,-94.0,98.0,0.0
-33.0,-84.0,86.0,0.0
-36.0,-95.0,96.0,0.0
-38.0,-100.0,97.0,0.0
-38.0,-102.0,97.0,0.0
-35.0,-99.0,93.0,0.0
-41.0,-113.0,103.0,0.0
-38.0,-109.0,97.0,0.0
-39.0,-115.0,101.0,0.0
-40.0,-119.0,101.0,0.0
-39.0,-117.0,98.0,0.0
-39.0,-120.0,97.0,0.0
-44.0,-135.0,107.0,0.0
-41.0,-132.0,102.0,0.0
-40.0,-128.0,97.0,0.0
-40.0,-130.0,96.0,0.0
-41.0,-139.0,100.0,0.0
-44.0,-152.0,107.0,0.0
-40.0,-139.0,96.0,0.0
-43.0,-149.0,101.0,0.0
-42.0,-150.0,98.0,0.0
-43.0,-157.0,101.0,0.0
-43.0,-156.0,98.0,0.0
-42.0,-155.0,95.0,0.0
-43.0,-164.0,98.0,0.0
-42.0,-164.0,96.0,0.0
-42.0,-167.0,95.0,0.0
-40.0,-156.0,86.0,0.0
-44.0,-176.0,95.0,0.0
-43.0,-178.0,93.0,0.0
-41.0,-174.0,88.0,0.0
-41.0,-175.0,87.0,0.0
-42.0,-178.0,86.0,0.0
-38.0,-166.0,78.0,0.0
-39.0,-172.0,79.0,0.0
-38.0,-174.0,76.0,0.0
-36.0,-166.0,71.0,0.0
-37.0,-170.0,71.0,0.0
-35.0,-167.0,67.0,0.0
-37.0,-178.0,69.0,0.0
-40.0,-200.0,75.0,0.0
-53.0,-269.0,98.0,0.0
-56.0,-285.0,101.0,0.0
-55.0,-282.0,96.0,0.0
-54.0,-285.0,94.0,0.0
-52.0,-280.0,89.0,0.0
-53.0,-290.0,89.0,0.0
-53.0,-295.0,87.0,0.0
-52.0,-292.0,82.0,0.0
-51.0,-292.0,79.0,0.0
-4495.0,18926.0,17341.0,0.0
-4523.0,18590.0,17402.0,0.0
-4777.0,19172.0,18336.0,0.0
-4892.0,19167.0,18728.0,0.0
-4992.0,19097.0,19066.0,0.0
-5094.0,19025.0,19407.0,0.0
-5196.0,18946.0,19748.0,0.0
-5271.0,18768.0,19988.0,0.0
-5279.0,18350.0,19972.0,0.0
-5297.0,17975.0,19994.0,0.0
-5622.0,18621.0,21170.0,0.0
-5735.0,18545.0,21550.0,0.0
-5836.0,18420.0,21880.0,0.0
-5928.0,18261.0,22176.0,0.0
-6539.0,19655.0,24406.0,0.0
-6818.0,19998.0,25393.0,0.0
-6805.0,19472.0,25288.0,0.0
-6804.0,18995.0,25234.0,0.0
-6780.0,18461.0,25091.0,0.0
-6773.0,17986.0,25013.0,0.0
-6726.0,17415.0,24788.0,0.0
-6716.0,16954.0,24702.0,0.0
-6772.0,16658.0,24853.0,0.0
-9300.0,22292.0,34061.0,0.0
-9345.0,21823.0,34160.0,0.0
-9337.0,21237.0,34063.0,0.0
-9352.0,20709.0,34048.0,0.0
-551.0,1189.0,2004.0,0.0
0.0,0.0,0.0,0.0
-8599.0,17543.0,31121.0,0.0
-8586.0,17033.0,31014.0,0.0
-8684.0,16744.0,31305.0,0.0
-8731.0,16358.0,31417.0,0.0
-8935.0,16257.0,32087.0,0.0
-9211.0,16268.0,33014.0,0.0
-9240.0,15832.0,33052.0,0.0
0.0,0.0,0.0,0.0
-9237.0,14875.0,32916.0,0.0
0.0,0.0,0.0,0.0
-9173.0,13849.0,32564.0,0.0
-9075.0,13254.0,32156.0,0.0
-9138.0,12900.0,32318.0,0.0
-9240.0,12596.0,32614.0,0.0
-7487.0,9848.0,26375.0,0.0
-7470.0,9474.0,26266.0,0.0
-7467.0,9122.0,26207.0,0.0
-7456.0,8764.0,26117.0,0.0
-7447.0,8412.0,26039.0,0.0
-7439.0,8066.0,25960.0,0.0
-7432.0,7726.0,25887.0,0.0
-7419.0,7383.0,25793.0,0.0
-7421.0,7057.0,25748.0,0.0
-7407.0,6721.0,25652.0,0.0
-7403.0,6398.0,25589.0,0.0
-7395.0,6074.0,25513.0,0.0
-7389.0,5753.0,25441.0,0.0
-7379.0,5435.0,25359.0,0.0
-7370.0,5121.0,25281.0,0.0
-7364.0,4810.0,25207.0,0.0
-7365.0,4508.0,25164.0,0.0
-7357.0,4202.0,25088.0,0.0
-7348.0,3899.0,25011.0,0.0
-7345.0,3600.0,24949.0,0.0
-7342.0,3305.0,24889.0,0.0
-7332.0,3008.0,24807.0,0.0
-7327.0,2715.0,24740.0,0.0
-7325.0,2426.0,24684.0,0.0
-7319.0,2138.0,24618.0,0.0
-7293.0,1847.0,24479.0,0.0
-7315.0,1569.0,24503.0,0.0
-7450.0,1311.0,24905.0,0.0
-8166.0,1124.0,27242.0,0.0
-7604.0,756.0,25314.0,0.0
-7692.0,473.0,25558.0,0.0
-8098.0,191.0,26846.0,0.0
-9181.0,-128.0,30373.0,2.0
-9124.0,-469.0,30123.0,2.0
-9133.0,-811.0,30089.0,2.0
-674.0,-85.0,2219.0,0.0
-670.0,-109.0,2201.0,0.0
-666.0,-134.0,2184.0,0.0
-664.0,-158.0,2172.0,0.0
-678.0,-186.0,2213.0,0.0
-665.0,-207.0,2163.0,0.0
-663.0,-231.0,2155.0,0.0
-663.0,-255.0,2150.0,0.0
-671.0,-283.0,2170.0,0.0
-1.0,-1.0,7.0,0.0
-5.0,-3.0,16.0,0.0
-8.0,-5.0,31.0,0.0
-1.0,-1.0,6.0,0.0
-8.0,-6.0,30.0,0.0
-9.0,-7.0,32.0,0.0
-7.0,-6.0,24.0,0.0
-2.0,-2.0,8.0,0.0
-5.0,-4.0,17.0,0.0
-5.0,-4.0,18.0,0.0
-3.0,-3.0,13.0,0.0
-3.0,-3.0,14.0,0.0
-7.0,-6.0,24.0,0.0
-10.0,-9.0,33.0,0.0
-6.0,-5.0,19.0,0.0
-10.0,-10.0,33.0,0.0
-13.0,-14.0,45.0,0.0
-12.0,-13.0,41.0,0.0
-14.0,-16.0,47.0,0.0
-11.0,-13.0,38.0,0.0
-8.0,-10.0,30.0,0.0
-11.0,-14.0,35.0,0.0
-11.0,-13.0,34.0,0.0
-11.0,-15.0,36.0,0.0
-13.0,-19.0,44.0,0.0
-17.0,-25.0,55.0,0.0
-16.0,-23.0,50.0,0.0
-16.0,-22.0,48.0,0.0
-18.0,-28.0,59.0,0.0
-17.0,-27.0,54.0,0.0
-17.0,-28.0,54.0,0.0
-13.0,-22.0,42.0,0.0
-17.0,-29.0,54.0,0.0
-21.0,-35.0,63.0,0.0
-20.0,-34.0,60.0,0.0
-16.0,-29.0,50.0,0.0
-21.0,-39.0,65.0,0.0
-18.0,-34.0,55.0,0.0
-16.0,-30.0,47.0,0.0
-18.0,-37.0,57.0,0.0
-25.0,-49.0,73.0,0.0
-21.0,-42.0,61.0,0.0
-23.0,-48.0,68.0,0.0
-25.0,-52.0,72.0,0.0
-25.0,-53.0,72.0,0.0
-24.0,-53.0,70.0,0.0
-25.0,-55.0,71.0,0.0
-25.0,-56.0,70.0,0.0
-26.0,-62.0,76.0,0.0
-27.0,-66.0,80.0,0.0
-27.0,-66.0,78.0,0.0
-31.0,-76.0,87.0,0.0
-30.0,-75.0,84.0,0.0
-29.0,-74.0,81.0,0.0
-29.0,-76.0,81.0,0.0
-31.0,-82.0,86.0,0.0
-31.0,-83.0,85.0,0.0
-31.0,-86.0,86.0,0.0
-33.0,-90.0,88.0,0.0
-31.0,-88.0,85.0,0.0
-35.0,-102.0,95.0,0.0
-34.0,-99.0,91.0,0.0
-35.0,-105.0,94.0,0.0
-35.0,-108.0,95.0,0.0
-35.0,-111.0,95.0,0.0
-38.0,-119.0,99.0,0.0
-33.0,-106.0,87.0,0.0
-38.0,-126.0,100.0,0.0
-36.0,-117.0,91.0,0.0
-37.0,-122.0,93.0,0.0
-37.0,-124.0,92.0,0.0
-37.0,-128.0,93.0,0.0
-38.0,-135.0,97.0,0.0
-39.0,-140.0,96.0,0.0
-38.0,-139.0,94.0,0.0
-35.0,-131.0,87.0,0.0
-37.0,-141.0,91.0,0.0
-37.0,-143.0,91.0,0.0
-36.0,-140.0,86.0,0.0
-38.0,-149.0,90.0,0.0
-38.0,-152.0,88.0,0.0
-36.0,-148.0,85.0,0.0
-38.0,-156.0,86.0,0.0
-38.0,-159.0,86.0,0.0
-35.0,-154.0,82.0,0.0
-37.0,-160.0,81.0,0.0
-35.0,-157.0,78.0,0.0
-36.0,-161.0,78.0,0.0
-34.0,-155.0,74.0,0.0
-33.0,-157.0,72.0,0.0
-31.0,-149.0,66.0,0.0
-33.0,-163.0,71.0,0.0
-29.0,-146.0,61.0,0.0
-31.0,-156.0,63.0,0.0
-32.0,-169.0,66.0,0.0
-34.0,-174.0,67.0,0.0
-49.0,-256.0,94.0,0.0
-51.0,-274.0,98.0,0.0
-49.0,-271.0,94.0,0.0
-49.0,-273.0,91.0,0.0
-50.0,-278.0,89.0,0.0
-49.0,-283.0,87.0,0.0
-49.0,-284.0,85.0,0.0
-49.0,-289.0,83.0,0.0
-48.0,-290.0,80.0,0.0
-4282.0,18968.0,17456.0,0.0
-4320.0,18674.0,17558.0,0.0
-4543.0,19165.0,18409.0,0.0
-4656.0,19163.0,18807.0,0.0
-4751.0,19084.0,19136.0,0.0
-4852.0,19020.0,19486.0,0.0
-4950.0,18939.0,19825.0,0.0
-4936.0,18430.0,19713.0,0.0
-5101.0,18584.0,20314.0,0.0
-5120.0,18204.0,20335.0,0.0
-5220.0,18109.0,20676.0,0.0
-5478.0,18547.0,21644.0,0.0
-5587.0,18456.0,22016.0,0.0
-5704.0,18381.0,22417.0,0.0
-5822.0,18304.0,22825.0,0.0
-5937.0,18211.0,23221.0,0.0
-6048.0,18091.0,23594.0,0.0
-6398.0,18665.0,24900.0,0.0
-6432.0,18295.0,24970.0,0.0
-6260.0,17359.0,24244.0,0.0
-6370.0,17219.0,24614.0,0.0
-6419.0,16908.0,24741.0,0.0
-8885.0,22806.0,34170.0,0.0
-8878.0,22195.0,34060.0,0.0
-515.0,1257.0,1976.0,0.0
-8913.0,21132.0,34042.0,0.0
-8903.0,20546.0,33926.0,0.0
-8914.0,20018.0,33891.0,0.0
0.0,0.0,0.0,0.0
-8274.0,17579.0,31321.0,0.0
-8206.0,16948.0,30995.0,0.0
-8277.0,16613.0,31198.0,0.0
-8334.0,16248.0,31344.0,0.0
-8702.0,16471.0,32656.0,0.0
-8813.0,16193.0,33007.0,0.0
-8829.0,15734.0,32994.0,0.0
-8828.0,15253.0,32922.0,0.0
-8846.0,14809.0,32920.0,0.0
-8825.0,14307.0,32774.0,0.0
-8780.0,13775.0,32538.0,0.0
-8659.0,13138.0,32024.0,0.0
-8748.0,12826.0,32287.0,0.0
-8887.0,12582.0,32733.0,0.0
-7164.0,9785.0,26332.0,0.0
-7167.0,9436.0,26289.0,0.0
-7153.0,9070.0,26187.0,0.0
-7144.0,8713.0,26098.0,0.0
-7144.0,8373.0,26045.0,0.0
-7133.0,8022.0,25951.0,0.0
-7122.0,7678.0,25861.0,0.0
-7120.0,7346.0,25800.0,0.0
-7112.0,7011.0,25718.0,0.0
-7107.0,6684.0,25649.0,0.0
-7103.0,6361.0,25583.0,0.0
-7092.0,6034.0,25491.0,0.0
-7090.0,5719.0,25435.0,0.0
-7083.0,5403.0,25359.0,0.0
-7083.0,5094.0,25308.0,0.0
-7071.0,4780.0,25210.0,0.0
-7068.0,4476.0,25151.0,0.0
-7067.0,4175.0,25095.0,0.0
-7058.0,3871.0,25011.0,0.0
-7055.0,3574.0,24949.0,0.0
-7043.0,3275.0,24856.0,0.0
-7046.0,2984.0,24818.0,0.0
-7036.0,2691.0,24731.0,0.0
-7041.0,2404.0,24698.0,0.0
-7034.0,2116.0,24620.0,0.0
-7021.0,1830.0,24527.0,0.0
-7027.0,1548.0,24496.0,0.0
-7145.0,1288.0,24853.0,0.0
-7843.0,1102.0,27226.0,0.0
-7357.0,743.0,25488.0,0.0
-7410.0,456.0,25617.0,0.0
-7763.0,173.0,26781.0,0.0
-642.0,-10.0,2211.0,0.0
-649.0,-36.0,2231.0,0.0
-639.0,-60.0,2192.0,0.0
-649.0,-87.0,2222.0,0.0
-654.0,-112.0,2234.0,0.0
-8767.0,-1841.0,29856.0,2.0
-646.0,-161.0,2198.0,0.0
-647.0,-185.0,2196.0,0.0
-653.0,-212.0,2212.0,0.0
-635.0,-230.0,2145.0,0.0
-8.0,-4.0,28.0,0.0
-3.0,-2.0,12.0,0.0
-4.0,-2.0,19.0,0.0
-649.0,-334.0,2174.0,0.0
-10.0,-6.0,36.0,0.0
-7.0,-4.0,27.0,0.0
-8.0,-6.0,29.0,0.0
-10.0,-7.0,38.0,0.0
-5.0,-4.0,19.0,0.0
-11.0,-8.0,39.0,0.0
-6.0,-5.0,23.0,0.0
-10.0,-9.0,36.0,0.0
-6.0,-5.0,20.0,0.0
-10.0,-9.0,36.0,0.0
-8.0,-7.0,27.0,0.0
-9.0,-9.0,33.0,0.0
-10.0,-9.0,35.0,0.0
-8.0,-9.0,30.0,0.0
-10.0,-12.0,37.0,0.0
-11.0,-12.0,38.0,0.0
-9.0,-11.0,31.0,0.0
-14.0,-17.0,48.0,0.0
-12.0,-15.0,41.0,0.0
-12.0,-15.0,41.0,0.0
-12.0,-16.0,40.0,0.0
-17.0,-24.0,59.0,0.0
-16.0,-23.0,54.0,0.0
-18.0,-26.0,58.0,0.0
-13.0,-19.0,42.0,0.0
-15.0,-23.0,49.0,0.0
-13.0,-21.0,43.0,0.0
-15.0,-25.0,52.0,0.0
-18.0,-30.0,58.0,0.0
-16.0,-29.0,55.0,0.0
-19.0,-34.0,61.0,0.0
-20.0,-37.0,65.0,0.0
-19.0,-34.0,60.0,0.0
-20.0,-36.0,62.0,0.0
-19.0,-36.0,60.0,0.0
-20.0,-39.0,63.0,0.0
-19.0,-39.0,61.0,0.0
-20.0,-40.0,62.0,0.0
-26.0,-54.0,80.0,0.0
-25.0,-53.0,78.0,0.0
-22.0,-48.0,68.0,0.0
-27.0,-60.0,83.0,0.0
-31.0,-68.0,92.0,0.0
-30.0,-69.0,91.0,0.0
-23.0,-53.0,69.0,0.0
-27.0,-63.0,81.0,0.0
-30.0,-73.0,89.0,0.0
-26.0,-65.0,78.0,0.0
-27.0,-69.0,81.0,0.0
-26.0,-67.0,78.0,0.0
-32.0,-85.0,95.0,0.0
-27.0,-73.0,80.0,0.0
-30.0,-82.0,89.0,0.0
-35.0,-96.0,101.0,0.0
-32.0,-91.0,93.0,0.0
-31.0,-88.0,88.0,0.0
-35.0,-101.0,100.0,0.0
-34.0,-100.0,96.0,0.0
-35.0,-105.0,99.0,0.0
-36.0,-110.0,101.0,0.0
-36.0,-114.0,102.0,0.0
-33.0,-105.0,92.0,0.0
-34.0,-110.0,93.0,0.0
-34.0,-113.0,95.0,0.0
-35.0,-116.0,95.0,0.0
-36.0,-125.0,100.0,0.0
-36.0,-127.0,99.0,0.0
-38.0,-134.0,102.0,0.0
-35.0,-127.0,95.0,0.0
-36.0,-131.0,96.0,0.0
-38.0,-139.0,99.0,0.0
-36.0,-135.0,94.0,0.0
-37.0,-142.0,96.0,0.0
-38.0,-150.0,99.0,0.0
-37.0,-145.0,94.0,0.0
-39.0,-156.0,99.0,0.0
-38.0,-155.0,96.0,0.0
-36.0,-147.0,88.0,0.0
-38.0,-160.0,94.0,0.0
-36.0,-157.0,89.0,0.0
-35.0,-152.0,85.0,0.0
-37.0,-163.0,89.0,0.0
-35.0,-159.0,84.0,0.0
-36.0,-164.0,85.0,0.0
-37.0,-173.0,87.0,0.0
-35.0,-168.0,82.0,0.0
-34.0,-166.0,78.0,0.0
-34.0,-167.0,77.0,0.0
-30.0,-155.0,69.0,0.0
-32.0,-164.0,71.0,0.0
-30.0,-160.0,68.0,0.0
-31.0,-165.0,67.0,0.0
-32.0,-173.0,69.0,0.0
-32.0,-177.0,69.0,0.0
-44.0,-240.0,89.0,0.0
-49.0,-277.0,100.0,0.0
-48.0,-273.0,95.0,0.0
-45.0,-269.0,91.0,0.0
-47.0,-282.0,91.0,0.0
-47.0,-284.0,89.0,0.0
-46.0,-289.0,87.0,0.0
-45.0,-284.0,82.0,0.0
-44.0,-285.0,79.0,0.0
-4116.0,19237.0,17779.0,0.0
-4114.0,18755.0,17707.0,0.0
-4157.0,18483.0,17828.0,0.0
-4407.0,19108.0,18831.0,0.0
-4509.0,19073.0,19205.0,0.0
-4604.0,18992.0,19539.0,0.0
-4678.0,18828.0,19790.0,0.0
-4797.0,18828.0,20224.0,0.0
-4894.0,18738.0,20567.0,0.0
-4925.0,18395.0,20634.0,0.0
-4906.0,17872.0,20490.0,0.0
-5201.0,18481.0,21656.0,0.0
-5316.0,18422.0,22067.0,0.0
-5424.0,18334.0,22453.0,0.0
-5542.0,18266.0,22872.0,0.0
-5657.0,18179.0,23277.0,0.0
-5772.0,18087.0,23687.0,0.0
-5894.0,18004.0,24119.0,0.0
-5991.0,17837.0,24446.0,0.0
-6127.0,17779.0,24935.0,0.0
-6177.0,17467.0,25072.0,0.0
-6179.0,17021.0,25010.0,0.0
-8415.0,22579.0,33971.0,0.0
-8446.0,22070.0,34009.0,0.0
-8495.0,21615.0,34120.0,0.0
-7125.0,17649.0,28548.0,0.0
-8474.0,20423.0,33864.0,0.0
-8500.0,19930.0,33884.0,0.0
-8479.0,19336.0,33718.0,0.0
-7816.0,17328.0,31005.0,0.0
-7882.0,16984.0,31191.0,0.0
-7962.0,16667.0,31432.0,0.0
-8141.0,16552.0,32066.0,0.0
-8227.0,16235.0,32325.0,0.0
-8404.0,16092.0,32945.0,0.0
0.0,0.0,0.0,0.0
-8428.0,15170.0,32886.0,0.0
-8405.0,14655.0,32720.0,0.0
-8438.0,14244.0,32776.0,0.0
-8392.0,13705.0,32519.0,0.0
-8274.0,13066.0,31993.0,0.0
-8390.0,12800.0,32368.0,0.0
-8527.0,12560.0,32826.0,0.0
-6852.0,9734.0,26316.0,0.0
-6847.0,9375.0,26240.0,0.0
-6841.0,9019.0,26162.0,0.0
