//X,Y,Z,Classification
-190,4073,29395,0.0
-206,3741,29327,0.0
-222,3409,29234,0.0
-236,3078,29128,0.0
-250,2752,29049,0.0
-263,2428,28974,0.0
-276,2106,28875,0.0
-286,1771,28537,0.0
-288,1413,27585,0.0
-299,1112,27534,0.0
-312,821,27788,0.0
-321,518,27615,0.0
-333,220,27796,0.0
-348,-80,28280,0.0
-356,-385,28151,0.0
-364,-689,28140,0.0
-371,-991,28059,0.0
-378,-1292,27996,0.0
-383,-1590,27898,0.0
-388,-1886,27802,0.0
-393,-2183,27732,0.0
-398,-2478,27654,0.0
-401,-2773,27579,0.0
-404,-3063,27479,0.0
-407,-3357,27423,0.0
-410,-3649,27344,0.0
-412,-3939,27267,0.0
-413,-4231,27213,0.0
-413,-4514,27095,0.0
-414,-4804,27025,0.0
-413,-5098,26983,0.0
-412,-5383,26896,0.0
-411,-5670,26819,0.0
-410,-5956,26737,0.0
-407,-6244,26672,0.0
-405,-6531,26595,0.0
-401,-6808,26484,0.0
-398,-7096,26419,0.0
-393,-7384,26350,0.0
-389,-7674,26290,0.0
-380,-7876,25935,0.0
-373,-8138,25790,0.0
-370,-8470,25864,0.0
-367,-8840,26037,0.0
-359,-9131,25968,0.0
-352,-9423,25902,0.0
-344,-9717,25837,0.0
-335,-10007,25761,0.0
-326,-10304,25697,0.0
-316,-10598,25625,0.0
-306,-10905,25580,0.0
-296,-11201,25509,0.0
-285,-11502,25442,0.0
-273,-11810,25389,0.0
-248,-11547,24140,0.0
-241,-12042,24489,0.0
-226,-12281,24307,0.0
-221,-13019,25093,0.0
-206,-13388,25136,0.0
-191,-13700,25062,0.0
-175,-14016,24998,0.0
-159,-14343,24944,0.0
-141,-14671,24888,0.0
-124,-14990,24814,0.0
-105,-15323,24757,0.0
-86,-15664,24705,0.0
-67,-15999,24643,0.0
-46,-16338,24577,0.0
-25,-16663,24489,0.0
-2,-17008,24424,0.0
19,-17360,24364,0.0
43,-17734,24330,0.0
67,-18088,24261,0.0
92,-18442,24185,0.0
118,-18806,24118,0.0
145,-19165,24039,0.0
172,-19527,23957,0.0
201,-19935,23925,0.0
231,-20304,23840,0.0
261,-20686,23763,0.0
293,-21092,23709,0.0
325,-21485,23631,0.0
358,-21864,23532,0.0
392,-22295,23483,0.0
427,-22685,23382,0.0
464,-23093,23296,0.0
0,-61,60,0.0
0,-66,64,0.0
1,-78,74,0.0
1,-80,74,0.0
1,-89,80,0.0
1,-87,77,0.0
1,-88,75,0.0
2,-83,71,0.0
2,-100,82,0.0
3,-95,77,0.0
3,-111,88,0.0
3,-98,75,0.0
3,-123,94,0.0
3,-117,87,0.0
4,-123,88,0.0
4,-122,88,0.0
4,-120,84,0.0
4,-111,76,0.0
5,-122,80,0.0
5,-141,91,0.0
5,-126,79,0.0
6,-135,83,0.0
6,-149,89,0.0
6,-151,88,0.0
8,-158,90,0.0
7,-159,88,0.0
9,-181,97,0.0
9,-187,99,0.0
10,-182,93,0.0
10,-190,95,0.0
11,-200,98,0.0
11,-200,95,0.0
12,-208,97,0.0
13,-213,96,0.0
13,-220,96,0.0
14,-223,94,0.0
15,-238,98,0.0
15,-236,94,0.0
16,-239,92,0.0
19,-281,106,0.0
21,-309,112,0.0
23,-322,113,0.0
22,-317,107,0.0
22,-310,101,0.0
23,-311,98,0.0
1973,13606,13410,0.0
1979,13674,13766,0.0
1968,13604,13991,0.0
1966,13612,14300,0.0
1944,13472,14458,0.0
1937,13432,14728,0.0
2014,13973,15654,0.0
2035,14129,16172,0.0
1792,12444,14555,0.0
1778,12343,14754,0.0
1981,13749,16798,0.0
1994,13838,17280,0.0
1984,13758,17564,0.0
1842,12771,16669,0.0
1820,12596,16811,0.0
2009,13882,18948,0.0
2009,13861,19350,0.0
1816,12505,17859,0.0
1807,12424,18156,0.0
1802,12358,18481,0.0
1797,12279,18799,0.0
1792,12213,19142,0.0
1787,12137,19482,0.0
1782,12050,19814,0.0
1778,11969,20166,0.0
1773,11885,20524,0.0
1769,11790,20875,0.0
1767,11715,21273,0.0
1764,11621,21650,0.0
1762,11531,22049,0.0
1761,11441,22464,0.0
1760,11345,22880,0.0
1760,11252,23320,0.0
1761,11161,23784,0.0
1761,11054,24231,0.0
1762,10948,24699,0.0
1765,10843,25192,0.0
1765,10720,25662,0.0
1766,10593,26150,0.0
1766,10452,26622,0.0
2087,12172,32014,0.0
2054,11802,32077,0.0
2005,11334,31861,0.0
1972,10955,31880,0.0
1932,10536,31771,0.0
1896,10137,31709,0.0
1840,9630,31283,0.0
1821,9315,31464,0.0
1809,9038,31783,0.0
1818,8848,32440,0.0
1832,8676,33216,0.0
0,0,0,0.0
0,0,0,0.0
1547,6660,29351,0.0
1553,6447,29905,0.0
1531,6111,29906,0.0
1504,5758,29815,0.0
1480,5412,29740,0.0
1456,5065,29650,0.0
1433,4721,29548,0.0
1412,4387,29500,0.0
1389,4047,29387,0.0
1368,3711,29283,0.0
1349,3384,29220,0.0
1329,3055,29121,0.0
1310,2730,29034,0.0
1293,2407,28954,0.0
1277,2088,28875,0.0
1261,1771,28799,0.0
1219,1424,28097,0.0
1193,1106,27743,0.0
1187,809,27824,0.0
1168,505,27603,0.0
1169,209,27830,0.0
1175,-91,28167,0.0
1171,-396,28257,0.0
1159,-697,28117,0.0
1149,-997,28053,0.0
1140,-1297,27969,0.0
1133,-1595,27906,0.0
1123,-1890,27796,0.0
1116,-2183,27695,0.0
1086,-2425,27039,0.0
1080,-2709,26937,0.0
1047,-2918,26186,0.0
1097,-3358,27446,0.0
1093,-3648,27365,0.0
1089,-3934,27266,0.0
1086,-4225,27200,0.0
1086,-4516,27150,0.0
1083,-4799,27045,0.0
1082,-5087,26975,0.0
1083,-5372,26896,0.0
1083,-5658,26816,0.0
1083,-5939,26723,0.0
1085,-6224,26647,0.0
1087,-6512,26579,0.0
1089,-6788,26473,0.0
1093,-7072,26396,0.0
1097,-7358,26326,0.0
1101,-7633,26218,0.0
1108,-7930,26183,0.0
1115,-8231,26157,0.0
1119,-8488,25993,0.0
1129,-8800,25996,0.0
1138,-9098,25953,0.0
1147,-9385,25875,0.0
1157,-9676,25804,0.0
1167,-9978,25766,0.0
1177,-10265,25682,0.0
1191,-10570,25640,0.0
1201,-10852,25538,0.0
1214,-11147,25468,0.0
1224,-11412,25327,0.0
1243,-11762,25371,0.0
1250,-11988,25145,0.0
1272,-12352,25204,0.0
1290,-12669,25164,0.0
1310,-13000,25142,0.0
1328,-13314,25084,0.0
1349,-13645,25052,0.0
1355,-13824,24743,0.0
1372,-14107,24623,0.0
1371,-14200,24177,0.0
1429,-14895,24747,0.0
1454,-15241,24715,0.0
1461,-15392,24367,0.0
1431,-15148,23419,0.0
1503,-15970,24116,0.0
1469,-15674,23123,0.0
1528,-16345,23563,0.0
1519,-16288,22949,0.0
1544,-16588,22847,0.0
1545,-16623,22383,0.0
1596,-17187,22630,0.0
1631,-17583,22641,0.0
1662,-17919,22567,0.0
1682,-18139,22344,0.0
1675,-18050,21752,0.0
1877,-20212,23831,0.0
1746,-18775,21658,0.0
1766,-18966,21408,0.0
1794,-19233,21244,0.0
1831,-19585,21170,0.0
1868,-19942,21095,0.0
1906,-20291,21005,0.0
1945,-20645,20916,0.0
1987,-21024,20846,0.0
2028,-21386,20752,0.0
2072,-21774,20677,0.0
7,-84,79,0.0
7,-85,77,0.0
9,-96,86,0.0
9,-98,85,0.0
10,-112,95,0.0
11,-114,96,0.0
10,-117,96,0.0
12,-126,100,0.0
9,-102,79,0.0
12,-133,102,0.0
12,-131,98,0.0
11,-119,87,0.0
12,-130,93,0.0
14,-141,98,0.0
13,-131,89,0.0
13,-130,87,0.0
14,-135,88,0.0
16,-160,101,0.0
16,-158,98,0.0
17,-168,101,0.0
19,-182,107,0.0
19,-179,103,0.0
21,-195,110,0.0
21,-199,109,0.0
22,-206,109,0.0
23,-208,108,0.0
23,-214,109,0.0
24,-220,108,0.0
26,-236,112,0.0
27,-242,112,0.0
27,-246,111,0.0
28,-250,109,0.0
29,-255,108,0.0
28,-252,105,0.0
30,-265,106,0.0
32,-275,107,0.0
34,-294,110,0.0
38,-323,118,0.0
38,-322,114,0.0
39,-321,109,0.0
38,-318,104,0.0
38,-317,100,0.0
-4644,16351,14699,0.0
-4732,16290,14962,0.0
-4823,16237,15239,0.0
-4883,16077,15416,0.0
-5001,16098,15774,0.0
-4971,15645,15664,0.0
-5132,15792,16156,0.0
-5162,15528,16234,0.0
-5149,15145,16180,0.0
-5905,16974,18534,0.0
-6026,16931,18895,0.0
-6010,16501,18824,0.0
-5807,15583,18173,0.0
-5936,15563,18555,0.0
-5707,14618,17820,0.0
-5977,14958,18647,0.0
-5994,14650,18679,0.0
-6016,14361,18730,0.0
-10084,23502,31358,0.0
-9771,22227,30347,0.0
-9852,21874,30565,0.0
0,0,0,0.0
-9777,20665,30267,0.0
-9872,20350,30526,0.0
-9896,19891,30565,0.0
-9874,19346,30459,0.0
-10036,19162,30923,0.0
-10076,18741,31008,0.0
-10969,19869,33715,0.0
-10963,19333,33659,0.0
-10937,18768,33534,0.0
-10921,18231,33445,0.0
-10887,17671,33299,0.0
-10883,17169,33245,0.0
-10856,16637,33120,0.0
-9846,14651,30001,0.0
-10814,15615,32906,0.0
-9857,13805,29956,0.0
-9844,13362,29874,0.0
-9937,13066,30117,0.0
-10065,12809,30463,0.0
-10199,12556,30828,0.0
-10674,12699,32216,0.0
-10682,12273,32196,0.0
-10715,11877,32249,0.0
-10741,11476,32283,0.0
0,0,0,0.0
-10623,10510,31833,0.0
-10527,10006,31502,0.0
-10542,9611,31497,0.0
-10617,9274,31674,0.0
-10806,9029,32191,0.0
-11065,8829,32912,0.0
-11381,8654,33798,0.0
-9174,6636,27201,0.0
-9168,6294,27139,0.0
-9163,5956,27083,0.0
-9142,5610,26976,0.0
-9138,5279,26921,0.0
-9123,4943,26832,0.0
-9109,4612,26744,0.0
-9103,4287,26683,0.0
-9082,3959,26578,0.0
-9075,3639,26513,0.0
-9069,3321,26448,0.0
-9058,3005,26369,0.0
-9045,2690,26283,0.0
-9043,2381,26231,0.0
-9038,2073,26166,0.0
-9023,1764,26074,0.0
-9016,1459,26009,0.0
-9002,1155,25918,0.0
-9001,854,25866,0.0
-8999,556,25811,0.0
-8974,257,25691,0.0
-8972,-38,25635,0.0
-8966,-332,25567,0.0
-8854,-619,25195,0.0
-9914,-1016,28156,0.0
-9331,-1260,26445,0.0
-9393,-1573,26563,0.0
-9486,-1895,26770,2.0
-9512,-2208,26787,2.0
-9505,-2511,26708,2.0
-9502,-2817,26642,2.0
-9459,-3107,26467,2.0
-9481,-3418,26467,2.0
-9507,-3731,26477,2.0
-9449,-4010,26260,2.0
-9437,-4306,26165,2.0
-9470,-4622,26193,2.0
-9494,-4936,26198,2.0
-9498,-5240,26146,2.0
-9516,-5552,26132,2.0
-9493,-5840,26005,2.0
-9464,-6122,25859,2.0
-9478,-6432,25832,2.0
-9438,-6704,25659,2.0
-9458,-7018,25646,2.0
-9475,-7332,25626,2.0
-9462,-7622,25521,2.0
-9453,-7916,25428,2.0
-9482,-8243,25439,2.0
-9438,-8504,25248,2.0
-9461,-8828,25241,2.0
-9409,-9080,25030,2.0
-9433,-9405,25024,2.0
-9505,-9782,25141,2.0
-9471,-10050,24973,2.0
-9439,-10321,24817,2.0
-9432,-10617,24720,2.0
-9484,-10982,24779,2.0
-755,-898,1966,0.0
-9448,-11555,24531,2.0
-9448,-11863,24449,2.0
-9382,-12087,24199,2.0
-9517,-12572,24464,2.0
-9463,-12813,24242,2.0
-9458,-13121,24149,2.0
-9497,-13491,24164,2.0
-9481,-13783,24036,2.0
-9436,-14033,23834,2.0
-9437,-14352,23750,2.0
-9447,-14687,23685,2.0
-9479,-15059,23676,2.0
-9527,-15459,23702,2.0
-9508,-15756,23564,2.0
-9557,-16167,23590,2.0
-9450,-16314,23231,2.0
-9419,-16590,23059,0.0
-10008,-17977,24396,0.0
-9267,-16975,22494,0.0
-9078,-16951,21939,0.0
-9056,-17235,21788,0.0
-9057,-17563,21691,0.0
-9079,-17936,21644,0.0
-9094,-18298,21577,0.0
-9106,-18657,21501,0.0
-9120,-19025,21428,0.0
-9129,-19386,21343,0.0
-9147,-19769,21275,0.0
-9158,-20141,21188,0.0
-9172,-20525,21110,0.0
-9188,-20917,21031,0.0
-9199,-21301,20940,0.0
-9216,-21703,20858,0.0
-9229,-22102,20768,0.0
-22,-53,49,0.0
-30,-75,67,0.0
-30,-76,67,0.0
-25,-65,56,0.0
-30,-78,65,0.0
-30,-82,68,0.0
-33,-89,71,0.0
-33,-91,71,0.0
-34,-97,74,0.0
-33,-94,70,0.0
-36,-107,79,0.0
-35,-104,74,0.0
-36,-110,77,0.0
-32,-99,68,0.0
-35,-109,71,0.0
-37,-117,75,0.0
-40,-128,81,0.0
-43,-139,85,0.0
-37,-124,74,0.0
-40,-136,80,0.0
-42,-143,82,0.0
-40,-139,78,0.0
-41,-143,77,0.0
-45,-160,84,0.0
-47,-170,88,0.0
-47,-173,87,0.0
-51,-190,92,0.0
-49,-184,87,0.0
-51,-194,89,0.0
-53,-209,93,0.0
-56,-221,96,0.0
-55,-224,94,0.0
-57,-230,94,0.0
-60,-251,99,0.0
-62,-259,100,0.0
-71,-307,114,0.0
-75,-327,117,0.0
-73,-323,112,0.0
-71,-320,106,0.0
-71,-325,105,0.0
-71,-330,103,0.0
-70,-332,99,0.0
-69,-328,94,0.0
-68,-331,91,0.0
-68,-335,89,0.0
-4454,16345,14767,0.0
-4538,16285,15032,0.0
-4627,16226,15303,0.0
-4715,16166,15578,0.0
-4805,16100,15853,0.0
-4796,15708,15804,0.0
-4960,15879,16325,0.0
-4962,15526,16311,0.0
-4946,15124,16237,0.0
-5261,15721,17248,0.0
-5353,15629,17527,0.0
-5833,16641,19075,0.0
-9773,27236,31916,0.0
-9576,26069,31230,0.0
-5770,15344,18796,0.0
-5823,15123,18944,0.0
-5829,14782,18938,0.0
-5848,14479,18975,0.0
-9584,23165,31058,0.0
-9435,22254,30532,0.0
-7205,16586,23288,0.0
-7218,16209,23298,0.0
-7219,15811,23270,0.0
-7233,15446,23281,0.0
-7224,15039,23222,0.0
-7203,14616,23124,0.0
-7189,14210,23044,0.0
-7182,13829,22992,0.0
-7251,13596,23184,0.0
-10474,19114,33439,0.0
-10461,18573,33349,0.0
-10486,18107,33384,0.0
-10471,17578,33288,0.0
-10460,17064,33207,0.0
-10453,16562,33137,0.0
-10427,16038,33006,0.0
-10429,15563,32963,0.0
-9494,13739,29965,0.0
-9480,13296,29878,0.0
-9661,13121,30403,0.0
-9755,12824,30656,0.0
-9843,12513,30883,0.0
-10314,12671,32315,0.0
-10315,12234,32266,0.0
-10310,11796,32203,0.0
-10328,11388,32210,0.0
0,0,0,0.0
0,0,0,0.0
-10160,9961,31539,0.0
-10241,9630,31738,0.0
-10282,9261,31814,0.0
-10446,8998,32272,0.0
-10714,8809,33043,0.0
-11009,8626,33897,0.0
-8848,6594,27201,0.0
-8844,6254,27143,0.0
-8836,5915,27074,0.0
-8816,5570,26968,0.0
-8809,5237,26900,0.0
-8804,4908,26837,0.0
-8792,4578,26755,0.0
-8782,4253,26677,0.0
-8769,3928,26591,0.0
-8764,3610,26529,0.0
-8759,3294,26468,0.0
-8749,2978,26388,0.0
-8735,2663,26296,0.0
-8731,2354,26237,0.0
-8713,2044,26134,0.0
-8710,1739,26076,0.0
-8704,1436,26011,0.0
-8692,1132,25922,0.0
-8690,833,25865,0.0
-8683,535,25797,0.0
-8673,238,25715,0.0
-8664,-56,25638,0.0
-8666,-350,25591,0.0
-8535,-633,25155,0.0
-9577,-1034,28167,0.0
-9024,-1276,26483,0.0
-9129,-1597,26736,0.0
-9178,-1912,26822,2.0
-9205,-2225,26844,2.0
-9171,-2521,26689,2.0
-9171,-2825,26631,2.0
-9109,-3107,26391,2.0
-9149,-3423,26448,2.0
-9159,-3729,26417,2.0
-9121,-4014,26247,2.0
-9162,-4334,26305,2.0
-9152,-4629,26214,2.0
-9110,-4907,26034,2.0
-9189,-5251,26197,2.0
-9141,-5523,25996,2.0
-9144,-5825,25940,2.0
-9212,-6170,26070,2.0
-9188,-6455,25938,2.0
-9138,-6718,25731,2.0
-9141,-7021,25675,2.0
-9113,-7297,25527,2.0
-9117,-7600,25473,2.0
-9158,-7934,25515,2.0
-9104,-8187,25298,2.0
-9116,-8498,25262,2.0
-9121,-8803,25206,2.0
-9106,-9089,25093,2.0
-9139,-9425,25113,2.0
-9156,-9747,25090,2.0
-9105,-9993,24874,2.0
-9100,-10292,24789,2.0
-9065,-10554,24620,2.0
-9105,-10905,24651,2.0
-9080,-11180,24509,2.0
-9118,-11532,24532,2.0
-9079,-11790,24351,2.0
-9107,-12135,24348,2.0
-9164,-12521,24418,2.0
-9104,-12750,24177,2.0
-9111,-13073,24116,2.0
-9114,-13390,24042,2.0
-9130,-13729,24000,2.0
-9131,-14048,23917,2.0
-9184,-14449,23968,2.0
-9157,-14726,23811,2.0
-9191,-15105,23810,2.0
-9197,-15440,23735,2.0
-9156,-15696,23538,2.0
-9153,-16020,23440,2.0
-9125,-16298,23273,2.0
-9066,-16523,23033,0.0
-9655,-17949,24428,0.0
-8968,-16999,22592,0.0
-8793,-16991,22057,0.0
-8705,-17146,21743,0.0
-8715,-17493,21671,0.0
-8749,-17890,21656,0.0
-8756,-18237,21574,0.0
-8766,-18594,21498,0.0
-8767,-18935,21398,0.0
-8785,-19316,21337,0.0
-8796,-19689,21261,0.0
-8811,-20068,21186,0.0
-8826,-20456,21113,0.0
-8825,-20811,21000,0.0
-8844,-21214,20929,0.0
-8864,-21628,20863,0.0
-8867,-22002,20751,0.0
-8883,-22416,20671,0.0
-24,-61,56,0.0
-21,-59,52,0.0
-24,-67,58,0.0
-36,-99,84,0.0
-31,-87,72,0.0
-33,-93,76,0.0
-27,-79,63,0.0
-30,-90,70,0.0
-35,-104,78,0.0
-31,-93,69,0.0
-36,-111,80,0.0
-35,-109,77,0.0
-35,-113,77,0.0
-37,-119,79,0.0
-37,-122,79,0.0
-43,-143,91,0.0
-41,-139,86,0.0
-45,-154,93,0.0
-43,-149,88,0.0
-37,-131,76,0.0
-42,-150,84,0.0
-40,-149,81,0.0
-46,-171,91,0.0
-42,-161,84,0.0
-45,-173,87,0.0
-47,-183,90,0.0
-52,-202,97,0.0
-52,-209,97,0.0
-51,-208,93,0.0
-54,-221,96,0.0
-55,-231,98,0.0
-57,-244,101,0.0
-56,-244,98,0.0
-60,-263,101,0.0
-66,-296,111,0.0
-70,-315,114,0.0
-69,-320,111,0.0
-69,-322,109,0.0
-67,-319,105,0.0
-66,-325,102,0.0
-67,-328,99,0.0
-64,-325,94,0.0
-64,-329,92,0.0
-63,-332,88,0.0
-3289,16274,15101,0.0
-3359,16200,15358,0.0
-3435,16148,15640,0.0
-3512,16094,15925,0.0
-3590,16036,16212,0.0
-3666,15967,16493,0.0
-3745,15900,16781,0.0
-3807,15759,16995,0.0
-3892,15709,17311,0.0
-3914,15399,17343,0.0
-3934,15086,17365,0.0
-4125,15423,18145,0.0
-4242,15465,18600,0.0
-4337,15410,18948,0.0
-4428,15339,19284,0.0
-4491,15165,19495,0.0
-4591,15108,19864,0.0
-4507,14453,19438,0.0
-4665,14576,20057,0.0
-4676,14237,20046,0.0
-5009,14851,21402,0.0
-5117,14776,21799,0.0
-5227,14697,22202,0.0
-5334,14604,22595,0.0
-5449,14518,23011,0.0
-5562,14423,23425,0.0
-5684,14338,23871,0.0
-5796,14220,24273,0.0
-5921,14123,24729,0.0
-5931,13751,24704,0.0
-5912,13317,24559,0.0
-6319,13825,26180,0.0
-6455,13709,26670,0.0
-6593,13590,27172,0.0
-6720,13439,27629,0.0
-8025,15557,32904,0.0
-6975,13103,28526,0.0
-7409,13481,30230,0.0
-7478,13168,30432,0.0
-7648,13027,31047,0.0
-7767,12789,31453,0.0
-7912,12585,31964,0.0
-8011,12298,32286,0.0
-7993,11835,32138,0.0
0,0,0,0.0
-7998,10981,32002,0.0
-7987,10546,31887,0.0
0,0,0,0.0
-7908,9620,31425,0.0
-7968,9287,31593,0.0
-8104,9036,32059,0.0
-8260,8797,32600,0.0
-8534,8666,33604,0.0
-6924,6691,27201,0.0
-6916,6348,27110,0.0
-6912,6011,27033,0.0
-6916,5685,26992,0.0
-6907,5350,26890,0.0
-6907,5027,26836,0.0
-6893,4696,26721,0.0
-6905,4385,26705,0.0
-6895,4063,26608,0.0
-6890,3746,26531,0.0
-6885,3432,26452,0.0
-6879,3122,26374,0.0
-6870,2811,26279,0.0
-6875,2509,26242,0.0
-6871,2205,26167,0.0
-6870,1904,26108,0.0
-6865,1604,26033,0.0
-6862,1307,25964,0.0
-6856,1011,25880,0.0
-6860,717,25841,0.0
-6851,425,25750,0.0
-6856,134,25714,0.0
-6843,-154,25609,0.0
-6844,-442,25553,0.0
-6828,-727,25438,0.0
-7034,-1043,26149,0.0
-7120,-1352,26408,0.0
-7293,-1687,26990,0.0
-7303,-1992,26969,2.0
-7323,-2299,26979,2.0
-7277,-2585,26751,2.0
-7273,-2882,26672,2.0
-7265,-3176,26584,2.0
-7252,-3468,26479,2.0
-7283,-3780,26529,2.0
-7272,-4071,26428,2.0
-7227,-4340,26203,2.0
-7239,-4641,26187,2.0
-7249,-4944,26164,2.0
-7250,-5239,26105,2.0
-7267,-5547,26109,2.0
-7224,-5808,25892,2.0
-7209,-6089,25777,2.0
-7203,-6377,25697,2.0
-7164,-6633,25493,2.0
-7207,-6967,25587,2.0
-7234,-7287,25617,2.0
-7225,-7572,25521,2.0
-7224,-7868,25457,2.0
-7200,-8137,25313,2.0
-7236,-8475,25373,2.0
-7214,-8745,25232,2.0
-7225,-9056,25206,2.0
-7216,-9344,25112,2.0
-7225,-9653,25074,2.0
-7271,-10018,25170,2.0
0,0,0,0.0
-7178,-10491,24720,2.0
-7213,-10845,24773,2.0
-7179,-11096,24590,2.0
0,0,0,0.0
-7235,-11798,24648,2.0
0,0,0,0.0
-7195,-12349,24373,2.0
-7226,-12713,24407,2.0
-7214,-13006,24297,2.0
-7215,-13322,24230,2.0
0,0,0,0.0
-7196,-13920,24022,2.0
-7213,-14273,24006,2.0
-7201,-14571,23891,2.0
0,0,0,0.0
-7219,-15261,23803,2.0
-7283,-15730,23940,2.0
-7315,-16136,23968,2.0
-7296,-16432,23826,2.0
-7102,-16328,23118,0.0
-7081,-16615,22973,0.0
-7532,-18029,24351,0.0
-6952,-16974,22397,0.0
-6806,-16947,21850,0.0
-6801,-17268,21757,0.0
-6803,-17609,21686,0.0
-6804,-17949,21605,0.0
-6805,-18296,21531,0.0
-6807,-18649,21455,0.0
-6811,-19008,21383,0.0
-6814,-19371,21309,0.0
-6820,-19746,21241,0.0
-6821,-20114,21159,0.0
-24,-73,76,0.0
-18,-59,59,0.0
-33,-105,104,0.0
-28,-91,88,0.0
-26,-87,82,0.0
-30,-99,91,0.0
-31,-106,96,0.0
-29,-102,89,0.0
-33,-117,101,0.0
-28,-102,86,0.0
-27,-101,83,0.0
-30,-112,91,0.0
-25,-97,77,0.0
-29,-110,84,0.0
-32,-126,94,0.0
-31,-124,91,0.0
-30,-120,86,0.0
-29,-117,82,0.0
-32,-136,93,0.0
-29,-125,83,0.0
-32,-139,91,0.0
-31,-138,88,0.0
-34,-158,98,0.0
-32,-147,90,0.0
-35,-162,96,0.0
-37,-175,101,0.0
-35,-167,94,0.0
-35,-168,92,0.0
-35,-175,94,0.0
-37,-187,98,0.0
-36,-187,95,0.0
-37,-195,96,0.0
-36,-193,93,0.0
-38,-211,99,0.0
-38,-216,98,0.0
-38,-220,96,0.0
-37,-218,93,0.0
-40,-235,98,0.0
-40,-241,97,0.0
-41,-254,99,0.0
-46,-287,107,0.0
-50,-317,116,0.0
-49,-316,111,0.0
-49,-321,110,0.0
-47,-315,103,0.0
-47,-327,104,0.0
-46,-320,98,0.0
-45,-326,96,0.0
-44,-319,90,0.0
-6160,39926,37609,0.0
-6192,38973,37505,0.0
0,0,0,0.0
-3014,17905,17983,0.0
-3065,17693,18154,0.0
-3033,17016,17837,0.0
-3241,17677,18933,0.0
-3272,17350,18989,0.0
-3269,16856,18851,0.0
-3323,16659,19039,0.0
-3146,15339,17917,0.0
-3171,15035,17950,0.0
-3197,14740,17989,0.0
-3422,15346,19146,0.0
-3497,15256,19461,0.0
-3581,15197,19825,0.0
-3633,14992,20003,0.0
-3745,15028,20510,0.0
-3823,14920,20834,0.0
-3796,14405,20582,0.0
-3829,14129,20662,0.0
-4101,14713,22027,0.0
-4199,14643,22447,0.0
-4295,14557,22856,0.0
-4390,14460,23260,0.0
-4491,14368,23685,0.0
-4590,14265,24105,0.0
-4694,14168,24549,0.0
-4786,14026,24930,0.0
-4893,13917,25383,0.0
-4888,13488,25250,0.0
-4971,13305,25579,0.0
-5008,12996,25670,0.0
-5379,13529,27469,0.0
-5498,13398,27972,0.0
-5604,13222,28404,0.0
-5739,13108,28986,0.0
-5813,12840,29249,0.0
-5957,12723,29870,0.0
-6029,12444,30133,0.0
-6396,12744,31853,0.0
-6456,12413,32045,0.0
-6517,12082,32242,0.0
-6519,11643,32148,0.0
0,0,0,0.0
0,0,0,0.0
-6532,10372,31905,0.0
-6521,9935,31753,0.0
-6479,9459,31448,0.0
-6549,9151,31691,0.0
-6668,8905,32171,0.0
-6894,8784,33162,0.0
-7058,8567,33854,0.0
-5978,6899,28594,0.0
-6024,6595,28725,0.0
-6233,6459,29640,0.0
-6326,6188,29997,0.0
-6333,5831,29943,0.0
-6311,5454,29761,0.0
-6332,5116,29782,0.0
-6329,4760,29682,0.0
-6324,4406,29582,0.0
-6318,4056,29476,0.0
-5984,3516,27842,0.0
-6094,3252,28281,0.0
-6307,3028,29193,0.0
-6307,2693,29120,0.0
-6305,2359,29034,0.0
-6298,2026,28927,0.0
-6072,1637,27822,0.0
-6076,1323,27769,0.0
-6287,1046,28662,0.0
-6219,717,28281,0.0
-6185,398,28057,0.0
-6280,86,28426,0.0
-5910,-217,26682,0.0
-5909,-513,26614,0.0
-5901,-807,26513,0.0
-5910,-1103,26487,0.0
-6205,-1465,27749,0.0
-6125,-1749,27325,0.0
-6215,-2082,27662,0.0
-6209,-2385,27571,0.0
-6207,-2689,27497,0.0
-6036,-2910,26677,0.0
-6197,-3290,27323,0.0
-6175,-3579,27165,0.0
-6010,-3775,26375,0.0
-6083,-4118,26636,0.0
-6057,-4395,26463,0.0
-6171,-4776,26894,0.0
-6200,-5099,26961,0.0
-6190,-5391,26856,0.0
-6182,-5684,26761,0.0
-6187,-5988,26719,0.0
-6175,-6277,26609,0.0
-6170,-6572,26528,0.0
-6143,-6841,26351,0.0
-6117,-7110,26181,0.0
-6126,-7419,26159,0.0
-6020,-7583,25644,0.0
-6160,-8062,26181,0.0
-6171,-8378,26165,0.0
-6156,-8663,26048,0.0
-6155,-8965,25981,0.0
-6077,-9151,25593,0.0
-6101,-9491,25637,0.0
-6124,-9832,25673,0.0
-6059,-10031,25339,0.0
-6124,-10448,25556,0.0
-6006,-10548,25001,0.0
-6102,-11027,25342,0.0
-6044,-11229,25042,0.0
-6146,-11736,25407,0.0
-6148,-12055,25352,0.0
-6159,-12395,25334,0.0
-6154,-12706,25254,0.0
-6159,-13041,25216,0.0
-6163,-13376,25172,0.0
-6163,-13702,25108,0.0
-6079,-13843,24707,0.0
-6139,-14310,24887,0.0
-6026,-14377,24371,0.0
-6169,-15057,24888,0.0
-6167,-15395,24820,0.0
-5957,-15202,23911,0.0
-6058,-15803,24256,0.0
-6168,-16440,24632,0.0
-6075,-16540,24197,0.0
-6156,-17120,24457,0.0
-6173,-17530,24460,0.0
-6087,-17643,24049,0.0
-6050,-17900,23841,0.0
-6171,-18631,24252,0.0
-6164,-18989,24158,0.0
-6169,-19388,24111,0.0
-6165,-19761,24027,0.0
-6148,-20097,23890,0.0
-6163,-20543,23880,0.0
-6161,-20941,23804,0.0
-6168,-21374,23762,0.0
-6150,-21723,23620,0.0
-18,-64,69,0.0
-18,-64,66,0.0
-23,-84,86,0.0
-19,-74,73,0.0
-23,-89,87,0.0
-23,-90,85,0.0
-26,-102,94,0.0
-27,-109,100,0.0
-25,-102,90,0.0
-23,-96,84,0.0
-29,-124,106,0.0
-26,-118,99,0.0
-26,-118,97,0.0
-25,-114,91,0.0
-24,-110,85,0.0
-25,-122,93,0.0
-27,-130,97,0.0
-25,-127,92,0.0
-25,-127,91,0.0
-28,-142,99,0.0
-26,-137,93,0.0
-28,-148,98,0.0
-27,-146,95,0.0
-27,-148,94,0.0
-28,-158,98,0.0
-30,-172,103,0.0
-29,-167,98,0.0
-31,-180,103,0.0
-31,-190,106,0.0
-30,-186,101,0.0
-30,-187,98,0.0
-31,-204,106,0.0
-30,-200,100,0.0
-30,-207,101,0.0
-31,-213,101,0.0
-31,-222,102,0.0
-30,-217,97,0.0
-29,-218,95,0.0
-34,-250,106,0.0
-33,-248,101,0.0
-31,-239,96,0.0
-32,-258,99,0.0
-37,-305,114,0.0
-38,-322,116,0.0
-38,-327,114,0.0
-36,-323,109,0.0
-35,-325,106,0.0
-35,-328,103,0.0
-34,-332,100,0.0
-34,-328,95,0.0
-1834,15542,14784,0.0
-1867,15305,14873,0.0
0,0,0,0.0
0,0,0,0.0
-2397,17791,18433,0.0
-2454,17646,18679,0.0
-2524,17573,19005,0.0
-2539,17130,18930,0.0
-2548,16655,18805,0.0
-2565,16251,18753,0.0
-2391,14691,17326,0.0
-2584,15391,18552,0.0
-2597,15000,18482,0.0
-2601,14572,18356,0.0
-3054,16597,21377,0.0
-3104,16369,21559,0.0
-3114,15934,21465,0.0
-3124,15508,21369,0.0
-3142,15132,21333,0.0
-2982,13935,20104,0.0
-3047,13819,20405,0.0
-3166,13929,21056,0.0
-3219,13740,21268,0.0
-4722,19548,30993,0.0
-4749,19071,30977,0.0
-4761,18543,30867,0.0
-5221,19719,33647,0.0
-5239,19181,33563,0.0
-4388,15571,27950,0.0
-4401,15135,27880,0.0
-4407,14683,27764,0.0
-4418,14254,27681,0.0
-4242,13250,26436,0.0
-4258,12875,26405,0.0
-4556,13328,28110,0.0
-4661,13187,28618,0.0
-4856,13279,29669,0.0
-4954,13090,30129,0.0
-5062,12913,30636,0.0
-5227,12870,31495,0.0
-5299,12583,31784,0.0
-5388,12330,32175,0.0
-5421,11947,32230,0.0
-5420,11496,32090,0.0
0,0,0,0.0
-5436,10650,31925,0.0
0,0,0,0.0
-5399,9730,31456,0.0
-5423,9356,31474,0.0
-5490,9055,31738,0.0
-5646,8892,32518,0.0
-5807,8719,33323,0.0
0,0,0,0.0
-5019,6811,28591,0.0
-5124,6590,29083,0.0
-5296,6441,29959,0.0
-5323,6106,30009,0.0
-5321,5740,29897,0.0
-5302,5361,29693,0.0
-5325,5029,29724,0.0
-5325,4676,29624,0.0
-5327,4329,29542,0.0
-5329,3985,29463,0.0
-5327,3641,29359,0.0
-5329,3303,29280,0.0
-5324,2963,29166,0.0
-5322,2629,29070,0.0
-5323,2298,28990,0.0
-5327,1972,28927,0.0
-5322,1644,28816,0.0
-5139,1274,27749,0.0
-5307,996,28576,0.0
-5211,665,27982,0.0
-5223,355,27972,0.0
-5278,45,28187,0.0
-5267,-266,28057,0.0
-5277,-576,28034,0.0
-5273,-884,27942,0.0
-5275,-1192,27876,0.0
-5278,-1499,27824,0.0
-5269,-1801,27707,0.0
-5272,-2106,27652,0.0
-5181,-2367,27109,0.0
-5181,-2665,27043,0.0
-5181,-2961,26977,0.0
-5249,-3298,27263,0.0
-5270,-3612,27307,0.0
-5266,-3909,27227,0.0
-5261,-4204,27138,0.0
-5165,-4421,26581,0.0
-5157,-4706,26478,0.0
-5160,-5002,26434,0.0
-5162,-5296,26384,0.0
-5185,-5615,26444,0.0
-5178,-5901,26348,0.0
-5186,-6205,26330,0.0
-5237,-6564,26531,0.0
-5234,-6856,26456,0.0
-5221,-7138,26336,0.0
-5212,-7424,26232,0.0
-5221,-7737,26224,0.0
-5226,-8044,26190,0.0
-5222,-8341,26120,0.0
-5213,-8627,26017,0.0
-5216,-8936,25981,0.0
-5207,-9224,25881,0.0
-5217,-9547,25876,0.0
-5220,-9859,25835,0.0
-5220,-10168,25784,0.0
-5215,-10470,25710,0.0
-5214,-10779,25651,0.0
-5206,-11076,25562,0.0
-5210,-11402,25534,0.0
-5208,-11714,25471,0.0
-5206,-12027,25406,0.0
-5185,-12301,25258,0.0
-5174,-12596,25154,0.0
-5162,-12892,25048,0.0
-5157,-13204,24971,0.0
-5156,-13533,24920,0.0
-5153,-13854,24854,0.0
-5153,-14192,24812,0.0
-5190,-14631,24936,0.0
-5189,-14975,24888,0.0
-5190,-15323,24841,0.0
-5064,-15295,24192,0.0
-5058,-15622,24116,0.0
-5156,-16280,24536,0.0
-5153,-16634,24477,0.0
-5160,-17022,24464,0.0
-5165,-17408,24439,0.0
-5163,-17775,24381,0.0
-5156,-18132,24304,0.0
-5153,-18505,24241,0.0
-5147,-18873,24167,0.0
-5145,-19260,24110,0.0
-5139,-19641,24039,0.0
-5133,-20025,23965,0.0
-5125,-20403,23879,0.0
-5122,-20806,23817,0.0
-5117,-21215,23752,0.0
-5113,-21631,23688,0.0
-5104,-22027,23596,0.0
-12,-51,54,0.0
-14,-63,65,0.0
-13,-60,59,0.0
-18,-80,79,0.0
-16,-75,72,0.0
-18,-89,83,0.0
-17,-83,77,0.0
-16,-81,73,0.0
-20,-100,88,0.0
-20,-102,88,0.0
-18,-95,80,0.0
-20,-111,91,0.0
-22,-119,96,0.0
-19,-112,88,0.0
-19,-110,85,0.0
-22,-127,95,0.0
-21,-125,91,0.0
-21,-133,95,0.0
-19,-121,85,0.0
-20,-125,86,0.0
-23,-148,98,0.0
-22,-148,97,0.0
-24,-162,103,0.0
-23,-165,103,0.0
-22,-155,95,0.0
-21,-158,94,0.0
-23,-170,98,0.0
-22,-170,96,0.0
-23,-177,97,0.0
-22,-184,98,0.0
-23,-192,100,0.0
-24,-202,103,0.0
-24,-208,103,0.0
-23,-203,97,0.0
-23,-208,97,0.0
-23,-213,97,0.0
-23,-222,99,0.0
-24,-231,99,0.0
-24,-235,98,0.0
-23,-238,96,0.0
-24,-257,100,0.0
-26,-288,109,0.0
-28,-314,115,0.0
-28,-320,113,0.0
-27,-323,110,0.0
-26,-321,106,0.0
-25,-322,103,0.0
-25,-327,100,0.0
-24,-329,98,0.0
-1425,15227,14570,0.0
-1470,15120,14778,0.0
-1507,14917,14895,0.0
-1842,17559,17911,0.0
-1861,17098,17817,0.0
-1868,16559,17629,0.0
-1885,16118,17532,0.0
-1907,15742,17497,0.0
-1895,15106,17156,0.0
-1929,14861,17248,0.0
-2109,15698,18619,0.0
-2125,15297,18546,0.0
-2143,14918,18487,0.0
-2161,14543,18425,0.0
-2195,14301,18527,0.0
-3745,23605,31269,0.0
-2435,14853,20124,0.0
-2589,15287,21187,0.0
-2629,15029,21311,0.0
-2641,14620,21214,0.0
-2652,14212,21107,0.0
-2677,13897,21130,0.0
-3920,19701,30673,0.0
-3982,19374,30896,0.0
-4015,18917,30907,0.0
-4037,18418,30839,0.0
-3580,15812,27141,0.0
-3578,15295,26924,0.0
-3641,15061,27195,0.0
-3762,15059,27903,0.0
-3764,14576,27728,0.0
-3758,14076,27499,0.0
-3774,13668,27435,0.0
-3732,13063,26954,0.0
-3760,12718,26989,0.0
-3811,12450,27186,0.0
-3839,12110,27225,0.0
-3840,11689,27075,0.0
-3836,11265,26895,0.0
-4499,12736,31368,0.0
-4596,12537,31872,0.0
-4668,12259,32196,0.0
-4692,11855,32189,0.0
-4691,11393,32016,0.0
-4684,10928,31807,0.0
-4711,10548,31836,0.0
0,0,0,0.0
-4687,9638,31376,0.0
-4731,9306,31523,0.0
-4785,8991,31735,0.0
-4945,8864,32652,0.0
-5081,8676,33406,0.0
-5242,8512,34319,0.0
-4382,6753,28570,0.0
-4483,6542,29103,0.0
-4614,6364,29837,0.0
-4650,6044,29949,0.0
-4655,5686,29871,0.0
-4603,5265,29420,0.0
-4662,4977,29684,0.0
-4662,4624,29574,0.0
-4667,4280,29495,0.0
-4673,3940,29432,0.0
-4677,3601,29350,0.0
-4679,3263,29263,0.0
-4673,2923,29131,0.0
-4681,2595,29083,0.0
-4679,2264,28978,0.0
-4683,1938,28908,0.0
-4682,1612,28808,0.0
-4524,1246,27751,0.0
-4647,963,28423,0.0
-4571,636,27866,0.0
-4608,330,28017,0.0
-4681,21,28371,0.0
-4684,-291,28310,0.0
-4682,-601,28219,0.0
-4687,-911,28168,0.0
-4680,-1217,28049,0.0
-4678,-1523,27966,0.0
-4676,-1827,27875,0.0
-4683,-2135,27848,0.0
-4678,-2436,27747,0.0
-4669,-2733,27623,0.0
-4674,-3037,27582,0.0
-4678,-3340,27534,0.0
-4676,-3639,27457,0.0
-4669,-3933,27351,0.0
-4663,-4226,27247,0.0
-4658,-4520,27160,0.0
-4647,-4806,27028,0.0
-4653,-5111,27009,0.0
-4644,-5398,26893,0.0
-4652,-5706,26880,0.0
-4636,-5983,26729,0.0
-4619,-6258,26575,0.0
-4641,-6586,26646,0.0
-4640,-6882,26584,0.0
-4636,-7176,26509,0.0
-4628,-7464,26409,0.0
-4627,-7763,26351,0.0
-4622,-8055,26268,0.0
-4623,-8359,26222,0.0
-4623,-8662,26172,0.0
-4618,-8958,26096,0.0
-4610,-9249,26005,0.0
-4613,-9563,25973,0.0
-4611,-9865,25910,0.0
-4576,-10099,25666,0.0
-4584,-10427,25667,0.0
-4569,-10704,25537,0.0
-4560,-10998,25444,0.0
-4571,-11341,25464,0.0
-4586,-11699,25507,0.0
-4583,-12011,25445,0.0
-4564,-12288,25302,0.0
-4569,-12627,25288,0.0
-4557,-12923,25183,0.0
-4557,-13255,25142,0.0
-4559,-13595,25113,0.0
-4546,-13896,25008,0.0
-4504,-14106,24740,0.0
-4546,-14581,24932,0.0
-4547,-14933,24900,0.0
-4542,-15270,24838,0.0
-4538,-15616,24786,0.0
-4528,-15940,24693,0.0
-4522,-16288,24634,0.0
-4518,-16639,24573,0.0
-4517,-17010,24537,0.0
-4508,-17355,24455,0.0
-4502,-17719,24395,0.0
-4496,-18086,24334,0.0
-4486,-18438,24247,0.0
-4482,-18820,24194,0.0
-4473,-19195,24126,0.0
-4464,-19570,24049,0.0
-4458,-19962,23989,0.0
-4449,-20348,23916,0.0
-4440,-20738,23839,0.0
-4431,-21139,23769,0.0
-4419,-21526,23676,0.0
-13,-63,68,0.0
-9,-44,46,0.0
-11,-58,60,0.0
-13,-67,67,0.0
-13,-71,69,0.0
-15,-84,80,0.0
-12,-70,67,0.0
-16,-89,82,0.0
-14,-82,75,0.0
-16,-91,81,0.0
-13,-84,73,0.0
-19,-119,101,0.0
-15,-98,81,0.0
-16,-104,85,0.0
-16,-111,88,0.0
-18,-120,93,0.0
-19,-131,99,0.0
-17,-126,93,0.0
-18,-132,95,0.0
-18,-135,95,0.0
-18,-134,93,0.0
-16,-124,83,0.0
-17,-139,91,0.0
-18,-148,94,0.0
-19,-159,100,0.0
-18,-153,93,0.0
-18,-159,95,0.0
-20,-175,101,0.0
-19,-180,102,0.0
-17,-169,94,0.0
-19,-187,100,0.0
-20,-194,102,0.0
-19,-196,100,0.0
-19,-203,101,0.0
-19,-211,102,0.0
-19,-215,101,0.0
-18,-211,97,0.0
-19,-225,100,0.0
-18,-225,97,0.0
-19,-235,98,0.0
-19,-238,97,0.0
-18,-248,98,0.0
-19,-268,102,0.0
-22,-313,115,0.0
-21,-314,112,0.0
-21,-321,111,0.0
-20,-324,108,0.0
-20,-327,106,0.0
-20,-332,103,0.0
-18,-336,101,0.0
-2329,33767,32483,0.0
-1076,14890,14631,0.0
-1114,14705,14761,0.0
-2545,32131,32949,0.0
-2571,31070,32549,0.0
0,0,0,0.0
-2634,29250,31986,0.0
-2671,28460,31798,0.0
-2759,28241,32242,0.0
-2756,27110,31629,0.0
-2750,26022,31029,0.0
-1726,15719,19157,0.0
-1721,15089,18797,0.0
-1764,14899,18975,0.0
-1905,15504,20188,0.0
-2989,23451,31230,0.0
-1956,14802,20161,0.0
-2090,15252,21249,0.0
-2121,14946,21304,0.0
-2146,14594,21289,0.0
0,0,0,0.0
-3124,19801,30267,0.0
-3163,19357,30299,0.0
-3234,19111,30641,0.0
-3295,18805,30890,0.0
-3628,20002,33671,0.0
-3667,19524,33693,0.0
-3685,18950,33538,0.0
-3039,15091,27397,0.0
-3156,15137,28202,0.0
-3130,14491,27716,0.0
-3143,14047,27594,0.0
-3161,13638,27527,0.0
-3205,13339,27678,0.0
-3201,12852,27427,0.0
-3388,13120,28811,0.0
-3223,12030,27199,0.0
-3188,11468,26711,0.0
-3260,11292,27115,0.0
-3788,12634,31296,0.0
-3900,12510,31992,0.0
-3951,12191,32208,0.0
-3973,11776,32170,0.0
-3988,11351,32089,0.0
-3994,10907,31938,0.0
-4003,10479,31821,0.0
-4014,10063,31721,0.0
-3990,9571,31357,0.0
-4036,9248,31532,0.0
-4069,8901,31625,0.0
-4233,8823,32717,0.0
-4355,8637,33482,0.0
-4495,8468,34380,0.0
-3747,6694,28520,0.0
-3834,6481,29039,0.0
-3861,6161,29104,0.0
-3934,5910,29512,0.0
-3995,5635,29835,0.0
-3970,5240,29514,0.0
-4010,4935,29686,0.0
-4014,4586,29586,0.0
-4022,4244,29514,0.0
-4021,3896,29390,0.0
-4030,3563,29336,0.0
-4032,3225,29238,0.0
-4033,2890,29132,0.0
-4043,2564,29096,0.0
-4042,2234,28981,0.0
-4046,1908,28898,0.0
-4045,1584,28789,0.0
-3917,1222,27783,0.0
-4017,936,28393,0.0
-3959,613,27892,0.0
-3984,307,27980,0.0
-4056,0,28391,0.0
-4063,-311,28344,0.0
-4063,-621,28255,0.0
-4059,-929,28147,0.0
-4060,-1235,28078,0.0
-4056,-1539,27969,0.0
-4063,-1845,27928,0.0
-4059,-2146,27831,0.0
-4062,-2450,27775,0.0
-4057,-2747,27663,0.0
-4058,-3048,27597,0.0
-4058,-3346,27521,0.0
-4057,-3645,27452,0.0
-4053,-3939,27357,0.0
-4052,-4236,27283,0.0
-4029,-4508,27068,0.0
-4027,-4801,26990,0.0
-4029,-5100,26945,0.0
-4024,-5389,26853,0.0
-4021,-5679,26769,0.0
-4016,-5969,26683,0.0
-4022,-6274,26665,0.0
-4028,-6579,26646,0.0
-4027,-6878,26596,0.0
-4019,-7161,26485,0.0
-4016,-7456,26419,0.0
-4010,-7745,26328,0.0
-4007,-8040,26263,0.0
-4003,-8334,26190,0.0
-4004,-8643,26158,0.0
-4002,-8942,26098,0.0
-3992,-9227,25993,0.0
-3987,-9522,25917,0.0
-3985,-9826,25863,0.0
-3981,-10130,25803,0.0
-3956,-10379,25603,0.0
-3965,-10717,25626,0.0
-3967,-11040,25605,0.0
-3968,-11364,25579,0.0
-3961,-11664,25496,0.0
-3955,-11971,25426,0.0
-3949,-12284,25362,0.0
-3946,-12604,25313,0.0
-3940,-12922,25251,0.0
-3933,-13238,25183,0.0
-3930,-13565,25130,0.0
-3923,-13888,25069,0.0
-3918,-14220,25016,0.0
-3912,-14551,24956,0.0
-3906,-14884,24897,0.0
-3900,-15223,24841,0.0
-3895,-15569,24790,0.0
-3885,-15899,24711,0.0
-3878,-16243,24647,0.0
-3870,-16593,24588,0.0
-3862,-16944,24524,0.0
-3853,-17298,24458,0.0
-3846,-17659,24398,0.0
-3836,-18022,24335,0.0
-3823,-18371,24248,0.0
-3815,-18747,24188,0.0
-3806,-19125,24127,0.0
-3795,-19504,24060,0.0
-3786,-19896,24002,0.0
-3773,-20274,23920,0.0
-3761,-20664,23848,0.0
-3749,-21057,23771,0.0
-3738,-21469,23709,0.0
-14,-83,90,0.0
-10,-56,59,0.0
-10,-64,66,0.0
-11,-70,71,0.0
-11,-70,70,0.0
-16,-99,97,0.0
-15,-98,94,0.0
-13,-95,88,0.0
-14,-93,85,0.0
-15,-103,92,0.0
-13,-94,82,0.0
-14,-103,88,0.0
-16,-117,97,0.0
-13,-106,86,0.0
-16,-130,103,0.0
-17,-141,109,0.0
-15,-127,96,0.0
-14,-120,90,0.0
-15,-131,95,0.0
-15,-139,98,0.0
-14,-132,92,0.0
-15,-141,96,0.0
-14,-137,91,0.0
-16,-162,104,0.0
-15,-155,99,0.0
-14,-151,93,0.0
-15,-161,96,0.0
-15,-165,97,0.0
-15,-173,98,0.0
-16,-188,104,0.0
-15,-195,105,0.0
-14,-186,98,0.0
-15,-197,102,0.0
-16,-215,108,0.0
-15,-215,105,0.0
-14,-204,97,0.0
-15,-221,102,0.0
-14,-223,100,0.0
-15,-243,105,0.0
-14,-243,102,0.0
-13,-235,97,0.0
-14,-244,97,0.0
-14,-256,99,0.0
-15,-301,113,0.0
-15,-320,115,0.0
-15,-325,113,0.0
-14,-330,111,0.0
-14,-332,108,0.0
-13,-336,105,0.0
-13,-340,103,0.0
-120,17274,16801,0.0
-160,17086,16975,0.0
-200,16904,17155,0.0
-201,14008,14522,0.0
-233,13833,14651,0.0
-300,15387,16650,0.0
-340,15306,16920,0.0
-379,15247,17223,0.0
-416,15055,17377,0.0
-825,27120,31989,0.0
-859,25814,31118,0.0
-919,25346,31228,0.0
-968,24680,31084,0.0
-1009,23863,30726,0.0
-699,15384,20255,0.0
-746,15354,20672,0.0
-773,14886,20499,0.0
-813,14706,20715,0.0
-862,14681,21158,0.0
-900,14466,21336,0.0
-1335,20262,30590,0.0
-1373,19730,30494,0.0
-1436,19560,30958,0.0
-1476,19071,30918,0.0
-1514,18590,30880,0.0
-1692,19738,33604,0.0
-1727,19181,33477,0.0
-1407,14885,26644,0.0
-1468,14799,27174,0.0
-1527,14676,27657,0.0
-1555,14274,27616,0.0
-1583,13859,27542,0.0
-1611,13478,27522,0.0
-1647,13151,27609,0.0
-1681,12830,27704,0.0
-1683,12275,27275,0.0
-1645,11464,26230,0.0
-1726,11492,27091,0.0
-1979,12591,30603,0.0
-2045,12434,31179,0.0
-2108,12243,31697,0.0
-2161,11980,32047,0.0
-2190,11584,32044,0.0
-2220,11205,32081,0.0
-2236,10764,31931,0.0
0,0,0,0.0
-2273,9928,31712,0.0
-2272,9443,31357,0.0
-2310,9127,31544,0.0
-2384,8942,32212,0.0
-2462,8760,32942,0.0
-2539,8555,33641,0.0
-2169,6910,28465,0.0
-2188,6580,28458,0.0
-2262,6411,29166,0.0
-2330,6208,29786,0.0
-2359,5895,29910,0.0
-2373,5545,29849,0.0
-2379,5184,29702,0.0
-2394,4844,29653,0.0
-2404,4500,29572,0.0
-2415,4160,29493,0.0
-2421,3816,29366,0.0
-2433,3485,29309,0.0
-2441,3152,29223,0.0
-2448,2822,29136,0.0
-2455,2493,29041,0.0
-2466,2171,28988,0.0
-2468,1845,28859,0.0
-2470,1521,28714,0.0
-2403,1170,27799,0.0
-2437,873,28041,0.0
-2423,562,27748,0.0
-2451,261,27934,0.0
-2501,-44,28371,0.0
-2504,-351,28287,0.0
-2508,-658,28211,0.0
-2511,-963,28118,0.0
-2516,-1268,28063,0.0
-2518,-1570,27977,0.0
-2521,-1871,27903,0.0
-2522,-2171,27820,0.0
-2523,-2468,27733,0.0
-2522,-2764,27631,0.0
-2524,-3061,27563,0.0
-2523,-3355,27474,0.0
-2523,-3649,27392,0.0
-2523,-3942,27314,0.0
-2523,-4238,27251,0.0
-2521,-4526,27157,0.0
-2520,-4818,27083,0.0
-2521,-5113,27027,0.0
-2515,-5398,26915,0.0
-2516,-5692,26860,0.0
-2511,-5977,26760,0.0
-2505,-6259,26654,0.0
-2507,-6561,26633,0.0
-2498,-6834,26495,0.0
-2496,-7127,26437,0.0
-2493,-7422,26378,0.0
-2488,-7709,26297,0.0
-2485,-8005,26240,0.0
-2482,-8297,26174,0.0
-2474,-8584,26086,0.0
-2472,-8887,26047,0.0
-2468,-9182,25982,0.0
-2463,-9481,25926,0.0
-2455,-9770,25837,0.0
-2448,-10067,25769,0.0
-2443,-10369,25712,0.0
-2435,-10661,25625,0.0
-2430,-10974,25589,0.0
-2419,-11263,25491,0.0
-2388,-11455,25181,0.0
-2406,-11884,25386,0.0
-2398,-12195,25328,0.0
-2391,-12512,25276,0.0
-2384,-12836,25236,0.0
-2376,-13157,25187,0.0
-2363,-13462,25099,0.0
-2355,-13790,25052,0.0
-2293,-13801,24438,0.0
-2280,-14104,24352,0.0
-2313,-14701,24757,0.0
-2314,-15111,24830,0.0
-2301,-15443,24762,0.0
-2284,-15746,24649,0.0
-2278,-16130,24654,0.0
-2262,-16460,24570,0.0
-2249,-16812,24515,0.0
-2237,-17170,24463,0.0
-2221,-17514,24384,0.0
-2205,-17871,24318,0.0
-2190,-18237,24259,0.0
-2174,-18599,24189,0.0
-2156,-18967,24121,0.0
-2140,-19348,24063,0.0
-2121,-19710,23975,0.0
-2102,-20097,23911,0.0
-2083,-20485,23842,0.0
-2064,-20888,23784,0.0
-2044,-21281,23706,0.0
-2022,-21679,23629,0.0
-1999,-22074,23541,0.0
-6,-71,74,0.0
-7,-80,82,0.0
-6,-74,75,0.0
-7,-82,80,0.0
-7,-86,83,0.0
-7,-93,87,0.0
-6,-84,77,0.0
-6,-98,89,0.0
-7,-108,94,0.0
-7,-105,90,0.0
-8,-122,102,0.0
-7,-118,96,0.0
-7,-117,93,0.0
-7,-119,94,0.0
-7,-136,105,0.0
-7,-130,97,0.0
-6,-132,97,0.0
-7,-144,103,0.0
-7,-146,102,0.0
-6,-138,94,0.0
-6,-153,102,0.0
-6,-143,94,0.0
-6,-155,99,0.0
-6,-155,96,0.0
-5,-156,95,0.0
-5,-170,101,0.0
-5,-179,104,0.0
-5,-178,101,0.0
-4,-183,101,0.0
-4,-186,100,0.0
-4,-198,103,0.0
-3,-194,98,0.0
-3,-209,103,0.0
-4,-222,107,0.0
-3,-213,100,0.0
-3,-218,100,0.0
-2,-237,106,0.0
-2,-240,103,0.0
-2,-240,100,0.0
-1,-232,94,0.0
-1,-242,94,0.0
-1,-260,99,0.0
0,-314,116,0.0
0,-321,114,0.0
1,-322,111,0.0
1,-327,109,0.0
1,-322,103,0.0
3,-328,101,0.0
418,13654,13346,0.0
431,14974,14952,0.0
368,13709,13983,0.0
337,13543,14112,0.0
309,13492,14360,0.0
282,13467,14645,0.0
253,13341,14822,0.0
257,15233,17294,0.0
222,15029,17434,0.0
219,17232,20427,0.0
271,25656,31083,0.0
140,16748,20740,0.0
101,16471,20849,0.0
62,16222,20993,0.0
25,15991,21159,0.0
-12,14660,19837,0.0
-49,15459,21396,0.0
-85,15130,21422,0.0
-119,14493,20995,0.0
-155,14462,21440,0.0
-266,19882,30169,0.0
-316,19679,30573,0.0
-364,19352,30788,0.0
-409,18909,30816,0.0
-452,18405,30733,0.0
-541,19620,33577,0.0
-584,19064,33449,0.0
-496,14643,26349,0.0
-528,14239,26285,0.0
-566,13989,26504,0.0
-605,13768,26781,0.0
-652,13692,27357,0.0
-687,13388,27487,0.0
-694,12565,26522,0.0
-736,12418,26961,0.0
-774,12195,27248,0.0
-802,11822,27199,0.0
-826,11418,27068,0.0
-983,12744,31150,0.0
-1024,12476,31464,0.0
-1077,12334,32114,0.0
-1106,11913,32052,0.0
-1135,11501,32002,0.0
-1163,11111,32001,0.0
-1186,10669,31837,0.0
-1214,10289,31846,0.0
-1228,9804,31507,0.0
-1248,9379,31336,0.0
-1284,9088,31606,0.0
-1339,8918,32333,0.0
-1394,8725,33028,0.0
-1455,8556,33874,0.0
-1246,6876,28522,0.0
-1267,6555,28544,0.0
-1327,6419,29412,0.0
-1363,6161,29776,0.0
-1389,5850,29907,0.0
-1404,5495,29806,0.0
-1411,5122,29578,0.0
-1432,4799,29625,0.0
-1444,4455,29524,0.0
-1458,4118,29457,0.0
-1468,3774,29312,0.0
-1481,3445,29260,0.0
-1492,3115,29178,0.0
-1504,2788,29107,0.0
-1512,2460,29003,0.0
-1479,2076,28090,0.0
-1474,1749,27752,0.0
-1481,1441,27662,0.0
-1491,1138,27610,0.0
-1499,836,27559,0.0
-1507,536,27496,0.0
-1516,237,27456,0.0
-1521,-60,27369,0.0
-1544,-361,27606,0.0
-1574,-669,27953,0.0
-1592,-978,28112,0.0
-1597,-1281,28045,0.0
-1599,-1581,27940,0.0
-1604,-1881,27874,0.0
-1606,-2179,27784,0.0
-1608,-2474,27695,0.0
-1611,-2772,27628,0.0
-1612,-3066,27542,0.0
-1615,-3360,27475,0.0
-1615,-3652,27387,0.0
-1616,-3946,27320,0.0
-1618,-4239,27254,0.0
-1617,-4528,27165,0.0
-1614,-4816,27070,0.0
-1576,-4986,26365,0.0
-1576,-5273,26310,0.0
-1577,-5563,26274,0.0
-1607,-5967,26743,0.0
-1606,-6260,26691,0.0
-1584,-6469,26297,0.0
-1534,-6554,25450,0.0
-1525,-6807,25292,0.0
-1590,-7404,26361,0.0
-1585,-7689,26275,0.0
-1582,-7986,26231,0.0
-1576,-8272,26147,0.0
-1537,-8380,25522,0.0
-1530,-8657,25432,0.0
-1553,-9112,25844,0.0
-1555,-9454,25913,0.0
-1547,-9746,25839,0.0
-1541,-10045,25777,0.0
-1533,-10344,25716,0.0
-1525,-10639,25643,0.0
-1517,-10943,25587,0.0
-1506,-11225,25479,0.0
-1489,-11465,25276,0.0
-1490,-11852,25394,0.0
-1480,-12165,25340,0.0
-1470,-12476,25283,0.0
-1459,-12788,25221,0.0
-1449,-13109,25174,0.0
-1438,-13425,25112,0.0
-1427,-13755,25070,0.0
-1413,-14079,25013,0.0
-1395,-14349,24859,0.0
-1387,-14726,24884,0.0
-1373,-15060,24831,0.0
-1358,-15396,24774,0.0
-1342,-15725,24704,0.0
-1328,-16079,24665,0.0
-1311,-16419,24599,0.0
-1294,-16758,24528,0.0
-1276,-17099,24453,0.0
-1258,-17458,24399,0.0
-1240,-17820,24343,0.0
-1221,-18187,24287,0.0
-1200,-18532,24197,0.0
-1179,-18910,24145,0.0
-1157,-19265,24057,0.0
-1136,-19653,24003,0.0
-1111,-20014,23912,0.0
-1089,-20405,23849,0.0
-1064,-20794,23777,0.0
-1040,-21202,23721,0.0
-1013,-21584,23628,0.0
-986,-21979,23543,0.0
-957,-22362,23439,0.0
-3,-61,63,0.0
-3,-59,59,0.0
-3,-78,77,0.0
-3,-82,79,0.0
-2,-79,75,0.0
-3,-103,95,0.0
-2,-87,79,0.0
-2,-100,87,0.0
-3,-107,93,0.0
-2,-91,77,0.0
-2,-109,90,0.0
-2,-120,96,0.0
-2,-120,95,0.0
-2,-120,93,0.0
-2,-138,104,0.0
-1,-119,88,0.0
-1,-130,94,0.0
-1,-136,95,0.0
-1,-151,104,0.0
-1,-132,89,0.0
0,-127,83,0.0
0,-147,94,0.0
0,-139,86,0.0
0,-157,96,0.0
0,-156,93,0.0
0,-153,88,0.0
0,-175,100,0.0
1,-177,98,0.0
0,-188,101,0.0
1,-188,99,0.0
2,-199,102,0.0
2,-212,106,0.0
2,-222,108,0.0
3,-214,102,0.0
4,-228,104,0.0
4,-230,103,0.0
4,-220,96,0.0
5,-241,101,0.0
5,-230,94,0.0
6,-243,96,0.0
6,-248,95,0.0
8,-312,115,0.0
10,-321,115,0.0
10,-332,115,0.0
11,-328,110,0.0
12,-329,106,0.0
12,-325,101,0.0
1017,14849,14572,0.0
986,14681,14717,0.0
916,13912,14245,0.0
895,13862,14500,0.0
853,13502,14428,0.0
831,13450,14683,0.0
805,13324,14861,0.0
898,15218,17343,0.0
761,13209,15383,0.0
738,13124,15618,0.0
1401,25573,31105,0.0
990,18560,23074,0.0
955,18424,23413,0.0
1198,23776,30890,0.0
768,15706,20866,0.0
739,15591,21182,0.0
668,14584,20266,0.0
672,15177,21575,0.0
614,14368,20897,0.0
588,14324,21321,0.0
632,16020,24408,0.0
596,15772,24603,0.0
567,15676,25041,0.0
538,15610,25543,0.0
502,15333,25709,0.0
466,15067,25891,0.0
431,14797,26069,0.0
383,14026,25345,0.0
350,13781,25547,0.0
321,13681,26028,0.0
302,14032,27412,0.0
255,13099,26284,0.0
223,12833,26461,0.0
191,12508,26515,0.0
162,12388,27012,0.0
131,12134,27232,0.0
98,11651,26928,0.0
68,11336,26994,0.0
45,12638,31030,0.0
11,12482,31621,0.0
-21,12275,32106,0.0
-53,11858,32054,0.0
-84,11424,31938,0.0
-115,11032,31925,0.0
-145,10564,31674,0.0
-175,10222,31789,0.0
-201,9716,31378,0.0
-228,9341,31365,0.0
-257,9057,31658,0.0
-289,8879,32356,0.0
-323,8717,33168,0.0
-357,8526,33928,0.0
0,0,0,0.0
-342,6485,28397,0.0
-372,6320,29123,0.0
-401,6141,29848,0.0
-422,5809,29871,0.0
-440,5458,29785,0.0
-456,5094,29598,0.0
-475,4764,29596,0.0
-491,4418,29481,0.0
-507,4084,29414,0.0
-521,3747,29315,0.0
-535,3415,29225,0.0
-550,3087,29158,0.0
-563,2761,29078,0.0
-575,2435,28975,0.0
-587,2114,28903,0.0
-594,1782,28617,0.0
-586,1419,27604,0.0
-596,1117,27540,0.0
-613,828,27832,0.0
-619,522,27646,0.0
-632,224,27786,0.0
-648,-76,28004,0.0
-654,-378,27897,0.0
-661,-678,27816,0.0
-668,-978,27761,0.0
-674,-1274,27673,0.0
-678,-1568,27544,0.0
-683,-1864,27495,0.0
-688,-2157,27418,0.0
-691,-2451,27355,0.0
-694,-2741,27270,0.0
-697,-3028,27165,0.0
-700,-3321,27128,0.0
-702,-3610,27056,0.0
-704,-3898,26985,0.0
-705,-4183,26897,0.0
-703,-4459,26756,0.0
-706,-4758,26762,0.0
-706,-5047,26705,0.0
-705,-5333,26636,0.0
-703,-5609,26518,0.0
-703,-5911,26527,0.0
-701,-6198,26462,0.0
-703,-6524,26551,0.0
-700,-6815,26499,0.0
-696,-7093,26391,0.0
-691,-7376,26308,0.0
-686,-7655,26206,0.0
-678,-7904,26009,0.0
-670,-8167,25864,0.0
-668,-8492,25915,0.0
-662,-8793,25885,0.0
-658,-9115,25906,0.0
-650,-9406,25838,0.0
-643,-9689,25743,0.0
-633,-9969,25644,0.0
-625,-10272,25600,0.0
-615,-10567,25531,0.0
-604,-10832,25392,0.0
-597,-11167,25411,0.0
-587,-11505,25430,0.0
-576,-11813,25375,0.0
-546,-11730,24501,0.0
-540,-12159,24706,0.0
-532,-12575,24869,0.0
-526,-13061,25152,0.0
-513,-13382,25102,0.0
-498,-13697,25036,0.0
-484,-14029,24998,0.0
-468,-14352,24938,0.0
-452,-14664,24855,0.0
-436,-15012,24826,0.0
-418,-15340,24761,0.0
-399,-15657,24673,0.0
-381,-16014,24641,0.0
-361,-16339,24557,0.0
-341,-16689,24505,0.0
-320,-17019,24416,0.0
-298,-17377,24365,0.0
-277,-17748,24324,0.0
-253,-18082,24229,0.0
-229,-18445,24165,0.0
-204,-18827,24122,0.0
-179,-19190,24045,0.0
-153,-19577,23994,0.0
-126,-19938,23905,0.0
-97,-20312,23825,0.0
-69,-20706,23762,0.0
-39,-21089,23679,0.0
-9,-21504,23626,0.0
22,-21903,23549,0.0
55,-22279,23441,0.0
0,-69,71,0.0
0,-59,60,0.0
0,-65,65,0.0
0,-69,67,0.0
0,-76,73,0.0
0,-87,80,0.0
0,-86,79,0.0
0,-95,84,0.0
0,-96,83,0.0
1,-95,81,0.0
1,-106,89,0.0
1,-109,89,0.0
2,-123,97,0.0
1,-109,85,0.0
2,-125,95,0.0
2,-126,94,0.0
2,-124,89,0.0
3,-119,84,0.0
3,-134,92,0.0
4,-134,91,0.0
3,-124,82,0.0
4,-139,90,0.0
5,-157,99,0.0
5,-149,92,0.0
5,-162,97,0.0
5,-155,91,0.0
5,-165,94,0.0
7,-189,105,0.0
7,-178,97,0.0
7,-187,99,0.0
8,-186,96,0.0
10,-216,109,0.0
9,-217,105,0.0
10,-218,103,0.0
11,-228,105,0.0
11,-231,103,0.0
11,-235,102,0.0
12,-228,96,0.0
13,-245,100,0.0
13,-248,99,0.0
13,-246,95,0.0
17,-295,110,0.0
19,-310,112,0.0
19,-313,109,0.0
20,-317,106,0.0
20,-311,101,0.0
20,-314,99,0.0
1288,13715,13485,0.0
1268,13650,13710,0.0
1313,14266,14636,0.0
1268,13923,14592,0.0
1219,13535,14491,0.0
1199,13454,14716,0.0
1173,13300,14863,0.0
1327,15209,17367,0.0
1676,19427,22669,0.0
1660,19452,23195,0.0
1110,13152,16028,0.0
1083,12980,16169,0.0
1588,19241,24501,0.0
1566,19206,25003,0.0
1874,23244,30940,0.0
1447,18155,24715,0.0
1146,14554,20264,0.0
1143,14690,20925,0.0
1100,14315,20863,0.0
1087,14324,21365,0.0
1261,16817,25677,0.0
1419,19177,29977,0.0
1396,19099,30575,0.0
1178,16340,26794,0.0
1128,15852,26636,0.0
1094,15579,26829,0.0
1062,15328,27062,0.0
1024,14977,27120,0.0
954,14171,26326,0.0
911,13727,26174,0.0
851,13006,25462,0.0
828,12836,25812,0.0
853,13432,27758,0.0
822,13141,27919,0.0
807,13094,28618,0.0
783,12914,29047,0.0
834,13978,32379,0.0
794,13535,32304,0.0
728,12616,31048,0.0
705,12446,31602,0.0
682,12252,32124,0.0
646,11822,32032,0.0
612,11400,31945,0.0
578,10983,31862,0.0
547,10580,31803,0.0
516,10184,31751,0.0
480,9696,31395,0.0
451,9309,31336,0.0
429,9046,31702,0.0
411,8874,32426,0.0
393,8685,33135,0.0
375,8513,33972,0.0
0,0,0,0.0
0,0,0,0.0
264,6496,30019,0.0
242,6139,29925,0.0
220,5792,29874,0.0
199,5445,29807,0.0
179,5076,29590,0.0
161,4750,29603,0.0
142,4405,29490,0.0
124,4067,29392,0.0
108,3737,29344,0.0
91,3404,29247,0.0
76,3074,29155,0.0
61,2750,29090,0.0
47,2425,28995,0.0
34,2105,28927,0.0
20,1777,28709,0.0
8,1411,27631,0.0
-3,1107,27531,0.0
-13,818,27796,0.0
-23,514,27639,0.0
-33,217,27789,0.0
-43,-84,28304,0.0
-51,-389,28245,0.0
-59,-693,28169,0.0
-67,-995,28102,0.0
-73,-1293,27980,0.0
-80,-1593,27916,0.0
-86,-1890,27835,0.0
-91,-2189,27784,0.0
-96,-2486,27727,0.0
-100,-2776,27607,0.0
-104,-3072,27552,0.0
-106,-3363,27473,0.0
-110,-3651,27364,0.0
-111,-3946,27327,0.0
-113,-4233,27229,0.0
-114,-4527,27175,0.0
-115,-4810,27070,0.0
-115,-5097,26989,0.0
-113,-5383,26903,0.0
-112,-5673,26844,0.0
-111,-5960,26768,0.0
-109,-6242,26670,0.0
-106,-6530,26602,0.0
-103,-6816,26531,0.0
-100,-7097,26438,0.0
-95,-7381,26355,0.0
-90,-7664,26271,0.0
-84,-7787,25658,0.0
-78,-8067,25580,0.0
-72,-8373,25584,0.0
-67,-8821,26000,0.0
-59,-9127,25973,0.0
-51,-9418,25906,0.0
-43,-9708,25830,0.0
-35,-10004,25771,0.0
-25,-10301,25710,0.0
-15,-10596,25638,0.0
-5,-10892,25568,0.0
6,-11185,25489,0.0
17,-11494,25441,0.0
29,-11801,25388,0.0
41,-11744,24568,0.0
54,-11883,24184,0.0
67,-12155,24078,0.0
85,-13045,25161,0.0
100,-13370,25119,0.0
116,-13688,25063,0.0
133,-14008,25002,0.0
151,-14330,24941,0.0
168,-14653,24879,0.0
186,-14988,24831,0.0
207,-15311,24758,0.0
224,-15456,24398,0.0
243,-15711,24219,0.0
267,-16189,24375,0.0
290,-16651,24493,0.0
314,-17002,24438,0.0
338,-17350,24373,0.0
363,-17700,24304,0.0
388,-18069,24256,0.0
415,-18422,24180,0.0
441,-18769,24092,0.0
470,-19154,24046,0.0
499,-19520,23970,0.0
529,-19908,23916,0.0
561,-20294,23851,0.0
592,-20670,23768,0.0
624,-21044,23677,0.0
659,-21470,23638,0.0
693,-21859,23550,0.0
729,-22246,23455,0.0
766,-22645,23366,0.0
2,-78,79,0.0
2,-72,71,0.0
2,-84,82,0.0
2,-89,84,0.0
2,-93,87,0.0
3,-95,87,0.0
3,-97,86,0.0
4,-113,97,0.0
4,-109,93,0.0
