//X,Y,Z,Classification
0.0,0.0,0.0,0.0
0.0,0.0,0.0,0.0
0.0,0.0,0.0,0.0
0.0,0.0,0.0,0.0
0.0,0.0,0.0,0.0
0.0,0.0,0.0,0.0
0.0,0.0,0.0,0.0
-17488.0,11919.0,32288.0,0.0
0.0,0.0,0.0,0.0
0.0,0.0,0.0,0.0
-7340.0,4450.0,13533.0,0.0
-7556.0,4395.0,13924.0,0.0
-7755.0,4319.0,14279.0,0.0
-7864.0,4188.0,14470.0,0.0
-7884.0,4008.0,14497.0,0.0
-7867.0,3809.0,14455.0,0.0
-7848.0,3611.0,14407.0,0.0
-7830.0,3416.0,14363.0,0.0
-7809.0,3222.0,14310.0,0.0
-7795.0,3031.0,14271.0,0.0
-7780.0,2842.0,14229.0,0.0
-7759.0,2654.0,14176.0,0.0
-7725.0,2462.0,14098.0,0.0
-7731.0,2285.0,14094.0,0.0
-7730.0,2106.0,14074.0,0.0
-7716.0,1925.0,14032.0,0.0
-7699.0,1744.0,13981.0,0.0
-5413.0,1103.0,9817.0,0.0
-5778.0,1047.0,10465.0,0.0
-5841.0,926.0,10563.0,0.0
-5824.0,791.0,10518.0,0.0
-5849.0,665.0,10547.0,0.0
-5855.0,534.0,10542.0,0.0
-5861.0,404.0,10536.0,0.0
-5868.0,274.0,10530.0,0.0
-5867.0,144.0,10512.0,0.0
-5933.0,15.0,10610.0,0.0
-5959.0,-116.0,10636.0,0.0
-5949.0,-245.0,10599.0,0.0
-5944.0,-375.0,10570.0,0.0
-5949.0,-505.0,10557.0,0.0
-5939.0,-634.0,10517.0,0.0
-5924.0,-761.0,10471.0,0.0
-5519.0,-828.0,9733.0,0.0
-5541.0,-952.0,9752.0,0.0
-5533.0,-1070.0,9717.0,0.0
-5496.0,-1181.0,9630.0,0.0
-5515.0,-1303.0,9642.0,0.0
-5528.0,-1425.0,9640.0,0.0
-5525.0,-1543.0,9610.0,0.0
-5617.0,-1689.0,9747.0,0.0
-5904.0,-1901.0,10219.0,0.0
-5905.0,-2028.0,10194.0,0.0
-5909.0,-2155.0,10175.0,0.0
-5907.0,-2280.0,10144.0,0.0
-5909.0,-2407.0,10119.0,0.0
-5898.0,-2528.0,10072.0,0.0
-5899.0,-2653.0,10046.0,0.0
-5903.0,-2780.0,10023.0,0.0
-5903.0,-2905.0,9990.0,0.0
-5896.0,-3028.0,9949.0,0.0
-5913.0,-3161.0,9945.0,0.0
-5913.0,-3287.0,9915.0,0.0
-5906.0,-3409.0,9872.0,0.0
-5903.0,-3533.0,9835.0,0.0
-5909.0,-3661.0,9810.0,0.0
-5916.0,-3791.0,9787.0,0.0
-5918.0,-3919.0,9757.0,0.0
-5920.0,-4046.0,9725.0,0.0
-5927.0,-4177.0,9702.0,0.0
-5931.0,-4306.0,9671.0,0.0
-5937.0,-4437.0,9644.0,0.0
-5935.0,-4563.0,9604.0,0.0
-5944.0,-4696.0,9578.0,0.0
-5955.0,-4833.0,9558.0,0.0
-5949.0,-4956.0,9509.0,0.0
-5951.0,-5086.0,9474.0,0.0
-5958.0,-5220.0,9443.0,0.0
-5967.0,-5356.0,9415.0,0.0
-5984.0,-5501.0,9401.0,0.0
-5984.0,-5631.0,9358.0,0.0
-6002.0,-5777.0,9341.0,0.0
-6004.0,-5910.0,9300.0,0.0
-6010.0,-6048.0,9265.0,0.0
-6020.0,-6189.0,9235.0,0.0
-6032.0,-6333.0,9204.0,0.0
-6038.0,-6474.0,9168.0,0.0
-6057.0,-6626.0,9147.0,0.0
-6068.0,-6773.0,9116.0,0.0
-6080.0,-6922.0,9083.0,0.0
-6087.0,-7065.0,9042.0,0.0
-6094.0,-7210.0,9001.0,0.0
-6105.0,-7359.0,8964.0,0.0
-6121.0,-7515.0,8933.0,0.0
-6139.0,-7678.0,8906.0,0.0
-6145.0,-7825.0,8860.0,0.0
-6165.0,-7992.0,8832.0,0.0
-6171.0,-8140.0,8782.0,0.0
-6191.0,-8308.0,8752.0,0.0
-6204.0,-8470.0,8711.0,0.0
-6216.0,-8630.0,8666.0,0.0
-6241.0,-8809.0,8638.0,0.0
-6259.0,-8983.0,8602.0,0.0
-6278.0,-9158.0,8563.0,0.0
-6291.0,-9326.0,8516.0,0.0
-6308.0,-9502.0,8472.0,0.0
-6331.0,-9688.0,8435.0,0.0
-6359.0,-9884.0,8402.0,0.0
-6381.0,-10073.0,8361.0,0.0
-6400.0,-10259.0,8314.0,0.0
-6416.0,-10443.0,8262.0,0.0
-6451.0,-10659.0,8231.0,0.0
-6469.0,-10849.0,8177.0,0.0
-6500.0,-11064.0,8139.0,0.0
-6517.0,-11258.0,8082.0,0.0
-6546.0,-11474.0,8036.0,0.0
-6577.0,-11695.0,7990.0,0.0
-62.0,-113.0,75.0,0.0
-60.0,-110.0,72.0,0.0
-69.0,-129.0,82.0,0.0
-64.0,-122.0,75.0,0.0
-63.0,-121.0,73.0,0.0
-67.0,-132.0,77.0,0.0
-72.0,-142.0,81.0,0.0
-6548.0,-13032.0,7245.0,0.0
-6539.0,-13193.0,7139.0,0.0
-6450.0,-13193.0,6947.0,0.0
-6299.0,-13060.0,6688.0,0.0
-82.0,-172.0,86.0,0.0
-81.0,-174.0,84.0,0.0
-83.0,-181.0,85.0,0.0
-84.0,-184.0,84.0,0.0
-88.0,-198.0,87.0,0.0
-94.0,-212.0,91.0,0.0
-89.0,-203.0,85.0,0.0
-100.0,-231.0,93.0,0.0
-104.0,-245.0,96.0,0.0
-111.0,-265.0,99.0,0.0
-132.0,-319.0,117.0,0.0
-133.0,-326.0,115.0,0.0
-131.0,-325.0,110.0,0.0
-132.0,-330.0,108.0,0.0
-125.0,-319.0,100.0,0.0
-122.0,-315.0,96.0,0.0
-123.0,-319.0,92.0,0.0
-119.0,-315.0,88.0,0.0
-116.0,-309.0,83.0,0.0
-115.0,-314.0,80.0,0.0
-117.0,-324.0,79.0,0.0
-115.0,-321.0,75.0,0.0
-116.0,-329.0,72.0,0.0
-113.0,-323.0,67.0,0.0
0.0,0.0,0.0,0.0
-21622.0,47043.0,39359.0,0.0
0.0,0.0,0.0,0.0
0.0,0.0,0.0,0.0
-20951.0,43007.0,38426.0,0.0
-20824.0,41917.0,38282.0,0.0
0.0,0.0,0.0,0.0
0.0,0.0,0.0,0.0
0.0,0.0,0.0,0.0
-17552.0,32629.0,32537.0,0.0
-17595.0,32055.0,32678.0,0.0
-17529.0,31289.0,32611.0,0.0
-17529.0,30653.0,32667.0,0.0
-17564.0,30086.0,32785.0,0.0
-17064.0,28625.0,31899.0,0.0
-17073.0,28043.0,31961.0,0.0
-16927.0,27220.0,31732.0,0.0
-16892.0,26587.0,31706.0,0.0
-17081.0,26309.0,32099.0,0.0
-16497.0,24861.0,31038.0,0.0
-16544.0,24385.0,31158.0,0.0
-16528.0,23824.0,31162.0,0.0
-16314.0,22989.0,30785.0,0.0
-16322.0,22481.0,30827.0,0.0
-16279.0,21907.0,30770.0,0.0
0.0,0.0,0.0,0.0
-16055.0,20606.0,30389.0,0.0
-15961.0,19999.0,30231.0,0.0
-15957.0,19508.0,30238.0,0.0
-16159.0,19272.0,30639.0,0.0
-16073.0,18690.0,30487.0,0.0
-15921.0,18045.0,30212.0,0.0
-16233.0,17925.0,30813.0,0.0
-16246.0,17467.0,30844.0,0.0
-17694.0,18518.0,33603.0,0.0
-17613.0,17933.0,33454.0,0.0
-17631.0,17453.0,33491.0,0.0
0.0,0.0,0.0,0.0
0.0,0.0,0.0,0.0
0.0,0.0,0.0,0.0
0.0,0.0,0.0,0.0
0.0,0.0,0.0,0.0
0.0,0.0,0.0,0.0
0.0,0.0,0.0,0.0
0.0,0.0,0.0,0.0
0.0,0.0,0.0,0.0
-17059.0,12280.0,32347.0,0.0
-17036.0,11822.0,32290.0,0.0
0.0,0.0,0.0,0.0
0.0,0.0,0.0,0.0
0.0,0.0,0.0,0.0
-16773.0,9927.0,31721.0,0.0
-7552.0,4280.0,14272.0,0.0
-7684.0,4163.0,14513.0,0.0
-7669.0,3964.0,14472.0,0.0
-7651.0,3767.0,14427.0,0.0
-7645.0,3576.0,14403.0,0.0
-7624.0,3380.0,14351.0,0.0
-7593.0,3182.0,14279.0,0.0
-7590.0,2998.0,14260.0,0.0
-7578.0,2811.0,14223.0,0.0
-7566.0,2626.0,14183.0,0.0
-7558.0,2444.0,14154.0,0.0
-7528.0,2256.0,14081.0,0.0
-7537.0,2080.0,14079.0,0.0
-7522.0,1900.0,14033.0,0.0
-7508.0,1721.0,13989.0,0.0
-7475.0,1540.0,13910.0,0.0
-5670.0,1036.0,10536.0,0.0
-5728.0,915.0,10628.0,0.0
-5832.0,797.0,10806.0,0.0
-5819.0,662.0,10764.0,0.0
-5827.0,530.0,10763.0,0.0
-5822.0,397.0,10735.0,0.0
-5814.0,265.0,10702.0,0.0
-5810.0,134.0,10676.0,0.0
-5808.0,3.0,10656.0,0.0
-5807.0,-127.0,10633.0,0.0
-5795.0,-256.0,10591.0,0.0
-5792.0,-385.0,10565.0,0.0
-5788.0,-513.0,10536.0,0.0
-5779.0,-641.0,10499.0,0.0
-5776.0,-769.0,10472.0,0.0
-5758.0,-894.0,10417.0,0.0
-5390.0,-955.0,9731.0,0.0
-5398.0,-1076.0,9723.0,0.0
-5396.0,-1194.0,9700.0,0.0
-5394.0,-1312.0,9672.0,0.0
-5392.0,-1430.0,9646.0,0.0
-5431.0,-1559.0,9691.0,0.0
-5659.0,-1748.0,10075.0,0.0
-5757.0,-1904.0,10223.0,0.0
-5741.0,-2024.0,10167.0,0.0
-5744.0,-2150.0,10147.0,0.0
-5753.0,-2279.0,10135.0,0.0
-5744.0,-2400.0,10091.0,0.0
-5754.0,-2529.0,10080.0,0.0
-5748.0,-2650.0,10042.0,0.0
-5753.0,-2777.0,10021.0,0.0
-5751.0,-2901.0,9989.0,0.0
-5744.0,-3021.0,9944.0,0.0
-5744.0,-3146.0,9915.0,0.0
-5758.0,-3278.0,9907.0,0.0
-5759.0,-3404.0,9877.0,0.0
-5758.0,-3528.0,9843.0,0.0
-5760.0,-3655.0,9815.0,0.0
-5761.0,-3781.0,9782.0,0.0
-5766.0,-3910.0,9756.0,0.0
-5773.0,-4039.0,9732.0,0.0
-5767.0,-4160.0,9687.0,0.0
-5772.0,-4290.0,9661.0,0.0
-5780.0,-4422.0,9637.0,0.0
-5781.0,-4549.0,9602.0,0.0
-5782.0,-4676.0,9565.0,0.0
-5785.0,-4805.0,9532.0,0.0
-5789.0,-4935.0,9499.0,0.0
-5793.0,-5065.0,9466.0,0.0
-5801.0,-5201.0,9440.0,0.0
-5815.0,-5341.0,9422.0,0.0
-5812.0,-5467.0,9375.0,0.0
-5824.0,-5607.0,9353.0,0.0
-5839.0,-5751.0,9333.0,0.0
-5841.0,-5883.0,9293.0,0.0
-5841.0,-6013.0,9249.0,0.0
-5862.0,-6166.0,9235.0,0.0
-5869.0,-6305.0,9201.0,0.0
-5874.0,-6443.0,9162.0,0.0
-5887.0,-6589.0,9134.0,0.0
-5904.0,-6743.0,9112.0,0.0
-5909.0,-6882.0,9070.0,0.0
-5925.0,-7036.0,9045.0,0.0
-5933.0,-7180.0,9005.0,0.0
-5937.0,-7322.0,8959.0,0.0
-5956.0,-7484.0,8936.0,0.0
-5965.0,-7633.0,8896.0,0.0
-5972.0,-7779.0,8850.0,0.0
-5991.0,-7944.0,8823.0,0.0
-5996.0,-8092.0,8774.0,0.0
-6020.0,-8267.0,8752.0,0.0
-6039.0,-8436.0,8721.0,0.0
-6047.0,-8591.0,8672.0,0.0
-6066.0,-8763.0,8639.0,0.0
-6081.0,-8930.0,8597.0,0.0
-6094.0,-9098.0,8554.0,0.0
-6126.0,-9292.0,8532.0,0.0
-6138.0,-9461.0,8483.0,0.0
-6161.0,-9648.0,8449.0,0.0
-6183.0,-9835.0,8410.0,0.0
-6195.0,-10009.0,8357.0,0.0
-6225.0,-10213.0,8327.0,0.0
-6240.0,-10395.0,8275.0,0.0
-6266.0,-10596.0,8235.0,0.0
-6275.0,-10773.0,8172.0,0.0
-6309.0,-10992.0,8139.0,0.0
-6342.0,-11214.0,8103.0,0.0
-6365.0,-11422.0,8054.0,0.0
-6384.0,-11623.0,7996.0,0.0
-64.0,-118.0,80.0,0.0
-68.0,-129.0,84.0,0.0
-6049.0,-11496.0,7336.0,0.0
-6058.0,-11679.0,7266.0,0.0
-6077.0,-11881.0,7204.0,0.0
-66.0,-132.0,78.0,0.0
-72.0,-146.0,84.0,0.0
-6399.0,-13043.0,7310.0,0.0
-6345.0,-13114.0,7155.0,0.0
-74.0,-155.0,83.0,0.0
-5210.0,-11066.0,5717.0,0.0
-85.0,-183.0,92.0,0.0
-86.0,-188.0,91.0,0.0
-81.0,-182.0,86.0,0.0
-85.0,-192.0,88.0,0.0
-85.0,-193.0,86.0,0.0
-89.0,-208.0,90.0,0.0
-88.0,-207.0,86.0,0.0
-93.0,-222.0,90.0,0.0
-99.0,-240.0,94.0,0.0
-104.0,-255.0,97.0,0.0
-121.0,-298.0,110.0,0.0
-129.0,-326.0,116.0,0.0
-127.0,-324.0,111.0,0.0
-125.0,-321.0,106.0,0.0
-121.0,-316.0,100.0,0.0
-119.0,-315.0,97.0,0.0
-119.0,-317.0,94.0,0.0
-115.0,-313.0,89.0,0.0
-112.0,-308.0,84.0,0.0
-112.0,-312.0,81.0,0.0
-110.0,-312.0,77.0,0.0
-110.0,-315.0,74.0,0.0
-109.0,-316.0,71.0,0.0
-110.0,-323.0,69.0,0.0
-21018.0,47750.0,39377.0,0.0
-20872.0,46509.0,39203.0,0.0
0.0,0.0,0.0,0.0
-20462.0,43854.0,38617.0,0.0
0.0,0.0,0.0,0.0
-20051.0,41314.0,38008.0,0.0
0.0,0.0,0.0,0.0
0.0,0.0,0.0,0.0
-17325.0,33624.0,33036.0,0.0
-17035.0,32401.0,32542.0,0.0
-17095.0,31860.0,32713.0,0.0
-16756.0,30595.0,32117.0,0.0
-17137.0,30650.0,32897.0,0.0
-17047.0,29862.0,32772.0,0.0
-16580.0,28441.0,31919.0,0.0
-16565.0,27819.0,31930.0,0.0
0.0,0.0,0.0,0.0
0.0,0.0,0.0,0.0
-16030.0,25236.0,31008.0,0.0
-16036.0,24696.0,31051.0,0.0
-16051.0,24177.0,31111.0,0.0
-15986.0,23545.0,31014.0,0.0
-16083.0,23155.0,31225.0,0.0
-16075.0,22617.0,31234.0,0.0
-17921.0,24633.0,34845.0,0.0
-15597.0,20939.0,30347.0,0.0
-15571.0,20410.0,30312.0,0.0
-15529.0,19867.0,30247.0,0.0
-15666.0,19557.0,30527.0,0.0
-15479.0,18847.0,30177.0,0.0
-15633.0,18558.0,30487.0,0.0
-15867.0,18356.0,30954.0,0.0
-15816.0,17823.0,30859.0,0.0
-15768.0,17302.0,30772.0,0.0
-17220.0,18389.0,33611.0,0.0
0.0,0.0,0.0,0.0
0.0,0.0,0.0,0.0
0.0,0.0,0.0,0.0
0.0,0.0,0.0,0.0
0.0,0.0,0.0,0.0
0.0,0.0,0.0,0.0
0.0,0.0,0.0,0.0
0.0,0.0,0.0,0.0
0.0,0.0,0.0,0.0
0.0,0.0,0.0,0.0
0.0,0.0,0.0,0.0
0.0,0.0,0.0,0.0
-16413.0,11603.0,31950.0,0.0
0.0,0.0,0.0,0.0
-6912.0,4524.0,13440.0,0.0
-6944.0,4364.0,13495.0,0.0
-16324.0,9837.0,31699.0,0.0
-7366.0,4250.0,14294.0,0.0
-7465.0,4116.0,14475.0,0.0
-7462.0,3925.0,14458.0,0.0
-7443.0,3727.0,14409.0,0.0
-7439.0,3539.0,14388.0,0.0
-7412.0,3341.0,14322.0,0.0
-7406.0,3154.0,14295.0,0.0
-7391.0,2966.0,14253.0,0.0
-7371.0,2778.0,14199.0,0.0
-7352.0,2591.0,14147.0,0.0
-7355.0,2413.0,14136.0,0.0
-7335.0,2229.0,14081.0,0.0
-7327.0,2050.0,14048.0,0.0
-7318.0,1872.0,14013.0,0.0
-7308.0,1696.0,13974.0,0.0
-5191.0,1081.0,9911.0,0.0
-5498.0,1015.0,10485.0,0.0
-5651.0,910.0,10761.0,0.0
-5681.0,782.0,10802.0,0.0
-5671.0,648.0,10766.0,0.0
-5671.0,515.0,10749.0,0.0
-5665.0,383.0,10719.0,0.0
-5664.0,252.0,10700.0,0.0
-5659.0,121.0,10671.0,0.0
-5643.0,-8.0,10623.0,0.0
-5645.0,-137.0,10607.0,0.0
-5636.0,-266.0,10571.0,0.0
-5642.0,-394.0,10560.0,0.0
-5638.0,-522.0,10532.0,0.0
-5629.0,-650.0,10495.0,0.0
-5625.0,-777.0,10466.0,0.0
-5622.0,-903.0,10438.0,0.0
-5386.0,-986.0,9978.0,0.0
-5306.0,-1092.0,9809.0,0.0
-5281.0,-1205.0,9739.0,0.0
-5283.0,-1323.0,9720.0,0.0
-5322.0,-1452.0,9771.0,0.0
-5404.0,-1595.0,9897.0,0.0
-5585.0,-1773.0,10203.0,0.0
-5606.0,-1904.0,10216.0,0.0
-5607.0,-2029.0,10191.0,0.0
-5602.0,-2152.0,10156.0,0.0
-5607.0,-2279.0,10138.0,0.0
-5603.0,-2402.0,10103.0,0.0
-5597.0,-2523.0,10064.0,0.0
-5602.0,-2649.0,10044.0,0.0
-5606.0,-2775.0,10023.0,0.0
-5606.0,-2900.0,9994.0,0.0
-5605.0,-3022.0,9961.0,0.0
-5607.0,-3147.0,9934.0,0.0
-5615.0,-3276.0,9917.0,0.0
-5610.0,-3398.0,9876.0,0.0
-5611.0,-3522.0,9844.0,0.0
-5615.0,-3650.0,9820.0,0.0
-5615.0,-3774.0,9787.0,0.0
-5616.0,-3900.0,9756.0,0.0
-5627.0,-4032.0,9739.0,0.0
-5627.0,-4157.0,9705.0,0.0
-5632.0,-4287.0,9679.0,0.0
-5631.0,-4411.0,9641.0,0.0
-5643.0,-4546.0,9624.0,0.0
-5639.0,-4669.0,9579.0,0.0
-5646.0,-4801.0,9554.0,0.0
-5646.0,-4927.0,9515.0,0.0
-5650.0,-5059.0,9484.0,0.0
-5661.0,-5194.0,9460.0,0.0
-5660.0,-5322.0,9419.0,0.0
-5671.0,-5461.0,9397.0,0.0
-5686.0,-5604.0,9380.0,0.0
-5688.0,-5735.0,9340.0,0.0
-5696.0,-5872.0,9310.0,0.0
-5702.0,-6010.0,9277.0,0.0
-5709.0,-6148.0,9244.0,0.0
-5720.0,-6289.0,9214.0,0.0
-5731.0,-6434.0,9186.0,0.0
-5736.0,-6572.0,9147.0,0.0
-5749.0,-6720.0,9119.0,0.0
-5764.0,-6872.0,9095.0,0.0
-5766.0,-7009.0,9048.0,0.0
-5778.0,-7157.0,9015.0,0.0
-5788.0,-7308.0,8981.0,0.0
-5802.0,-7461.0,8949.0,0.0
-5809.0,-7609.0,8909.0,0.0
-5820.0,-7761.0,8870.0,0.0
-5834.0,-7921.0,8838.0,0.0
-5842.0,-8070.0,8794.0,0.0
-5860.0,-8238.0,8765.0,0.0
-5868.0,-8390.0,8717.0,0.0
-5895.0,-8574.0,8699.0,0.0
-5906.0,-8735.0,8656.0,0.0
-5928.0,-8913.0,8626.0,0.0
-5938.0,-9074.0,8577.0,0.0
-5955.0,-9249.0,8538.0,0.0
-5970.0,-9422.0,8495.0,0.0
-5992.0,-9608.0,8461.0,0.0
-6006.0,-9782.0,8413.0,0.0
-6021.0,-9962.0,8367.0,0.0
-6055.0,-10173.0,8343.0,0.0
-6067.0,-10348.0,8287.0,0.0
-6086.0,-10541.0,8241.0,0.0
-6116.0,-10752.0,8208.0,0.0
-6139.0,-10956.0,8163.0,0.0
-6156.0,-11151.0,8111.0,0.0
-6188.0,-11373.0,8072.0,0.0
-6213.0,-11588.0,8025.0,0.0
-53.0,-102.0,69.0,0.0
-5968.0,-11455.0,7550.0,0.0
-5893.0,-11475.0,7376.0,0.0
-5893.0,-11641.0,7294.0,0.0
-5902.0,-11824.0,7222.0,0.0
-5879.0,-11945.0,7111.0,0.0
-6254.0,-12886.0,7473.0,0.0
-6287.0,-13135.0,7420.0,0.0
-5035.0,-10666.0,5866.0,0.0
-4970.0,-10674.0,5714.0,0.0
-71.0,-156.0,81.0,0.0
-6036.0,-13323.0,6750.0,0.0
-78.0,-177.0,87.0,0.0
-77.0,-176.0,85.0,0.0
-84.0,-193.0,90.0,0.0
-83.0,-195.0,88.0,0.0
-87.0,-207.0,91.0,0.0
-89.0,-214.0,90.0,0.0
-92.0,-226.0,93.0,0.0
-95.0,-233.0,93.0,0.0
-99.0,-248.0,95.0,0.0
-115.0,-293.0,109.0,0.0
-125.0,-323.0,116.0,0.0
-123.0,-322.0,112.0,0.0
-124.0,-329.0,111.0,0.0
-119.0,-318.0,102.0,0.0
-115.0,-314.0,98.0,0.0
-115.0,-317.0,95.0,0.0
-115.0,-321.0,93.0,0.0
-112.0,-317.0,87.0,0.0
-109.0,-313.0,82.0,0.0
-111.0,-322.0,81.0,0.0
-110.0,-323.0,78.0,0.0
-107.0,-319.0,73.0,0.0
-106.0,-318.0,69.0,0.0
0.0,0.0,0.0,0.0
0.0,0.0,0.0,0.0
-19952.0,44685.0,38775.0,0.0
0.0,0.0,0.0,0.0
-19558.0,42111.0,38173.0,0.0
-19498.0,41155.0,38130.0,0.0
0.0,0.0,0.0,0.0
0.0,0.0,0.0,0.0
-19083.0,37923.0,37523.0,0.0
-16555.0,32239.0,32608.0,0.0
-16561.0,31596.0,32669.0,0.0
-16652.0,31121.0,32898.0,0.0
-16375.0,29975.0,32395.0,0.0
-16058.0,28786.0,31812.0,0.0
-16084.0,28230.0,31901.0,0.0
-16064.0,27602.0,31901.0,0.0
-16078.0,27040.0,31964.0,0.0
-15989.0,26313.0,31820.0,0.0
-16101.0,25925.0,32075.0,0.0
-15627.0,24611.0,31157.0,0.0
-15607.0,24038.0,31145.0,0.0
-15394.0,23180.0,30744.0,0.0
-15474.0,22773.0,30924.0,0.0
-15667.0,22533.0,31334.0,0.0
-15651.0,21989.0,31320.0,0.0
-15154.0,20793.0,30342.0,0.0
-15105.0,20233.0,30258.0,0.0
-15072.0,19703.0,30204.0,0.0
0.0,0.0,0.0,0.0
-15014.0,18675.0,30110.0,0.0
-15229.0,18466.0,30549.0,0.0
-15363.0,18152.0,30824.0,0.0
-15377.0,17696.0,30856.0,0.0
-16744.0,18760.0,33602.0,0.0
-16736.0,18248.0,33588.0,0.0
0.0,0.0,0.0,0.0
0.0,0.0,0.0,0.0
0.0,0.0,0.0,0.0
0.0,0.0,0.0,0.0
0.0,0.0,0.0,0.0
0.0,0.0,0.0,0.0
0.0,0.0,0.0,0.0
0.0,0.0,0.0,0.0
0.0,0.0,0.0,0.0
0.0,0.0,0.0,0.0
0.0,0.0,0.0,0.0
-16188.0,12106.0,32392.0,0.0
-16079.0,11587.0,32158.0,0.0
0.0,0.0,0.0,0.0
-6748.0,4501.0,13480.0,0.0
-6853.0,4389.0,13681.0,0.0
-6968.0,4278.0,13901.0,0.0
-7199.0,4230.0,14350.0,0.0
-7274.0,4085.0,14488.0,0.0
-7254.0,3885.0,14435.0,0.0
-7246.0,3694.0,14408.0,0.0
-7234.0,3502.0,14369.0,0.0
-7224.0,3314.0,14337.0,0.0
-7204.0,3121.0,14281.0,0.0
-7192.0,2935.0,14242.0,0.0
-7186.0,2752.0,14215.0,0.0
-7164.0,2565.0,14156.0,0.0
-7156.0,2384.0,14122.0,0.0
-7147.0,2205.0,14087.0,0.0
-3283.0,932.0,6463.0,0.0
-7116.0,1846.0,13992.0,0.0
-4972.0,1169.0,9763.0,0.0
-5107.0,1076.0,10013.0,0.0
-5375.0,1003.0,10524.0,0.0
-5536.0,899.0,10822.0,0.0
-5524.0,765.0,10782.0,0.0
-5530.0,634.0,10778.0,0.0
-5529.0,502.0,10758.0,0.0
-5526.0,371.0,10735.0,0.0
-5514.0,239.0,10692.0,0.0
-5504.0,109.0,10655.0,0.0
-5505.0,-19.0,10638.0,0.0
-5502.0,-148.0,10613.0,0.0
-5494.0,-276.0,10576.0,0.0
-5489.0,-404.0,10548.0,0.0
-5484.0,-531.0,10515.0,0.0
-5480.0,-657.0,10487.0,0.0
-5479.0,-784.0,10463.0,0.0
-5475.0,-910.0,10436.0,0.0
-5482.0,-1037.0,10425.0,0.0
-5327.0,-1130.0,10109.0,0.0
-5269.0,-1238.0,9976.0,0.0
-5275.0,-1361.0,9965.0,0.0
-5325.0,-1495.0,10035.0,0.0
-5453.0,-1655.0,10252.0,0.0
-5467.0,-1785.0,10254.0,0.0
-5455.0,-1904.0,10204.0,0.0
-5454.0,-2028.0,10178.0,0.0
-5457.0,-2153.0,10157.0,0.0
-5456.0,-2277.0,10127.0,0.0
-5459.0,-2402.0,10105.0,0.0
-5452.0,-2522.0,10064.0,0.0
-5455.0,-2646.0,10043.0,0.0
-5459.0,-2772.0,10020.0,0.0
-5458.0,-2895.0,9989.0,0.0
-5451.0,-3014.0,9947.0,0.0
-5461.0,-3144.0,9933.0,0.0
-5457.0,-3264.0,9896.0,0.0
-5454.0,-3386.0,9859.0,0.0
-5460.0,-3514.0,9839.0,0.0
-5465.0,-3641.0,9814.0,0.0
-5464.0,-3764.0,9781.0,0.0
-5462.0,-3886.0,9743.0,0.0
-5468.0,-4015.0,9719.0,0.0
-5474.0,-4143.0,9697.0,0.0
-5477.0,-4270.0,9665.0,0.0
-5474.0,-4394.0,9626.0,0.0
-5482.0,-4524.0,9604.0,0.0
-5490.0,-4656.0,9579.0,0.0
-5482.0,-4776.0,9529.0,0.0
-5489.0,-4906.0,9502.0,0.0
-5502.0,-5045.0,9487.0,0.0
-5504.0,-5174.0,9453.0,0.0
-5513.0,-5309.0,9427.0,0.0
-5518.0,-5442.0,9396.0,0.0
-5523.0,-5575.0,9364.0,0.0
-5536.0,-5716.0,9342.0,0.0
-5538.0,-5847.0,9303.0,0.0
-5543.0,-5982.0,9269.0,0.0
-5547.0,-6116.0,9232.0,0.0
-5564.0,-6265.0,9213.0,0.0
-5567.0,-6400.0,9174.0,0.0
-5585.0,-6554.0,9157.0,0.0
-5589.0,-6690.0,9117.0,0.0
-5599.0,-6835.0,9083.0,0.0
-5605.0,-6976.0,9045.0,0.0
-5615.0,-7124.0,9012.0,0.0
-5626.0,-7273.0,8979.0,0.0
-5634.0,-7420.0,8940.0,0.0
-5647.0,-7574.0,8908.0,0.0
-5651.0,-7719.0,8862.0,0.0
-5664.0,-7874.0,8828.0,0.0
-5684.0,-8044.0,8805.0,0.0
-5694.0,-8197.0,8763.0,0.0
-5703.0,-8351.0,8719.0,0.0
-5720.0,-8521.0,8689.0,0.0
-5733.0,-8683.0,8648.0,0.0
-5753.0,-8860.0,8619.0,0.0
-5763.0,-9021.0,8572.0,0.0
-5787.0,-9208.0,8545.0,0.0
-5796.0,-9371.0,8495.0,0.0
-5820.0,-9560.0,8465.0,0.0
-5837.0,-9741.0,8424.0,0.0
-5853.0,-9921.0,8380.0,0.0
-5870.0,-10106.0,8336.0,0.0
-5890.0,-10295.0,8294.0,0.0
-5917.0,-10500.0,8259.0,0.0
-5931.0,-10685.0,8206.0,0.0
-5951.0,-10883.0,8160.0,0.0
-5969.0,-11080.0,8109.0,0.0
-5999.0,-11300.0,8072.0,0.0
-6016.0,-11498.0,8015.0,0.0
-6025.0,-11686.0,7948.0,0.0
-5808.0,-11429.0,7583.0,0.0
-5726.0,-11431.0,7397.0,0.0
-5720.0,-11582.0,7309.0,0.0
-5692.0,-11691.0,7193.0,0.0
-5764.0,-12006.0,7199.0,0.0
-66.0,-140.0,82.0,0.0
-5005.0,-10723.0,6104.0,0.0
-5119.0,-11118.0,6163.0,0.0
-4741.0,-10443.0,5635.0,0.0
-5985.0,-13366.0,7019.0,0.0
-73.0,-167.0,85.0,0.0
-74.0,-171.0,85.0,0.0
-4745.0,-11043.0,5332.0,0.0
-84.0,-199.0,93.0,0.0
-78.0,-187.0,85.0,0.0
-84.0,-206.0,90.0,0.0
-84.0,-208.0,89.0,0.0
-87.0,-220.0,91.0,0.0
-90.0,-231.0,92.0,0.0
-101.0,-259.0,100.0,0.0
-104.0,-270.0,101.0,0.0
-120.0,-316.0,115.0,0.0
-119.0,-321.0,113.0,0.0
-117.0,-318.0,108.0,0.0
-115.0,-315.0,103.0,0.0
-111.0,-310.0,98.0,0.0
-112.0,-316.0,96.0,0.0
-108.0,-310.0,90.0,0.0
-108.0,-314.0,88.0,0.0
-108.0,-318.0,85.0,0.0
-105.0,-314.0,80.0,0.0
-107.0,-324.0,79.0,0.0
-104.0,-318.0,74.0,0.0
-102.0,-317.0,71.0,0.0
0.0,0.0,0.0,0.0
-19550.0,45801.0,39159.0,0.0
0.0,0.0,0.0,0.0
0.0,0.0,0.0,0.0
-18953.0,41839.0,38191.0,0.0
0.0,0.0,0.0,0.0
0.0,0.0,0.0,0.0
0.0,0.0,0.0,0.0
-15989.0,32561.0,32439.0,0.0
-16059.0,32041.0,32629.0,0.0
-16035.0,31341.0,32627.0,0.0
-15973.0,30578.0,32544.0,0.0
-15936.0,29878.0,32510.0,0.0
-15533.0,28514.0,31725.0,0.0
-15611.0,28057.0,31920.0,0.0
-15525.0,27311.0,31777.0,0.0
-15528.0,26735.0,31817.0,0.0
-15559.0,26210.0,31909.0,0.0
-15110.0,24900.0,31014.0,0.0
-15171.0,24450.0,31163.0,0.0
-15143.0,23866.0,31131.0,0.0
-15264.0,23516.0,31398.0,0.0
-15197.0,22882.0,31281.0,0.0
-16906.0,24869.0,34816.0,0.0
-14657.0,21060.0,30200.0,0.0
-14714.0,20646.0,30330.0,0.0
-14642.0,20055.0,30194.0,0.0
-14628.0,19551.0,30175.0,0.0
-14675.0,19135.0,30282.0,0.0
-14669.0,18651.0,30276.0,0.0
-14638.0,18142.0,30218.0,0.0
-14932.0,18030.0,30826.0,0.0
-14939.0,17569.0,30844.0,0.0
-16248.0,18600.0,33547.0,0.0
-16216.0,18063.0,33481.0,0.0
0.0,0.0,0.0,0.0
0.0,0.0,0.0,0.0
0.0,0.0,0.0,0.0
0.0,0.0,0.0,0.0
0.0,0.0,0.0,0.0
0.0,0.0,0.0,0.0
0.0,0.0,0.0,0.0
0.0,0.0,0.0,0.0
0.0,0.0,0.0,0.0
0.0,0.0,0.0,0.0
-15620.0,12354.0,32148.0,0.0
-15654.0,11941.0,32197.0,0.0
-15654.0,11507.0,32180.0,0.0
0.0,0.0,0.0,0.0
-6586.0,4479.0,13523.0,0.0
-6764.0,4416.0,13877.0,0.0
-6773.0,4238.0,13884.0,0.0
-7038.0,4215.0,14417.0,0.0
-7077.0,4050.0,14484.0,0.0
-7062.0,3853.0,14439.0,0.0
-7041.0,3656.0,14385.0,0.0
-7030.0,3466.0,14350.0,0.0
-7011.0,3274.0,14295.0,0.0
-6998.0,3086.0,14252.0,0.0
-6989.0,2902.0,14219.0,0.0
-6971.0,2715.0,14166.0,0.0
-6954.0,2531.0,14116.0,0.0
-6957.0,2355.0,14104.0,0.0
-6933.0,2172.0,14037.0,0.0
-6927.0,1996.0,14008.0,0.0
-6907.0,1817.0,13947.0,0.0
-4841.0,1153.0,9763.0,0.0
-5029.0,1073.0,10127.0,0.0
-5188.0,979.0,10431.0,0.0
-5382.0,883.0,10806.0,0.0
-5371.0,749.0,10768.0,0.0
-5377.0,619.0,10763.0,0.0
-5377.0,488.0,10746.0,0.0
-5366.0,357.0,10706.0,0.0
-5369.0,227.0,10693.0,0.0
-5363.0,98.0,10661.0,0.0
-5355.0,-30.0,10629.0,0.0
-5345.0,-158.0,10587.0,0.0
-5340.0,-285.0,10558.0,0.0
-5348.0,-413.0,10553.0,0.0
-5340.0,-539.0,10518.0,0.0
-5337.0,-665.0,10490.0,0.0
-5333.0,-791.0,10460.0,0.0
-5336.0,-917.0,10444.0,0.0
-5324.0,-1040.0,10397.0,0.0
-5324.0,-1165.0,10376.0,0.0
-5319.0,-1289.0,10342.0,0.0
-5321.0,-1413.0,10321.0,0.0
-5320.0,-1537.0,10296.0,0.0
-5319.0,-1662.0,10271.0,0.0
-5315.0,-1784.0,10237.0,0.0
-5309.0,-1905.0,10199.0,0.0
-5322.0,-2033.0,10199.0,0.0
-5306.0,-2151.0,10141.0,0.0
-5312.0,-2276.0,10128.0,0.0
-5305.0,-2397.0,10087.0,0.0
-5302.0,-2518.0,10052.0,0.0
-5301.0,-2640.0,10023.0,0.0
-5315.0,-2769.0,10021.0,0.0
-5307.0,-2888.0,9978.0,0.0
-5311.0,-3013.0,9953.0,0.0
-5315.0,-3139.0,9932.0,0.0
-5313.0,-3260.0,9897.0,0.0
-5309.0,-3380.0,9859.0,0.0
-5318.0,-3509.0,9843.0,0.0
-5312.0,-3629.0,9802.0,0.0
-5323.0,-3760.0,9789.0,0.0
-5325.0,-3884.0,9759.0,0.0
-5324.0,-4007.0,9724.0,0.0
-5326.0,-4133.0,9694.0,0.0
-5332.0,-4262.0,9671.0,0.0
-5328.0,-4382.0,9626.0,0.0
-5338.0,-4515.0,9610.0,0.0
-5328.0,-4631.0,9555.0,0.0
-5331.0,-4758.0,9523.0,0.0
-5347.0,-4898.0,9513.0,0.0
-5347.0,-5023.0,9475.0,0.0
-5355.0,-5157.0,9451.0,0.0
-5359.0,-5288.0,9419.0,0.0
-5374.0,-5430.0,9405.0,0.0
-5375.0,-5559.0,9368.0,0.0
-5377.0,-5688.0,9329.0,0.0
-5389.0,-5829.0,9308.0,0.0
-5396.0,-5966.0,9275.0,0.0
-5397.0,-6097.0,9236.0,0.0
-5410.0,-6242.0,9214.0,0.0
-5419.0,-6383.0,9184.0,0.0
-5417.0,-6512.0,9134.0,0.0
-5439.0,-6671.0,9126.0,0.0
-5445.0,-6810.0,9086.0,0.0
-5451.0,-6952.0,9049.0,0.0
-5460.0,-7097.0,9016.0,0.0
-5478.0,-7256.0,8995.0,0.0
-5484.0,-7401.0,8954.0,0.0
-5484.0,-7538.0,8904.0,0.0
-5497.0,-7693.0,8872.0,0.0
-5512.0,-7853.0,8844.0,0.0
-5521.0,-8004.0,8803.0,0.0
-5536.0,-8168.0,8773.0,0.0
-5541.0,-8317.0,8724.0,0.0
-5557.0,-8483.0,8692.0,0.0
-5571.0,-8647.0,8655.0,0.0
-5586.0,-8816.0,8619.0,0.0
-5605.0,-8993.0,8588.0,0.0
-5621.0,-9166.0,8551.0,0.0
-5633.0,-9333.0,8506.0,0.0
-5650.0,-9513.0,8468.0,0.0
-5669.0,-9695.0,8431.0,0.0
-5678.0,-9866.0,8379.0,0.0
-5704.0,-10065.0,8350.0,0.0
-5713.0,-10237.0,8293.0,0.0
-5739.0,-10442.0,8261.0,0.0
-5754.0,-10630.0,8212.0,0.0
-5774.0,-10826.0,8166.0,0.0
-5794.0,-11027.0,8120.0,0.0
-5827.0,-11256.0,8091.0,0.0
-47.0,-94.0,66.0,0.0
-47.0,-96.0,66.0,0.0
-5676.0,-11455.0,7651.0,0.0
-5610.0,-11487.0,7484.0,0.0
-5562.0,-11552.0,7341.0,0.0
-5573.0,-11744.0,7276.0,0.0
-5255.0,-11230.0,6782.0,0.0
-5013.0,-10865.0,6394.0,0.0
-5015.0,-11025.0,6321.0,0.0
-5173.0,-11532.0,6440.0,0.0
-5137.0,-11614.0,6316.0,0.0
-68.0,-157.0,83.0,0.0
-71.0,-167.0,86.0,0.0
-4668.0,-11000.0,5510.0,0.0
-4613.0,-11021.0,5367.0,0.0
-75.0,-185.0,87.0,0.0
-73.0,-180.0,82.0,0.0
-80.0,-201.0,90.0,0.0
-76.0,-194.0,84.0,0.0
-81.0,-209.0,87.0,0.0
-87.0,-228.0,93.0,0.0
-91.0,-241.0,95.0,0.0
-95.0,-256.0,97.0,0.0
-116.0,-315.0,116.0,0.0
-113.0,-310.0,110.0,0.0
-114.0,-318.0,109.0,0.0
-114.0,-321.0,106.0,0.0
-108.0,-311.0,99.0,0.0
-108.0,-314.0,96.0,0.0
-105.0,-310.0,91.0,0.0
-105.0,-312.0,88.0,0.0
-101.0,-308.0,84.0,0.0
-101.0,-311.0,81.0,0.0
-100.0,-313.0,77.0,0.0
-100.0,-316.0,75.0,0.0
-99.0,-317.0,71.0,0.0
0.0,0.0,0.0,0.0
0.0,0.0,0.0,0.0
0.0,0.0,0.0,0.0
-18418.0,42566.0,38275.0,0.0
-18331.0,41522.0,38160.0,0.0
0.0,0.0,0.0,0.0
0.0,0.0,0.0,0.0
0.0,0.0,0.0,0.0
-15534.0,32441.0,32536.0,0.0
-15571.0,31856.0,32658.0,0.0
-15345.0,30749.0,32225.0,0.0
0.0,0.0,0.0,0.0
-15434.0,29657.0,32484.0,0.0
-15128.0,28461.0,31874.0,0.0
-15137.0,27877.0,31925.0,0.0
-15181.0,27362.0,32047.0,0.0
-15243.0,26884.0,32205.0,0.0
-16858.0,29089.0,35647.0,0.0
-14666.0,24752.0,31034.0,0.0
-14735.0,24320.0,31201.0,0.0
-14649.0,23639.0,31038.0,0.0
-14526.0,22911.0,30793.0,0.0
-14669.0,22610.0,31113.0,0.0
-14561.0,21926.0,30897.0,0.0
-14237.0,20938.0,30222.0,0.0
-14291.0,20520.0,30346.0,0.0
-14240.0,19958.0,30246.0,0.0
-14226.0,19455.0,30225.0,0.0
0.0,0.0,0.0,0.0
-14330.0,18636.0,30455.0,0.0
-14528.0,18415.0,30878.0,0.0
-6011.0,7423.0,12777.0,0.0
-6013.0,7231.0,12780.0,0.0
-6044.0,7075.0,12846.0,0.0
-6056.0,6896.0,12870.0,0.0
-15737.0,17427.0,33439.0,0.0
0.0,0.0,0.0,0.0
0.0,0.0,0.0,0.0
0.0,0.0,0.0,0.0
0.0,0.0,0.0,0.0
0.0,0.0,0.0,0.0
0.0,0.0,0.0,0.0
0.0,0.0,0.0,0.0
0.0,0.0,0.0,0.0
0.0,0.0,0.0,0.0
-15264.0,12326.0,32310.0,0.0
-6404.0,4987.0,13547.0,0.0
-6422.0,4818.0,13577.0,0.0
-6417.0,4632.0,13555.0,0.0
-6407.0,4446.0,13526.0,0.0
-6592.0,4390.0,13905.0,0.0
-6763.0,4316.0,14254.0,0.0
-6854.0,4186.0,14434.0,0.0
-6873.0,4009.0,14461.0,0.0
-6852.0,3811.0,14402.0,0.0
-6848.0,3623.0,14381.0,0.0
-6834.0,3433.0,14338.0,0.0
-6815.0,3241.0,14283.0,0.0
-6801.0,3054.0,14238.0,0.0
-6781.0,2866.0,14180.0,0.0
-6767.0,2683.0,14134.0,0.0
-6758.0,2502.0,14099.0,0.0
-6762.0,2328.0,14088.0,0.0
-6737.0,2145.0,14020.0,0.0
-6735.0,1971.0,13995.0,0.0
-3242.0,866.0,6729.0,0.0
-4732.0,1143.0,9807.0,0.0
-4918.0,1063.0,10177.0,0.0
-5120.0,978.0,10579.0,0.0
-5121.0,848.0,10565.0,0.0
-5230.0,735.0,10774.0,0.0
-5234.0,605.0,10763.0,0.0
-5232.0,474.0,10744.0,0.0
-5224.0,344.0,10708.0,0.0
-5225.0,215.0,10691.0,0.0
-5221.0,86.0,10665.0,0.0
-5214.0,-40.0,10630.0,0.0
-5212.0,-169.0,10608.0,0.0
-5203.0,-295.0,10569.0,0.0
-5199.0,-422.0,10540.0,0.0
-5199.0,-548.0,10521.0,0.0
-5199.0,-674.0,10498.0,0.0
-5191.0,-798.0,10462.0,0.0
-5187.0,-922.0,10432.0,0.0
-5193.0,-1048.0,10421.0,0.0
-5194.0,-1173.0,10399.0,0.0
-5187.0,-1295.0,10362.0,0.0
-5188.0,-1420.0,10342.0,0.0
-5178.0,-1541.0,10298.0,0.0
-5183.0,-1666.0,10281.0,0.0
-5178.0,-1788.0,10246.0,0.0
-5183.0,-1913.0,10232.0,0.0
-5164.0,-2029.0,10167.0,0.0
-5166.0,-2153.0,10147.0,0.0
-5157.0,-2271.0,10102.0,0.0
-5167.0,-2397.0,10094.0,0.0
-5166.0,-2520.0,10065.0,0.0
-5170.0,-2643.0,10045.0,0.0
-5165.0,-2763.0,10006.0,0.0
-5167.0,-2887.0,9983.0,0.0
-5173.0,-3012.0,9965.0,0.0
-5168.0,-3131.0,9924.0,0.0
-5166.0,-3253.0,9891.0,0.0
-5170.0,-3378.0,9868.0,0.0
-5165.0,-3497.0,9828.0,0.0
-5172.0,-3624.0,9808.0,0.0
-5171.0,-3746.0,9774.0,0.0
-5177.0,-3872.0,9752.0,0.0
-5179.0,-3997.0,9723.0,0.0
-5179.0,-4121.0,9688.0,0.0
-5177.0,-4243.0,9652.0,0.0
-5187.0,-4374.0,9635.0,0.0
-5188.0,-4500.0,9601.0,0.0
-5189.0,-4624.0,9567.0,0.0
-5192.0,-4752.0,9536.0,0.0
-5204.0,-4888.0,9522.0,0.0
-5202.0,-5011.0,9481.0,0.0
-5208.0,-5142.0,9453.0,0.0
-5213.0,-5273.0,9423.0,0.0
-5212.0,-5399.0,9382.0,0.0
-5229.0,-5543.0,9371.0,0.0
-5230.0,-5671.0,9332.0,0.0
-5237.0,-5808.0,9305.0,0.0
-5238.0,-5937.0,9263.0,0.0
-5246.0,-6075.0,9235.0,0.0
-5258.0,-6218.0,9212.0,0.0
-5260.0,-6352.0,9172.0,0.0
-5270.0,-6494.0,9143.0,0.0
-5279.0,-6638.0,9114.0,0.0
-5287.0,-6779.0,9081.0,0.0
-5298.0,-6927.0,9053.0,0.0
-5308.0,-7075.0,9022.0,0.0
-5308.0,-7207.0,8972.0,0.0
-5328.0,-7371.0,8956.0,0.0
-5325.0,-7503.0,8901.0,0.0
-5340.0,-7662.0,8874.0,0.0
-5349.0,-7812.0,8837.0,0.0
-5357.0,-7963.0,8797.0,0.0
-5373.0,-8127.0,8768.0,0.0
-5383.0,-8284.0,8729.0,0.0
-5395.0,-8445.0,8693.0,0.0
-5413.0,-8615.0,8664.0,0.0
-5421.0,-8773.0,8619.0,0.0
-5435.0,-8942.0,8582.0,0.0
-5459.0,-9128.0,8559.0,0.0
-5473.0,-9301.0,8519.0,0.0
-5483.0,-9467.0,8471.0,0.0
-5503.0,-9653.0,8438.0,0.0
-5517.0,-9832.0,8396.0,0.0
-5531.0,-10012.0,8351.0,0.0
-5550.0,-10202.0,8311.0,0.0
-5556.0,-10371.0,8252.0,0.0
-5587.0,-10587.0,8226.0,0.0
-5598.0,-10770.0,8172.0,0.0
-5623.0,-10980.0,8134.0,0.0
-5641.0,-11182.0,8087.0,0.0
-5667.0,-11400.0,8046.0,0.0
-49.0,-101.0,70.0,0.0
-5602.0,-11604.0,7800.0,0.0
-5509.0,-11578.0,7592.0,0.0
-5455.0,-11632.0,7440.0,0.0
-5419.0,-11722.0,7312.0,0.0
-4901.0,-10752.0,6539.0,0.0
-4964.0,-11046.0,6547.0,0.0
-4865.0,-10981.0,6342.0,0.0
-5009.0,-11468.0,6451.0,0.0
-69.0,-162.0,88.0,0.0
-4737.0,-11152.0,5948.0,0.0
-69.0,-165.0,85.0,0.0
-4564.0,-11050.0,5579.0,0.0
-4494.0,-11031.0,5416.0,0.0
-4455.0,-11087.0,5292.0,0.0
-77.0,-196.0,91.0,0.0
-80.0,-207.0,93.0,0.0
-81.0,-211.0,92.0,0.0
-83.0,-219.0,93.0,0.0
-87.0,-232.0,95.0,0.0
-89.0,-241.0,96.0,0.0
-95.0,-263.0,101.0,0.0
-104.0,-292.0,108.0,0.0
-114.0,-323.0,116.0,0.0
-112.0,-320.0,112.0,0.0
-109.0,-319.0,106.0,0.0
-106.0,-314.0,101.0,0.0
-107.0,-319.0,99.0,0.0
-103.0,-314.0,93.0,0.0
-103.0,-317.0,90.0,0.0
-100.0,-313.0,86.0,0.0
-100.0,-316.0,84.0,0.0
-99.0,-319.0,80.0,0.0
-96.0,-312.0,75.0,0.0
-98.0,-323.0,74.0,0.0
0.0,0.0,0.0,0.0
0.0,0.0,0.0,0.0
0.0,0.0,0.0,0.0
0.0,0.0,0.0,0.0
0.0,0.0,0.0,0.0
0.0,0.0,0.0,0.0
0.0,0.0,0.0,0.0
-17316.0,37888.0,37420.0,0.0
-15083.0,32328.0,32634.0,0.0
-15066.0,31628.0,32636.0,0.0
-15129.0,31103.0,32807.0,0.0
-15063.0,30327.0,32701.0,0.0
-14680.0,28935.0,31899.0,0.0
-14669.0,28303.0,31903.0,0.0
-14656.0,27676.0,31901.0,0.0
0.0,0.0,0.0,0.0
-14653.0,26495.0,31943.0,0.0
-14688.0,25979.0,32040.0,0.0
-14252.0,24654.0,31109.0,0.0
-14243.0,24091.0,31105.0,0.0
-14112.0,23334.0,30834.0,0.0
-14496.0,23425.0,31686.0,0.0
-14294.0,22570.0,31257.0,0.0
-13834.0,21337.0,30261.0,0.0
-13844.0,20851.0,30291.0,0.0
-13821.0,20323.0,30248.0,0.0
-13807.0,19815.0,30224.0,0.0
-13902.0,19463.0,30433.0,0.0
-5871.0,8017.0,12854.0,0.0
-5877.0,7824.0,12869.0,0.0
-5862.0,7605.0,12835.0,0.0
-5842.0,7384.0,12793.0,0.0
-5827.0,7170.0,12756.0,0.0
-5891.0,7056.0,12897.0,0.0
-6002.0,6992.0,13134.0,0.0
-6018.0,6817.0,13168.0,0.0
-15189.0,16719.0,33225.0,0.0
-15202.0,16252.0,33242.0,0.0
0.0,0.0,0.0,0.0
0.0,0.0,0.0,0.0
0.0,0.0,0.0,0.0
0.0,0.0,0.0,0.0
0.0,0.0,0.0,0.0
-6274.0,5550.0,13683.0,0.0
-6292.0,5378.0,13715.0,0.0
-6276.0,5176.0,13668.0,0.0
-14739.0,11724.0,32082.0,0.0
0.0,0.0,0.0,0.0
-6405.0,4722.0,13921.0,0.0
-6422.0,4549.0,13948.0,0.0
-14614.0,9934.0,31710.0,0.0
-6579.0,4286.0,14265.0,0.0
-6673.0,4159.0,14455.0,0.0
-6656.0,3962.0,14404.0,0.0
-6647.0,3771.0,14371.0,0.0
-6642.0,3585.0,14346.0,0.0
-6624.0,3393.0,14292.0,0.0
-6617.0,3207.0,14260.0,0.0
-6599.0,3020.0,14207.0,0.0
-6593.0,2839.0,14177.0,0.0
-6578.0,2655.0,14126.0,0.0
-6566.0,2475.0,14084.0,0.0
-6557.0,2297.0,14049.0,0.0
-6541.0,2118.0,13995.0,0.0
-6548.0,1948.0,13989.0,0.0
-6523.0,1769.0,13916.0,0.0
-4587.0,1124.0,9774.0,0.0
-4790.0,1050.0,10192.0,0.0
-5022.0,971.0,10668.0,0.0
-5090.0,852.0,10797.0,0.0
-5080.0,720.0,10756.0,0.0
-5082.0,590.0,10745.0,0.0
-5089.0,462.0,10739.0,0.0
-5076.0,332.0,10695.0,0.0
-5080.0,203.0,10685.0,0.0
-5067.0,75.0,10640.0,0.0
-5066.0,-51.0,10616.0,0.0
-5063.0,-178.0,10593.0,0.0
-5064.0,-305.0,10572.0,0.0
-5052.0,-429.0,10528.0,0.0
-5057.0,-556.0,10517.0,0.0
-5052.0,-679.0,10485.0,0.0
-5044.0,-803.0,10449.0,0.0
-5044.0,-928.0,10424.0,0.0
-5035.0,-1050.0,10384.0,0.0
-5047.0,-1177.0,10387.0,0.0
-5042.0,-1300.0,10352.0,0.0
-5026.0,-1419.0,10297.0,0.0
-5028.0,-1541.0,10276.0,0.0
-5032.0,-1665.0,10260.0,0.0
-5031.0,-1788.0,10233.0,0.0
-5033.0,-1911.0,10211.0,0.0
-5031.0,-2033.0,10183.0,0.0
-5031.0,-2155.0,10156.0,0.0
-5030.0,-2277.0,10129.0,0.0
-5022.0,-2395.0,10086.0,0.0
-5025.0,-2518.0,10063.0,0.0
-5025.0,-2639.0,10037.0,0.0
-5025.0,-2761.0,10009.0,0.0
-5032.0,-2886.0,9992.0,0.0
-5028.0,-3006.0,9957.0,0.0
-5027.0,-3128.0,9926.0,0.0
-5031.0,-3252.0,9904.0,0.0
-5039.0,-3379.0,9887.0,0.0
-5028.0,-3494.0,9835.0,0.0
-5033.0,-3619.0,9814.0,0.0
-5036.0,-3744.0,9788.0,0.0
-5040.0,-3869.0,9763.0,0.0
-5033.0,-3986.0,9717.0,0.0
-5038.0,-4113.0,9693.0,0.0
-5036.0,-4234.0,9655.0,0.0
-5045.0,-4365.0,9638.0,0.0
-5047.0,-4490.0,9606.0,0.0
-5057.0,-4623.0,9590.0,0.0
-5060.0,-4751.0,9561.0,0.0
-5058.0,-4873.0,9520.0,0.0
-5059.0,-4999.0,9484.0,0.0
-5059.0,-5124.0,9447.0,0.0
-5072.0,-5264.0,9433.0,0.0
-5080.0,-5396.0,9406.0,0.0
-5074.0,-5517.0,9358.0,0.0
-5098.0,-5671.0,9363.0,0.0
-5097.0,-5797.0,9320.0,0.0
-5102.0,-5931.0,9286.0,0.0
-5107.0,-6065.0,9253.0,0.0
-5115.0,-6205.0,9224.0,0.0
-5127.0,-6350.0,9202.0,0.0
-5132.0,-6486.0,9166.0,0.0
-5141.0,-6630.0,9139.0,0.0
-5145.0,-6766.0,9098.0,0.0
-5151.0,-6908.0,9063.0,0.0
-5154.0,-7045.0,9020.0,0.0
-5164.0,-7193.0,8989.0,0.0
-5169.0,-7335.0,8949.0,0.0
-5182.0,-7489.0,8922.0,0.0
-5184.0,-7629.0,8875.0,0.0
-5205.0,-7797.0,8858.0,0.0
-5206.0,-7937.0,8807.0,0.0
-5220.0,-8100.0,8778.0,0.0
-5232.0,-8260.0,8744.0,0.0
-5241.0,-8416.0,8704.0,0.0
-5252.0,-8576.0,8666.0,0.0
-5265.0,-8743.0,8630.0,0.0
-5289.0,-8928.0,8611.0,0.0
-5299.0,-9092.0,8567.0,0.0
-5313.0,-9266.0,8529.0,0.0
-5324.0,-9433.0,8484.0,0.0
-5340.0,-9613.0,8447.0,0.0
-5360.0,-9804.0,8415.0,0.0
-5369.0,-9974.0,8363.0,0.0
-5386.0,-10161.0,8323.0,0.0
-5405.0,-10355.0,8284.0,0.0
-5416.0,-10536.0,8233.0,0.0
-5437.0,-10740.0,8195.0,0.0
-5454.0,-10934.0,8147.0,0.0
-5475.0,-11143.0,8106.0,0.0
-5493.0,-11344.0,8056.0,0.0
-5518.0,-11566.0,8016.0,0.0
-49.0,-107.0,72.0,0.0
-5451.0,-11765.0,7765.0,0.0
-5392.0,-11809.0,7603.0,0.0
-60.0,-136.0,86.0,0.0
-4765.0,-10740.0,6575.0,0.0
-4817.0,-11012.0,6572.0,0.0
-4573.0,-10603.0,6167.0,0.0
-63.0,-150.0,84.0,0.0
-4753.0,-11341.0,6259.0,0.0
-4377.0,-10589.0,5690.0,0.0
-4495.0,-11031.0,5769.0,0.0
-4476.0,-11137.0,5667.0,0.0
-4428.0,-11173.0,5530.0,0.0
-68.0,-176.0,85.0,0.0
-69.0,-180.0,84.0,0.0
-71.0,-189.0,85.0,0.0
-76.0,-204.0,90.0,0.0
-81.0,-219.0,93.0,0.0
-81.0,-224.0,92.0,0.0
-85.0,-238.0,95.0,0.0
-86.0,-244.0,94.0,0.0
-97.0,-277.0,104.0,0.0
-110.0,-319.0,116.0,0.0
-108.0,-319.0,112.0,0.0
-109.0,-327.0,111.0,0.0
-106.0,-322.0,105.0,0.0
-102.0,-316.0,99.0,0.0
-100.0,-313.0,94.0,0.0
-100.0,-318.0,92.0,0.0
-100.0,-322.0,90.0,0.0
-100.0,-323.0,87.0,0.0
-96.0,-319.0,81.0,0.0
-96.0,-321.0,79.0,0.0
-95.0,-322.0,75.0,0.0
0.0,0.0,0.0,0.0
-17443.0,44323.0,38666.0,0.0
0.0,0.0,0.0,0.0
-17232.0,42049.0,38311.0,0.0
0.0,0.0,0.0,0.0
0.0,0.0,0.0,0.0
0.0,0.0,0.0,0.0
0.0,0.0,0.0,0.0
-14605.0,32156.0,32668.0,0.0
-14541.0,31352.0,32557.0,0.0
-14403.0,30407.0,32278.0,0.0
-14460.0,29889.0,32434.0,0.0
-14132.0,28596.0,31725.0,0.0
-14193.0,28108.0,31884.0,0.0
-14140.0,27404.0,31785.0,0.0
0.0,0.0,0.0,0.0
-14066.0,26096.0,31661.0,0.0
0.0,0.0,0.0,0.0
-13809.0,24501.0,31110.0,0.0
-13802.0,23942.0,31107.0,0.0
-13702.0,23235.0,30895.0,0.0
-13779.0,22832.0,31078.0,0.0
-13850.0,22420.0,31245.0,0.0
-13411.0,21204.0,30261.0,0.0
-13439.0,20747.0,30329.0,0.0
-5750.0,8665.0,12978.0,0.0
-5761.0,8473.0,13005.0,0.0
-5746.0,8244.0,12973.0,0.0
-5714.0,7995.0,12900.0,0.0
-5693.0,7764.0,12851.0,0.0
-5671.0,7536.0,12799.0,0.0
-5655.0,7319.0,12761.0,0.0
-5648.0,7117.0,12743.0,0.0
-5741.0,7040.0,12951.0,0.0
-14833.0,17691.0,33449.0,0.0
-5977.0,6929.0,13472.0,0.0
-6006.0,6768.0,13537.0,0.0
-6128.0,6704.0,13805.0,0.0
0.0,0.0,0.0,0.0
0.0,0.0,0.0,0.0
-6148.0,6136.0,13831.0,0.0
-6158.0,5952.0,13843.0,0.0
-6149.0,5752.0,13817.0,0.0
-6156.0,5567.0,13824.0,0.0
-6253.0,5463.0,14031.0,0.0
-6283.0,5298.0,14088.0,0.0
-6256.0,5088.0,14020.0,0.0
0.0,0.0,0.0,0.0
-6352.0,4785.0,14211.0,0.0
-6388.0,4624.0,14279.0,0.0
-6457.0,4483.0,14420.0,0.0
-6444.0,4288.0,14379.0,0.0
-6485.0,4128.0,14457.0,0.0
-6462.0,3927.0,14391.0,0.0
-6456.0,3739.0,14363.0,0.0
-6451.0,3553.0,14339.0,0.0
-6435.0,3363.0,14286.0,0.0
-6426.0,3177.0,14249.0,0.0
-6412.0,2992.0,14202.0,0.0
-6408.0,2813.0,14178.0,0.0
-6394.0,2630.0,14127.0,0.0
-6373.0,2446.0,14061.0,0.0
-6379.0,2276.0,14059.0,0.0
-6371.0,2099.0,14021.0,0.0
-6353.0,1922.0,13962.0,0.0
-4258.0,1173.0,9345.0,0.0
-4340.0,1081.0,9511.0,0.0
-6337.0,1409.0,13867.0,0.0
-4954.0,970.0,10825.0,0.0
-4952.0,839.0,10803.0,0.0
-4947.0,708.0,10774.0,0.0
-4942.0,578.0,10747.0,0.0
-4942.0,449.0,10727.0,0.0
-4934.0,320.0,10692.0,0.0
-4938.0,192.0,10681.0,0.0
-4928.0,65.0,10640.0,0.0
-4921.0,-61.0,10606.0,0.0
-4924.0,-187.0,10594.0,0.0
-4920.0,-313.0,10563.0,0.0
-4904.0,-437.0,10510.0,0.0
-4914.0,-562.0,10509.0,0.0
-4910.0,-687.0,10480.0,0.0
-4914.0,-811.0,10466.0,0.0
-4895.0,-932.0,10405.0,0.0
-4903.0,-1057.0,10399.0,0.0
-4906.0,-1182.0,10381.0,0.0
-4900.0,-1303.0,10346.0,0.0
-4895.0,-1425.0,10314.0,0.0
-4902.0,-1549.0,10304.0,0.0
-4898.0,-1670.0,10272.0,0.0
-4893.0,-1790.0,10235.0,0.0
-4896.0,-1913.0,10215.0,0.0
-4893.0,-2034.0,10184.0,0.0
-4881.0,-2151.0,10134.0,0.0
-4887.0,-2275.0,10120.0,0.0
-4888.0,-2396.0,10094.0,0.0
-4883.0,-2515.0,10058.0,0.0
-4888.0,-2639.0,10041.0,0.0
-4879.0,-2755.0,9994.0,0.0
-4880.0,-2876.0,9970.0,0.0
-4886.0,-3001.0,9951.0,0.0
-4891.0,-3125.0,9932.0,0.0
-4880.0,-3239.0,9879.0,0.0
-4886.0,-3365.0,9863.0,0.0
-4889.0,-3489.0,9838.0,0.0
-4888.0,-3609.0,9804.0,0.0
-4885.0,-3729.0,9769.0,0.0
-4888.0,-3852.0,9739.0,0.0
-4887.0,-3974.0,9708.0,0.0
-4890.0,-4098.0,9680.0,0.0
-4895.0,-4225.0,9655.0,0.0
-4904.0,-4356.0,9641.0,0.0
-4904.0,-4478.0,9604.0,0.0
-4899.0,-4597.0,9562.0,0.0
-4896.0,-4718.0,9520.0,0.0
-4906.0,-4851.0,9502.0,0.0
-4906.0,-4976.0,9467.0,0.0
-4917.0,-5110.0,9449.0,0.0
-4920.0,-5240.0,9419.0,0.0
-4922.0,-5366.0,9383.0,0.0
-4931.0,-5502.0,9362.0,0.0
-4937.0,-5635.0,9333.0,0.0
-4940.0,-5766.0,9299.0,0.0
-4950.0,-5904.0,9275.0,0.0
-4955.0,-6039.0,9243.0,0.0
-4962.0,-6176.0,9213.0,0.0
-4969.0,-6315.0,9185.0,0.0
-4973.0,-6450.0,9149.0,0.0
-4981.0,-6591.0,9118.0,0.0
-4994.0,-6741.0,9098.0,0.0
-4993.0,-6871.0,9049.0,0.0
-5010.0,-7028.0,9033.0,0.0
-5011.0,-7164.0,8989.0,0.0
-5018.0,-7309.0,8953.0,0.0
-5024.0,-7453.0,8915.0,0.0
-5030.0,-7597.0,8874.0,0.0
-5052.0,-7769.0,8863.0,0.0
-5058.0,-7917.0,8822.0,0.0
-5061.0,-8062.0,8775.0,0.0
-5071.0,-8218.0,8739.0,0.0
-5081.0,-8375.0,8701.0,0.0
-5093.0,-8538.0,8666.0,0.0
-5106.0,-8704.0,8632.0,0.0
-5121.0,-8876.0,8600.0,0.0
-5130.0,-9037.0,8556.0,0.0
-5145.0,-9212.0,8522.0,0.0
-5162.0,-9393.0,8489.0,0.0
-5177.0,-9572.0,8453.0,0.0
-5186.0,-9741.0,8404.0,0.0
-5200.0,-9922.0,8363.0,0.0
-5214.0,-10104.0,8319.0,0.0
-5230.0,-10293.0,8278.0,0.0
-5252.0,-10496.0,8246.0,0.0
-5265.0,-10681.0,8196.0,0.0
-5279.0,-10874.0,8148.0,0.0
-5296.0,-11074.0,8101.0,0.0
-5313.0,-11276.0,8054.0,0.0
-53.0,-115.0,81.0,0.0
-56.0,-123.0,83.0,0.0
-56.0,-125.0,82.0,0.0
-48.0,-110.0,71.0,0.0
-56.0,-128.0,81.0,0.0
-4603.0,-10663.0,6571.0,0.0
-4528.0,-10645.0,6395.0,0.0
-4490.0,-10708.0,6270.0,0.0
-4620.0,-11175.0,6376.0,0.0
-4604.0,-11296.0,6278.0,0.0
-4480.0,-11148.0,6034.0,0.0
-4406.0,-11122.0,5860.0,0.0
-4435.0,-11354.0,5821.0,0.0
-4356.0,-11308.0,5639.0,0.0
-70.0,-186.0,90.0,0.0
-71.0,-192.0,90.0,0.0
-71.0,-196.0,89.0,0.0
-73.0,-203.0,91.0,0.0
-78.0,-218.0,93.0,0.0
-79.0,-224.0,93.0,0.0
-84.0,-241.0,98.0,0.0
-85.0,-251.0,98.0,0.0
-92.0,-270.0,102.0,0.0
-104.0,-313.0,115.0,0.0
-105.0,-317.0,112.0,0.0
-101.0,-314.0,108.0,0.0
-102.0,-318.0,105.0,0.0
-98.0,-313.0,100.0,0.0
-99.0,-319.0,97.0,0.0
-96.0,-314.0,92.0,0.0
-96.0,-318.0,89.0,0.0
-95.0,-320.0,86.0,0.0
-95.0,-323.0,84.0,0.0
-92.0,-319.0,79.0,0.0
-91.0,-321.0,76.0,0.0
0.0,0.0,0.0,0.0
0.0,0.0,0.0,0.0
-16633.0,42628.0,38245.0,0.0
0.0,0.0,0.0,0.0
0.0,0.0,0.0,0.0
0.0,0.0,0.0,0.0
-14289.0,33722.0,33001.0,0.0
-14161.0,32731.0,32738.0,0.0
-14112.0,31941.0,32653.0,0.0
-14030.0,31096.0,32492.0,0.0
0.0,0.0,0.0,0.0
-14162.0,30081.0,32844.0,0.0
-13713.0,28511.0,31824.0,0.0
-13738.0,27951.0,31900.0,0.0
-13638.0,27151.0,31685.0,0.0
-13682.0,26648.0,31804.0,0.0
-13704.0,26106.0,31866.0,0.0
0.0,0.0,0.0,0.0
-13386.0,24383.0,31149.0,0.0
-13356.0,23782.0,31088.0,0.0
-13111.0,22817.0,30526.0,0.0
-13236.0,22506.0,30822.0,0.0
-13202.0,21928.0,30746.0,0.0
-5656.0,9174.0,13173.0,0.0
-5615.0,8892.0,13079.0,0.0
-5586.0,8635.0,13013.0,0.0
-5565.0,8394.0,12963.0,0.0
-5553.0,8168.0,12932.0,0.0
-5526.0,7927.0,12870.0,0.0
-5491.0,7677.0,12786.0,0.0
-5487.0,7474.0,12773.0,0.0
-5473.0,7259.0,12738.0,0.0
-5480.0,7077.0,12750.0,0.0
-5505.0,6917.0,12804.0,0.0
-6008.0,7342.0,13969.0,0.0
-5993.0,7119.0,13929.0,0.0
-5978.0,6898.0,13886.0,0.0
-5997.0,6719.0,13924.0,0.0
-6072.0,6603.0,14093.0,0.0
-6070.0,6400.0,14080.0,0.0
-6098.0,6231.0,14136.0,0.0
-6136.0,6071.0,14215.0,0.0
-6141.0,5879.0,14218.0,0.0
-6152.0,5694.0,14233.0,0.0
-6146.0,5495.0,14209.0,0.0
-6255.0,5397.0,14450.0,0.0
-6288.0,5230.0,14514.0,0.0
-6335.0,5074.0,14610.0,0.0
-6345.0,4889.0,14622.0,0.0
-6240.0,4618.0,14366.0,0.0
-6296.0,4470.0,14480.0,0.0
-6302.0,4286.0,14480.0,0.0
-6297.0,4095.0,14454.0,0.0
-6279.0,3898.0,14399.0,0.0
-6264.0,3706.0,14351.0,0.0
-6254.0,3517.0,14310.0,0.0
-6249.0,3334.0,14282.0,0.0
-6237.0,3149.0,14239.0,0.0
-6225.0,2964.0,14195.0,0.0
-6225.0,2787.0,14176.0,0.0
-6221.0,2610.0,14149.0,0.0
-6195.0,2424.0,14071.0,0.0
-6194.0,2251.0,14050.0,0.0
-6189.0,2077.0,14017.0,0.0
-6173.0,1901.0,13964.0,0.0
-6174.0,1731.0,13945.0,0.0
-4317.0,1092.0,9736.0,0.0
-6126.0,1383.0,13796.0,0.0
-4810.0,955.0,10814.0,0.0
-4813.0,826.0,10804.0,0.0
-4794.0,693.0,10747.0,0.0
-4798.0,565.0,10737.0,0.0
-4798.0,437.0,10716.0,0.0
-4793.0,309.0,10687.0,0.0
-4788.0,181.0,10657.0,0.0
-4781.0,54.0,10622.0,0.0
-4782.0,-71.0,10606.0,0.0
-4783.0,-196.0,10588.0,0.0
-4779.0,-321.0,10557.0,0.0
-4777.0,-446.0,10532.0,0.0
-4766.0,-569.0,10488.0,0.0
-4766.0,-693.0,10467.0,0.0
-4768.0,-817.0,10447.0,0.0
-4765.0,-939.0,10418.0,0.0
-4765.0,-1063.0,10399.0,0.0
-4752.0,-1182.0,10345.0,0.0
-4761.0,-1307.0,10343.0,0.0
-4757.0,-1428.0,10311.0,0.0
-4748.0,-1547.0,10269.0,0.0
-4751.0,-1669.0,10250.0,0.0
-4760.0,-1795.0,10246.0,0.0
-4744.0,-1910.0,10187.0,0.0
-4747.0,-2032.0,10168.0,0.0
-4751.0,-2154.0,10151.0,0.0
-4750.0,-2275.0,10120.0,0.0
-4763.0,-2402.0,10122.0,0.0
-4750.0,-2517.0,10069.0,0.0
-4745.0,-2633.0,10029.0,0.0
-4758.0,-2762.0,10030.0,0.0
-4750.0,-2878.0,9984.0,0.0
-4752.0,-2999.0,9960.0,0.0
-4749.0,-3119.0,9926.0,0.0
-4755.0,-3245.0,9910.0,0.0
-4749.0,-3360.0,9866.0,0.0
-4758.0,-3489.0,9855.0,0.0
-4753.0,-3606.0,9813.0,0.0
-4757.0,-3730.0,9791.0,0.0
-4764.0,-3857.0,9772.0,0.0
-4758.0,-3975.0,9730.0,0.0
-4761.0,-4099.0,9702.0,0.0
-4759.0,-4219.0,9665.0,0.0
-4772.0,-4353.0,9657.0,0.0
-4772.0,-4475.0,9621.0,0.0
-4769.0,-4596.0,9582.0,0.0
-4766.0,-4715.0,9541.0,0.0
-4774.0,-4848.0,9522.0,0.0
-4775.0,-4972.0,9487.0,0.0
-4785.0,-5106.0,9468.0,0.0
-4790.0,-5237.0,9442.0,0.0
-4786.0,-5359.0,9398.0,0.0
-4801.0,-5501.0,9388.0,0.0
-4802.0,-5629.0,9351.0,0.0
-4809.0,-5763.0,9323.0,0.0
-4811.0,-5894.0,9289.0,0.0
-4814.0,-6025.0,9253.0,0.0
-4818.0,-6159.0,9218.0,0.0
-4834.0,-6308.0,9206.0,0.0
-4833.0,-6438.0,9162.0,0.0
-4839.0,-6576.0,9129.0,0.0
-4850.0,-6723.0,9106.0,0.0
-4847.0,-6850.0,9054.0,0.0
-4862.0,-7004.0,9037.0,0.0
-4224.0,-6202.0,7811.0,0.0
-4217.0,-6308.0,7757.0,0.0
-4216.0,-6424.0,7713.0,0.0
-4887.0,-7583.0,8893.0,0.0
-4902.0,-7743.0,8870.0,0.0
-4910.0,-7894.0,8834.0,0.0
-4919.0,-8047.0,8796.0,0.0
-4925.0,-8198.0,8754.0,0.0
-4940.0,-8365.0,8728.0,0.0
-4943.0,-8514.0,8681.0,0.0
-4961.0,-8688.0,8655.0,0.0
-4972.0,-8853.0,8617.0,0.0
-4979.0,-9013.0,8574.0,0.0
-4996.0,-9191.0,8543.0,0.0
-5007.0,-9363.0,8503.0,0.0
-5021.0,-9539.0,8466.0,0.0
-5030.0,-9710.0,8420.0,0.0
-5050.0,-9904.0,8390.0,0.0
-5055.0,-10067.0,8332.0,0.0
-5074.0,-10266.0,8300.0,0.0
-5090.0,-10455.0,8258.0,0.0
-5101.0,-10640.0,8208.0,0.0
-5120.0,-10845.0,8171.0,0.0
-5134.0,-11037.0,8120.0,0.0
-5151.0,-11241.0,8075.0,0.0
-45.0,-101.0,71.0,0.0
-50.0,-112.0,76.0,0.0
-54.0,-125.0,83.0,0.0
-50.0,-117.0,76.0,0.0
-57.0,-136.0,86.0,0.0
-4459.0,-10630.0,6592.0,0.0
-4486.0,-10850.0,6561.0,0.0
-4524.0,-11102.0,6544.0,0.0
-4478.0,-11146.0,6403.0,0.0
-4461.0,-11265.0,6305.0,0.0
-4416.0,-11313.0,6167.0,0.0
-63.0,-164.0,87.0,0.0
-65.0,-172.0,88.0,0.0
-64.0,-173.0,87.0,0.0
-65.0,-178.0,87.0,0.0
-66.0,-182.0,86.0,0.0
-71.0,-198.0,91.0,0.0
-71.0,-201.0,90.0,0.0
-73.0,-211.0,92.0,0.0
-74.0,-219.0,93.0,0.0
-77.0,-228.0,93.0,0.0
-83.0,-250.0,99.0,0.0
-83.0,-254.0,98.0,0.0
-97.0,-301.0,111.0,0.0
-106.0,-335.0,120.0,0.0
-104.0,-331.0,114.0,0.0
-100.0,-325.0,108.0,0.0
-97.0,-319.0,103.0,0.0
-98.0,-326.0,100.0,0.0
-96.0,-321.0,96.0,0.0
-95.0,-325.0,93.0,0.0
-95.0,-328.0,90.0,0.0
-91.0,-323.0,85.0,0.0
-91.0,-325.0,82.0,0.0
-91.0,-331.0,79.0,0.0
0.0,0.0,0.0,0.0
0.0,0.0,0.0,0.0
-6041.0,15951.0,14400.0,0.0
-6018.0,15566.0,14359.0,0.0
-6066.0,15367.0,14487.0,0.0
0.0,0.0,0.0,0.0
-15684.0,38104.0,37517.0,0.0
-13604.0,32364.0,32567.0,0.0
-13615.0,31713.0,32616.0,0.0
-13626.0,31073.0,32664.0,0.0
-13587.0,30330.0,32590.0,0.0
-13369.0,29209.0,32083.0,0.0
-13279.0,28392.0,31883.0,0.0
-13275.0,27772.0,31887.0,0.0
-13037.0,26681.0,31325.0,0.0
-13461.0,26948.0,32354.0,0.0
-14883.0,29140.0,35783.0,0.0
-12906.0,24708.0,31037.0,0.0
-12940.0,24218.0,31124.0,0.0
-12903.0,23604.0,31039.0,0.0
-7475.0,13364.0,17985.0,0.0
-7514.0,13124.0,18079.0,0.0
-12891.0,21988.0,31015.0,0.0
-5438.0,9059.0,13084.0,0.0
-5418.0,8809.0,13034.0,0.0
-5396.0,8562.0,12981.0,0.0
-5387.0,8338.0,12954.0,0.0
-5367.0,8101.0,12904.0,0.0
-5341.0,7860.0,12839.0,0.0
-5313.0,7620.0,12768.0,0.0
-5299.0,7403.0,12730.0,0.0
-5295.0,7205.0,12717.0,0.0
-5339.0,7070.0,12819.0,0.0
-5840.0,7524.0,14014.0,0.0
-5867.0,7350.0,14073.0,0.0
-5924.0,7214.0,14203.0,0.0
-6023.0,7124.0,14432.0,0.0
-6044.0,6942.0,14476.0,0.0
-5968.0,6650.0,14285.0,0.0
-6060.0,6547.0,14495.0,0.0
-6040.0,6323.0,14438.0,0.0
-6083.0,6165.0,14529.0,0.0
-6132.0,6013.0,14637.0,0.0
-6167.0,5845.0,14709.0,0.0
-6206.0,5681.0,14789.0,0.0
-6192.0,5470.0,14742.0,0.0
-6174.0,5257.0,14690.0,0.0
-6166.0,5055.0,14657.0,0.0
-6157.0,4854.0,14620.0,0.0
-6139.0,4649.0,14564.0,0.0
-6137.0,4458.0,14547.0,0.0
-6112.0,4252.0,14471.0,0.0
-6112.0,4065.0,14455.0,0.0
-6091.0,3866.0,14389.0,0.0
-6082.0,3678.0,14354.0,0.0
-6081.0,3497.0,14335.0,0.0
-6074.0,3312.0,14300.0,0.0
-6060.0,3125.0,14249.0,0.0
-6040.0,2937.0,14184.0,0.0
-6033.0,2758.0,14150.0,0.0
-6029.0,2581.0,14121.0,0.0
-6009.0,2399.0,14055.0,0.0
-6018.0,2230.0,14059.0,0.0
-6003.0,2053.0,14004.0,0.0
-5998.0,1881.0,13971.0,0.0
-5986.0,1708.0,13921.0,0.0
-4260.0,1096.0,9895.0,0.0
-4330.0,993.0,10041.0,0.0
-4645.0,936.0,10753.0,0.0
-4670.0,811.0,10794.0,0.0
-4666.0,682.0,10768.0,0.0
-4665.0,553.0,10746.0,0.0
-4665.0,426.0,10728.0,0.0
-4658.0,298.0,10694.0,0.0
-4653.0,171.0,10664.0,0.0
-4650.0,45.0,10636.0,0.0
-4650.0,-80.0,10617.0,0.0
-4649.0,-206.0,10594.0,0.0
-4638.0,-329.0,10547.0,0.0
-4640.0,-454.0,10533.0,0.0
-4632.0,-577.0,10493.0,0.0
-4635.0,-700.0,10479.0,0.0
-4635.0,-824.0,10457.0,0.0
-4623.0,-944.0,10408.0,0.0
-4618.0,-1065.0,10373.0,0.0
-4624.0,-1189.0,10367.0,0.0
-4622.0,-1310.0,10336.0,0.0
-4621.0,-1431.0,10311.0,0.0
-4619.0,-1552.0,10282.0,0.0
-4611.0,-1670.0,10241.0,0.0
-4621.0,-1795.0,10239.0,0.0
-4620.0,-1915.0,10211.0,0.0
-4615.0,-2034.0,10176.0,0.0
-4610.0,-2153.0,10137.0,0.0
-4612.0,-2274.0,10118.0,0.0
-4602.0,-2389.0,10068.0,0.0
-4607.0,-2512.0,10054.0,0.0
-4611.0,-2633.0,10034.0,0.0
-4607.0,-2751.0,10000.0,0.0
-4608.0,-2871.0,9972.0,0.0
-4611.0,-2994.0,9952.0,0.0
-4606.0,-3111.0,9912.0,0.0
-4606.0,-3231.0,9882.0,0.0
-4606.0,-3352.0,9855.0,0.0
-4603.0,-3470.0,9818.0,0.0
-4607.0,-3593.0,9797.0,0.0
-4613.0,-3718.0,9775.0,0.0
-4618.0,-3843.0,9755.0,0.0
-4616.0,-3963.0,9720.0,0.0
-4618.0,-4085.0,9691.0,0.0
-4614.0,-4204.0,9652.0,0.0
-4622.0,-4333.0,9635.0,0.0
-4621.0,-4454.0,9600.0,0.0
-4625.0,-4581.0,9574.0,0.0
-4627.0,-4705.0,9542.0,0.0
-4631.0,-4833.0,9517.0,0.0
-4625.0,-4949.0,9469.0,0.0
-4631.0,-5079.0,9444.0,0.0
-4636.0,-5209.0,9418.0,0.0
-4642.0,-5341.0,9393.0,0.0
-4651.0,-5475.0,9371.0,0.0
-4653.0,-5603.0,9337.0,0.0
-4651.0,-5728.0,9295.0,0.0
-4664.0,-5871.0,9280.0,0.0
-4665.0,-5999.0,9241.0,0.0
-4672.0,-6136.0,9216.0,0.0
-4678.0,-6273.0,9186.0,0.0
-4691.0,-6420.0,9168.0,0.0
-4687.0,-6546.0,9120.0,0.0
-4627.0,-6589.0,8957.0,0.0
-4115.0,-5976.0,7928.0,0.0
-4164.0,-6165.0,7982.0,0.0
-4142.0,-6249.0,7900.0,0.0
-4088.0,-6284.0,7757.0,0.0
-4082.0,-6391.0,7706.0,0.0
-4122.0,-6572.0,7738.0,0.0
-4134.0,-6711.0,7718.0,0.0
-4749.0,-7848.0,8816.0,0.0
-4762.0,-8010.0,8790.0,0.0
-4768.0,-8158.0,8748.0,0.0
-4784.0,-8327.0,8725.0,0.0
-4781.0,-8466.0,8668.0,0.0
-4799.0,-8642.0,8646.0,0.0
-4813.0,-8812.0,8615.0,0.0
-4818.0,-8967.0,8567.0,0.0
-4834.0,-9144.0,8539.0,0.0
-4842.0,-9311.0,8496.0,0.0
-4853.0,-9484.0,8455.0,0.0
-4869.0,-9666.0,8421.0,0.0
-4877.0,-9836.0,8373.0,0.0
-4888.0,-10014.0,8331.0,0.0
-4908.0,-10213.0,8300.0,0.0
-4919.0,-10395.0,8252.0,0.0
-4930.0,-10580.0,8205.0,0.0
-4949.0,-10784.0,8168.0,0.0
-4962.0,-10978.0,8120.0,0.0
-4980.0,-11182.0,8077.0,0.0
-52.0,-122.0,86.0,0.0
-54.0,-127.0,87.0,0.0
