//X,Y,Z,Classification
2476,-22474,28955,1.0
0,0,0,0.0
1558,-14215,17522,0.0
1557,-14236,17165,0.0
1545,-14136,16677,0.0
1534,-14059,16228,0.0
1520,-13944,15749,0.0
1523,-13973,15443,0.0
1518,-13932,15069,0.0
1518,-13929,14743,0.0
1514,-13895,14394,0.0
1539,-14105,14299,0.0
1570,-14378,14265,0.0
1568,-14343,13927,0.0
1630,-14880,14140,0.0
1661,-15144,14084,0.0
1693,-15406,14021,0.0
1727,-15671,13955,0.0
1762,-15959,13907,0.0
1796,-16216,13826,0.0
1833,-16507,13770,0.0
1871,-16801,13712,0.0
1910,-17099,13651,0.0
1949,-17386,13575,0.0
1993,-17712,13525,0.0
2036,-18023,13459,0.0
2076,-18311,13369,0.0
2122,-18645,13308,0.0
2170,-18985,13244,0.0
2217,-19303,13159,0.0
2265,-19635,13078,0.0
2317,-19990,13006,0.0
2367,-20325,12915,0.0
2420,-20688,12836,0.0
2473,-21036,12741,0.0
2517,-21301,12589,0.0
248,-2097,1209,0.0
18,-156,88,0.0
19,-166,91,0.0
20,-175,93,0.0
21,-182,94,0.0
22,-188,96,0.0
23,-199,98,0.0
26,-213,102,0.0
27,-219,102,0.0
28,-229,104,0.0
30,-245,107,0.0
32,-253,107,0.0
32,-255,106,0.0
32,-258,104,0.0
36,-285,111,0.0
41,-320,120,0.0
42,-328,120,0.0
43,-336,119,0.0
43,-333,113,0.0
45,-340,112,0.0
45,-340,108,0.0
-4041,17014,15589,0.0
-4122,16946,15863,0.0
-4210,16899,16161,0.0
-4295,16828,16443,0.0
-4293,16425,16398,0.0
-4426,16535,16867,0.0
-4462,16272,16960,0.0
-4441,15811,16840,0.0
-4729,16437,17889,0.0
-4841,16430,18275,0.0
-4936,16350,18587,0.0
-5036,16284,18923,0.0
-5138,16214,19259,0.0
-5100,15710,19078,0.0
-5261,15816,19640,0.0
-5270,15459,19629,0.0
-5331,15257,19813,0.0
-5664,15814,21007,0.0
-5780,15742,21393,0.0
-5889,15640,21751,0.0
-6399,16570,23585,0.0
-6720,16963,24716,0.0
-6711,16509,24631,0.0
-6709,16083,24575,0.0
-6489,15154,23722,0.0
-6680,15193,24369,0.0
-6512,14420,23707,0.0
-6666,14367,24219,0.0
-6682,14015,24233,0.0
-9237,18845,33431,0.0
-9257,18364,33436,0.0
-9252,17840,33353,0.0
-9222,17278,33183,0.0
-9240,16812,33183,0.0
-9234,16308,33096,0.0
-8477,14524,30322,0.0
-8553,14211,30537,0.0
-8465,13631,30164,0.0
-8660,13508,30801,0.0
-6097,9206,21646,0.0
-6217,9078,22027,0.0
-6392,9023,22608,0.0
-6391,8713,22560,0.0
-6341,8342,22341,0.0
-6392,8107,22478,0.0
-6384,7799,22406,0.0
-6371,7489,22319,0.0
-6356,7180,22225,0.0
-6335,6869,22108,0.0
-6331,6581,22051,0.0
-6320,6289,21973,0.0
-6323,6014,21942,0.0
-6307,5724,21844,0.0
-6311,5453,21815,0.0
-6300,5174,21737,0.0
-6291,4898,21661,0.0
-6284,4629,21597,0.0
-6264,4352,21487,0.0
-6055,3955,20730,0.0
-5965,3651,20381,0.0
-6142,3508,20945,0.0
-6063,3216,20637,0.0
-6004,2943,20395,0.0
-5992,2696,20314,0.0
-6202,2544,20984,0.0
-6163,2284,20809,0.0
-6140,2034,20694,0.0
-6150,1797,20686,0.0
-6134,1553,20592,0.0
-6138,1317,20561,0.0
-6126,1078,20481,0.0
-6085,837,20301,0.0
-6094,606,20289,0.0
-5678,349,18864,0.0
-5988,142,19853,0.0
-5946,-83,19674,0.0
-5942,-306,19619,0.0
-5911,-525,19477,0.0
-6045,-762,19875,0.0
-6091,-995,19983,0.0
-6087,-1220,19927,0.0
-6072,-1441,19835,0.0
-6058,-1661,19748,0.0
-6059,-1884,19705,0.0
-6012,-2091,19512,0.0
-6067,-2331,19643,0.0
-6055,-2548,19561,0.0
-6050,-2767,19503,0.0
-6055,-2989,19472,0.0
-6048,-3206,19405,0.0
-5993,-3395,19183,0.0
-6055,-3650,19335,0.0
-6052,-3867,19282,0.0
-6050,-4086,19229,0.0
-6025,-4287,19104,0.0
-6045,-4521,19121,0.0
-6029,-4729,19025,0.0
-6050,-4963,19044,0.0
-6033,-5168,18940,0.0
-5840,-5215,18290,0.0
-5845,-5433,18262,0.0
-5850,-5650,18226,0.0
-5845,-5858,18164,0.0
-6030,-6265,18691,0.0
-6047,-6502,18694,0.0
-6047,-6725,18646,0.0
-6045,-6945,18588,0.0
-6012,-7128,18435,0.0
-6049,-7394,18496,0.0
-6032,-7599,18395,0.0
-6053,-7849,18404,0.0
-6057,-8078,18362,0.0
-6061,-8312,18324,0.0
-6052,-8527,18245,0.0
-6026,-8716,18109,0.0
-6056,-8988,18144,0.0
-6066,-9232,18117,0.0
-6056,-9448,18031,0.0
-5653,-9035,16778,0.0
-6044,-9893,17881,0.0
-6076,-10181,17920,0.0
-6061,-10389,17814,0.0
-6078,-10658,17807,0.0
-6068,-10879,17720,0.0
-6073,-11126,17669,0.0
-6071,-11366,17606,0.0
-6086,-11637,17587,0.0
-6086,-11881,17522,0.0
-6106,-12166,17514,0.0
-6119,-12443,17486,0.0
-6088,-12630,17332,0.0
-6111,-12932,17333,0.0
-5958,-12856,16830,0.0
-5704,-12549,16051,0.0
-5958,-13360,16699,0.0
-5980,-13667,16693,0.0
-5711,-13298,15874,0.0
-6124,-14525,16950,0.0
-6150,-14857,16947,0.0
-6182,-15207,16959,0.0
-6181,-15483,16881,0.0
-6193,-15794,16838,0.0
-6196,-16084,16767,0.0
-6243,-16494,16813,0.0
-6253,-16810,16756,0.0
-6266,-17143,16710,0.0
-6270,-17453,16636,0.0
-6280,-17783,16575,0.0
-6293,-18128,16522,0.0
-6297,-18448,16442,0.0
-6307,-18794,16379,0.0
-6320,-19153,16320,0.0
-6334,-19518,16260,0.0
-6353,-19909,16213,0.0
-6351,-20237,16110,0.0
-6361,-20609,16036,0.0
-6381,-21017,15983,0.0
-6387,-21388,15894,0.0
-6401,-21792,15822,0.0
-6406,-22171,15727,0.0
-6425,-22606,15663,0.0
-6354,-22727,15378,0.0
-6231,-22658,14970,0.0
0,0,0,0.0
0,0,0,0.0
0,0,0,0.0
0,0,0,0.0
0,0,0,0.0
-503,-2021,1152,0.0
-499,-2037,1131,0.0
-500,-2078,1124,0.0
-506,-2139,1128,0.0
-34,-151,78,0.0
-38,-171,86,0.0
-40,-182,88,0.0
-42,-193,91,0.0
-41,-193,89,0.0
-44,-207,92,0.0
-47,-225,97,0.0
-51,-253,106,0.0
-55,-272,111,0.0
-55,-283,112,0.0
-64,-328,125,0.0
-63,-330,122,0.0
-65,-349,125,0.0
-64,-346,120,0.0
-62,-341,113,0.0
-62,-347,112,0.0
-61,-351,109,0.0
-59,-344,102,0.0
-59,-347,100,0.0
-58,-351,97,0.0
-5886,35386,33215,0.0
-3013,17614,16891,0.0
-3064,17413,17058,0.0
-3081,17030,17044,0.0
-3100,16674,17048,0.0
-3151,16488,17224,0.0
-3250,16537,17652,0.0
-3326,16473,17965,0.0
-3330,16051,17887,0.0
-3384,15870,18074,0.0
-3402,15530,18076,0.0
-3644,16188,19259,0.0
-3728,16117,19601,0.0
-3813,16043,19947,0.0
-3888,15921,20240,0.0
-3968,15817,20562,0.0
-4053,15718,20898,0.0
-4047,15275,20776,0.0
-4061,14915,20753,0.0
-4337,15498,22067,0.0
-4439,15433,22491,0.0
-4539,15349,22899,0.0
-4647,15282,23344,0.0
-4749,15184,23757,0.0
-4852,15083,24178,0.0
-4960,14985,24614,0.0
-5050,14829,24969,0.0
-5167,14739,25449,0.0
-5234,14502,25684,0.0
-5249,14122,25665,0.0
-5535,14456,26967,0.0
-5662,14347,27485,0.0
-5796,14245,28035,0.0
-5908,14079,28482,0.0
-6051,13974,29068,0.0
-6112,13673,29263,0.0
-4119,8921,19655,0.0
-4117,8629,19583,0.0
-4122,8354,19541,0.0
-4121,8073,19477,0.0
-4122,7799,19418,0.0
-4118,7522,19343,0.0
-4126,7267,19316,0.0
-4121,6996,19238,0.0
-4118,6730,19168,0.0
-4122,6480,19130,0.0
-4121,6224,19068,0.0
-4121,5973,19012,0.0
-4122,5727,18964,0.0
-4117,5477,18888,0.0
-4119,5238,18846,0.0
-4115,4995,18776,0.0
-4122,4767,18754,0.0
-4111,4521,18653,0.0
-4112,4292,18610,0.0
-4114,4065,18567,0.0
-4119,3844,18541,0.0
-4113,3615,18467,0.0
-4111,3390,18408,0.0
-4108,3169,18350,0.0
-4110,2952,18308,0.0
-4118,2741,18296,0.0
-4113,2524,18232,0.0
-4116,2312,18197,0.0
-4110,2098,18122,0.0
-4092,1880,18000,0.0
-4110,1681,18036,0.0
-4106,1473,17974,0.0
-4229,1306,18469,0.0
-4357,1129,18981,0.0
-4371,917,18997,0.0
-4586,738,19886,0.0
-4658,522,20145,0.0
-4693,298,20249,0.0
-4700,71,20236,0.0
-4730,-155,20312,0.0
-4724,-381,20238,0.0
-4721,-605,20183,0.0
-4719,-830,20123,0.0
-4727,-1055,20107,0.0
-4739,-1281,20118,0.0
-4734,-1502,20045,0.0
-4736,-1725,20008,0.0
-4743,-1949,19995,0.0
-4727,-2164,19880,0.0
-4731,-2386,19851,0.0
-4739,-2610,19839,0.0
-4732,-2827,19765,0.0
-4749,-3057,19789,0.0
-4735,-3267,19687,0.0
-4728,-3480,19608,0.0
-4754,-3719,19670,0.0
-4736,-3925,19554,0.0
-4739,-4147,19522,0.0
-4757,-4382,19549,0.0
-4757,-4603,19506,0.0
-4760,-4825,19471,0.0
-4757,-5042,19413,0.0
-4748,-5254,19333,0.0
-4747,-5473,19285,0.0
-4739,-5686,19210,0.0
-4758,-5930,19242,0.0
-4765,-6161,19222,0.0
-4760,-6378,19157,0.0
-4754,-6594,19089,0.0
-4758,-6822,19058,0.0
-4748,-7032,18971,0.0
-4757,-7272,18965,0.0
-4754,-7494,18907,0.0
-4757,-7727,18875,0.0
-4747,-7938,18787,0.0
-4752,-8174,18761,0.0
-4750,-8401,18705,0.0
-4761,-8653,18703,0.0
-4769,-8901,18691,0.0
-4760,-9118,18607,0.0
-4753,-9340,18533,0.0
-4758,-9588,18506,0.0
-4748,-9806,18423,0.0
-4761,-10072,18423,0.0
-4766,-10327,18399,0.0
-4766,-10569,18347,0.0
-4767,-10818,18304,0.0
-4759,-11046,18225,0.0
-4763,-11306,18193,0.0
-4759,-11546,18124,0.0
-4774,-11836,18132,0.0
-4767,-12076,18057,0.0
-4762,-12320,17985,0.0
-4765,-12590,17947,0.0
-4757,-12835,17870,0.0
-4760,-13106,17826,0.0
-4765,-13390,17796,0.0
-4765,-13660,17740,0.0
-4762,-13927,17677,0.0
-4693,-13999,17369,0.0
-4605,-14009,16992,0.0
-4548,-14104,16727,0.0
-4430,-14007,16242,0.0
-4310,-13892,15753,0.0
-4277,-14050,15581,0.0
-4159,-13922,15099,0.0
-4086,-13942,14788,0.0
-4030,-14007,14534,0.0
-4020,-14238,14448,0.0
-4005,-14452,14346,0.0
-4022,-14783,14355,0.0
-19,-69,65,0.0
-24,-94,87,0.0
-28,-109,99,0.0
-25,-98,87,0.0
-22,-90,78,0.0
-20,-82,70,0.0
-4008,-16753,13926,0.0
-19,-80,64,0.0
-19,-85,67,0.0
-19,-82,64,0.0
-20,-93,71,0.0
-21,-97,71,0.0
-22,-106,76,0.0
-3990,-18953,13437,0.0
-3986,-19282,13355,0.0
-3984,-19631,13282,0.0
-3983,-19993,13211,0.0
-3977,-20338,13122,0.0
-3972,-20695,13035,0.0
-3966,-21055,12943,0.0
-3939,-21307,12781,0.0
-375,-2068,1210,0.0
-372,-2092,1194,0.0
-362,-2078,1155,0.0
-25,-149,80,0.0
-27,-160,85,0.0
-30,-181,93,0.0
-30,-182,91,0.0
-31,-195,94,0.0
-32,-201,95,0.0
-32,-205,94,0.0
-34,-229,102,0.0
-35,-238,103,0.0
-37,-258,108,0.0
-39,-277,113,0.0
-38,-274,109,0.0
-43,-316,121,0.0
-45,-343,127,0.0
-44,-348,124,0.0
-43,-344,119,0.0
-42,-348,116,0.0
-42,-350,114,0.0
-41,-352,110,0.0
-40,-349,105,0.0
-39,-350,101,0.0
-870,15372,14824,0.0
-906,15154,14927,0.0
0,0,0,0.0
-2123,32023,32919,0.0
0,0,0,0.0
-2180,29844,32019,0.0
0,0,0,0.0
-2314,28886,32353,0.0
-2360,28177,32248,0.0
-2338,26726,31257,0.0
-1504,16485,19704,0.0
-1509,15850,19363,0.0
-1613,16268,20315,0.0
-1677,16239,20733,0.0
-1691,15729,20533,0.0
-1744,15606,20833,0.0
-1822,15678,21405,0.0
-1855,15366,21462,0.0
-2674,21322,30468,0.0
-2707,20783,30391,0.0
-2776,20535,30737,0.0
-2833,20193,30941,0.0
-2879,19781,31039,0.0
-2918,19326,31063,0.0
-3210,20505,33767,0.0
-2697,16607,28025,0.0
-2775,16476,28506,0.0
-2841,16272,28869,0.0
-2774,15323,27889,0.0
-2794,14883,27799,0.0
-2809,14426,27664,0.0
-2858,14150,27867,0.0
-2878,13735,27797,0.0
-2867,13187,27432,0.0
-2769,12271,26256,0.0
-2079,8873,19537,0.0
-2092,8603,19504,0.0
-2101,8315,19420,0.0
-2114,8050,19382,0.0
-2123,7776,19315,0.0
-2132,7505,19245,0.0
-2143,7248,19203,0.0
-2152,6990,19148,0.0
-2160,6730,19079,0.0
-2170,6481,19034,0.0
-2178,6231,18977,0.0
-2185,5982,18914,0.0
-2195,5746,18882,0.0
-2200,5499,18808,0.0
-2210,5270,18781,0.0
-2215,5028,18705,0.0
-2222,4797,18655,0.0
-2228,4566,18601,0.0
-2230,4331,18517,0.0
-2241,4116,18509,0.0
-2249,3899,18482,0.0
-2253,3674,18412,0.0
-2262,3461,18391,0.0
-2263,3240,18318,0.0
-2267,3024,18259,0.0
-2272,2811,18210,0.0
-2276,2600,18164,0.0
-2278,2388,18093,0.0
-2270,2170,17957,0.0
-2288,1978,18021,0.0
-2293,1775,17987,0.0
-2293,1569,17912,0.0
-2343,1396,18224,0.0
-2435,1236,18862,0.0
-2447,1030,18891,0.0
-2524,845,19408,0.0
-2640,659,20231,0.0
0,0,0,0.0
0,0,0,0.0
-4786,-12,36290,1.0
-4806,-410,36330,1.0
-4829,-810,36373,1.0
-4823,-1205,36211,1.0
0,0,0,0.0
0,0,0,0.0
-4917,-2426,36590,1.0
-4945,-2838,36695,1.0
0,0,0,0.0
0,0,0,0.0
0,0,0,0.0
0,0,0,0.0
0,0,0,0.0
-4968,-5226,36273,1.0
-4987,-5643,36333,1.0
0,0,0,0.0
0,0,0,0.0
-5025,-6880,36355,1.0
-5012,-7259,36177,1.0
0,0,0,0.0
-5018,-8066,36069,1.0
0,0,0,0.0
-5022,-8874,35954,1.0
-5033,-9295,35962,1.0
0,0,0,0.0
-4946,-9933,35215,1.0
-4985,-10416,35432,1.0
0,0,0,0.0
-4981,-11221,35289,1.0
0,0,0,0.0
0,0,0,0.0
-4951,-12382,34912,1.0
-4926,-12734,34692,1.0
0,0,0,0.0
-4933,-13590,34651,1.0
-4942,-14038,34670,1.0
0,0,0,0.0
0,0,0,0.0
0,0,0,0.0
-4891,-15610,34162,1.0
-4846,-15904,33820,1.0
0,0,0,0.0
0,0,0,0.0
-4715,-16775,32823,1.0
0,0,0,0.0
-4678,-17531,32522,1.0
-4659,-17910,32372,1.0
0,0,0,0.0
-4582,-18515,31800,1.0
-4549,-18840,31560,1.0
-4485,-19038,31111,1.0
-4473,-19449,31016,1.0
-4434,-19749,30741,1.0
-4385,-20003,30400,1.0
0,0,0,0.0
0,0,0,0.0
-4247,-20788,29442,1.0
0,0,0,0.0
-4187,-21472,29043,1.0
-4133,-21695,28682,1.0
-4098,-22005,28442,1.0
-4032,-22163,28009,1.0
-2538,-14274,17639,0.0
-2462,-14170,17125,0.0
-2395,-14105,16671,0.0
-2323,-13998,16184,0.0
-2257,-13912,15734,0.0
-2226,-14041,15535,0.0
-2152,-13896,15041,0.0
-2106,-13912,14733,0.0
-2068,-13985,14492,0.0
-2055,-14225,14422,0.0
-2044,-14484,14369,0.0
-2028,-14711,14278,0.0
-2021,-15011,14255,0.0
-2008,-15274,14193,0.0
-1997,-15554,14140,0.0
-10,-82,74,0.0
-11,-88,76,0.0
-1957,-16402,13962,0.0
-11,-89,74,0.0
-10,-85,70,0.0
-11,-104,82,0.0
-1894,-17559,13676,0.0
-10,-98,75,0.0
-11,-102,76,0.0
-10,-105,76,0.0
-1830,-18869,13423,0.0
-1809,-19179,13334,0.0
-1791,-19523,13262,0.0
-1772,-19865,13183,0.0
-1750,-20193,13088,0.0
-1729,-20543,13001,0.0
-1707,-20902,12914,0.0
-1685,-21277,12830,0.0
-1646,-21448,12620,0.0
-155,-2087,1198,0.0
-12,-164,92,0.0
-12,-173,94,0.0
-12,-178,94,0.0
-13,-193,99,0.0
-12,-197,99,0.0
-13,-217,107,0.0
-12,-219,105,0.0
-13,-227,105,0.0
-13,-239,108,0.0
-12,-239,105,0.0
-13,-279,118,0.0
-13,-275,114,0.0
-13,-288,115,0.0
-13,-314,122,0.0
-13,-328,123,0.0
-13,-336,122,0.0
-12,-341,119,0.0
-12,-348,118,0.0
-11,-351,115,0.0
-10,-346,109,0.0
-10,-350,106,0.0
820,14678,14388,0.0
799,14688,14706,0.0
755,14282,14608,0.0
731,14247,14886,0.0
700,14079,15027,0.0
681,14130,15408,0.0
651,14001,15599,0.0
620,13796,15703,0.0
1158,26714,31073,0.0
1096,26313,31278,0.0
1027,25658,31170,0.0
735,19204,23847,0.0
602,16451,20881,0.0
572,16407,21292,0.0
537,16261,21577,0.0
502,16053,21783,0.0
447,15185,21076,0.0
418,15146,21504,0.0
445,17306,25141,0.0
405,17055,25356,0.0
366,16793,25555,0.0
327,16524,25745,0.0
289,16236,25904,0.0
250,15940,26051,0.0
212,15658,26220,0.0
174,15303,26265,0.0
138,15038,26462,0.0
100,14584,26318,0.0
62,13786,25524,0.0
29,14067,26729,0.0
-4,13793,26909,0.0
-38,13341,26734,0.0
-73,13195,27173,0.0
-106,12884,27277,0.0
-99,8941,19471,0.0
-121,8663,19415,0.0
-143,8403,19394,0.0
-163,8114,19298,0.0
-184,7862,19277,0.0
-203,7578,19171,0.0
-222,7328,19143,0.0
-241,7064,19067,0.0
-259,6815,19027,0.0
-275,6569,18981,0.0
-292,6313,18903,0.0
-308,6076,18867,0.0
-325,5842,18837,0.0
-339,5598,18768,0.0
-355,5367,18730,0.0
-368,5119,18626,0.0
-383,4899,18611,0.0
-396,4673,18569,0.0
-408,4445,18504,0.0
-421,4221,18454,0.0
-433,4004,18419,0.0
-444,3785,18364,0.0
-456,3568,18317,0.0
-467,3355,18272,0.0
-477,3142,18223,0.0
-487,2931,18174,0.0
-497,2722,18127,0.0
-506,2515,18072,0.0
-514,2310,18027,0.0
-503,2024,17288,0.0
-531,1903,17939,0.0
-539,1702,17882,0.0
-545,1502,17827,0.0
-568,1340,18263,0.0
-593,1175,18813,0.0
-604,975,18886,0.0
-632,794,19498,0.0
-665,606,20260,0.0
0,0,0,0.0
-1248,307,37188,1.0
-1272,-96,37483,1.0
-1284,-502,37475,1.0
-1308,-916,37793,1.0
-1317,-1325,37752,1.0
0,0,0,0.0
0,0,0,0.0
-1328,-2516,37165,1.0
0,0,0,0.0
0,0,0,0.0
0,0,0,0.0
0,0,0,0.0
0,0,0,0.0
-1392,-5024,37661,1.0
0,0,0,0.0
0,0,0,0.0
-1372,-6118,36711,1.0
-1379,-6549,36832,1.0
-1390,-6999,37027,1.0
-1400,-7460,37246,1.0
-1402,-7874,37216,1.0
-1403,-8299,37229,1.0
-1394,-8659,36950,1.0
-1394,-9089,36976,1.0
0,0,0,0.0
-1382,-9863,36682,1.0
0,0,0,0.0
0,0,0,0.0
0,0,0,0.0
0,0,0,0.0
-1355,-11930,36382,1.0
0,0,0,0.0
-1337,-12733,36164,1.0
0,0,0,0.0
-1300,-13386,35543,1.0
0,0,0,0.0
0,0,0,0.0
-1277,-14736,35577,1.0
0,0,0,0.0
-1245,-15504,35250,1.0
0,0,0,0.0
-1199,-16100,34554,1.0
0,0,0,0.0
0,0,0,0.0
0,0,0,0.0
0,0,0,0.0
0,0,0,0.0
-1084,-18405,33612,1.0
-1053,-18649,33199,1.0
0,0,0,0.0
-1003,-19308,32694,1.0
-974,-19587,32362,1.0
-945,-19855,32017,1.0
-912,-20055,31571,1.0
-883,-20335,31260,1.0
-853,-20590,30916,1.0
-821,-20827,30549,1.0
0,0,0,0.0
0,0,0,0.0
-724,-21561,29520,1.0
-696,-21944,29373,1.0
-663,-22205,29059,1.0
-630,-22456,28740,1.0
-596,-22667,28372,1.0
-350,-14261,17460,0.0
-321,-14150,16946,0.0
-297,-14106,16527,0.0
-270,-13992,16040,0.0
-245,-13895,15584,0.0
-223,-14055,15425,0.0
-198,-13902,14929,0.0
-175,-13884,14590,0.0
-154,-14018,14416,0.0
-133,-14258,14350,0.0
-112,-14510,14291,0.0
-91,-14775,14240,0.0
-69,-15042,14187,0.0
-46,-15309,14130,0.0
-23,-15588,14079,0.0
1,-15862,14018,0.0
26,-16139,13956,0.0
51,-16420,13891,0.0
0,-92,76,0.0
105,-16992,13757,0.0
133,-17304,13703,0.0
161,-17583,13618,0.0
0,-107,81,0.0
222,-18208,13485,0.0
253,-18519,13407,0.0
285,-18856,13346,0.0
319,-19182,13267,0.0
353,-19495,13177,0.0
388,-19846,13105,0.0
425,-20198,13027,0.0
463,-20554,12945,0.0
501,-20912,12859,0.0
541,-21286,12776,0.0
576,-21411,12539,0.0
59,-2099,1199,0.0
4,-149,83,0.0
4,-162,87,0.0
5,-182,96,0.0
5,-174,90,0.0
6,-192,96,0.0
7,-206,100,0.0
7,-209,98,0.0
7,-217,101,0.0
8,-213,95,0.0
9,-234,102,0.0
10,-242,102,0.0
11,-253,104,0.0
12,-260,104,0.0
13,-285,110,0.0
16,-326,121,0.0
17,-336,121,0.0
18,-339,118,0.0
18,-344,116,0.0
19,-338,110,0.0
19,-340,107,0.0
1892,14313,14102,0.0
1968,14928,15022,0.0
1879,14295,14695,0.0
1861,14202,14914,0.0
2123,16242,17424,0.0
2022,15504,16993,0.0
1716,13192,14771,0.0
1882,14493,16583,0.0
1883,14537,16996,0.0
1772,13702,16372,0.0
1762,13651,16672,0.0
1751,13586,16958,0.0
1740,13524,17258,0.0
1729,13451,17549,0.0
1719,13388,17860,0.0
1710,13318,18169,0.0
1698,13240,18476,0.0
1689,13162,18788,0.0
1680,13093,19124,0.0
1670,13009,19446,0.0
1660,12927,19780,0.0
1651,12845,20122,0.0
1642,12759,20470,0.0
1633,12673,20826,0.0
1625,12590,21202,0.0
1618,12501,21576,0.0
1612,12424,21986,0.0
1605,12329,22377,0.0
1598,12230,22773,0.0
1595,12157,23234,0.0
1589,12059,23664,0.0
1583,11957,24102,0.0
1578,11853,24554,0.0
1573,11747,25019,0.0
1194,8856,19401,0.0
1165,8583,19353,0.0
1137,8305,19284,0.0
1107,8023,19196,0.0
1083,7770,19168,0.0
1057,7510,19118,0.0
1033,7255,19072,0.0
1006,6983,18969,0.0
985,6751,18969,0.0
963,6503,18916,0.0
941,6259,18863,0.0
919,6015,18805,0.0
898,5776,18752,0.0
878,5539,18699,0.0
858,5305,18643,0.0
840,5081,18615,0.0
822,4852,18567,0.0
805,4632,18540,0.0
788,4406,18482,0.0
771,4181,18415,0.0
754,3956,18340,0.0
740,3747,18327,0.0
724,3530,18268,0.0
710,3317,18220,0.0
696,3106,18173,0.0
684,2902,18150,0.0
672,2698,18126,0.0
658,2486,18032,0.0
647,2284,18009,0.0
614,2015,17381,0.0
623,1875,17862,0.0
613,1677,17825,0.0
603,1480,17787,0.0
611,1322,18271,0.0
621,1158,18819,0.0
616,957,18883,0.0
631,782,19602,0.0
646,591,20294,0.0
0,0,0,0.0
0,0,0,0.0
0,0,0,0.0
1136,-519,37111,1.0
1127,-919,37108,1.0
1128,-1331,37446,1.0
0,0,0,0.0
1127,-2168,37924,1.0
0,0,0,0.0
0,0,0,0.0
0,0,0,0.0
1102,-3803,37810,1.0
1101,-4222,37885,1.0
1093,-4615,37709,1.0
1082,-4985,37380,1.0
0,0,0,0.0
1073,-5764,37097,1.0
1069,-6149,36947,1.0
0,0,0,0.0
0,0,0,0.0
1072,-7351,36783,1.0
0,0,0,0.0
0,0,0,0.0
0,0,0,0.0
0,0,0,0.0
1101,-9447,36825,1.0
1104,-9833,36680,1.0
1111,-10236,36604,1.0
1119,-10647,36549,1.0
1127,-11055,36481,1.0
0,0,0,0.0
0,0,0,0.0
0,0,0,0.0
0,0,0,0.0
1171,-12988,35787,1.0
1185,-13399,35715,1.0
0,0,0,0.0
0,0,0,0.0
0,0,0,0.0
0,0,0,0.0
0,0,0,0.0
0,0,0,0.0
1291,-16178,34873,1.0
1316,-16648,34896,1.0
0,0,0,0.0
0,0,0,0.0
0,0,0,0.0
1396,-18214,34295,1.0
0,0,0,0.0
0,0,0,0.0
0,0,0,0.0
0,0,0,0.0
0,0,0,0.0
1512,-20202,32737,1.0
1533,-20507,32444,1.0
0,0,0,0.0
1565,-20979,31659,1.0
0,0,0,0.0
1604,-21472,30934,1.0
1620,-21659,30497,1.0
0,0,0,0.0
1650,-21998,29601,1.0
1667,-22157,29153,1.0
1694,-22463,28904,1.0
1712,-22632,28484,1.0
1081,-14251,17544,0.0
1083,-14225,17130,0.0
1081,-14136,16655,0.0
1077,-14021,16164,0.0
1073,-13912,15693,0.0
1087,-14023,15478,0.0
1086,-13925,15041,0.0
1091,-13914,14708,0.0
1098,-13922,14402,0.0
1122,-14154,14330,0.0
1149,-14409,14276,0.0
1172,-14599,14155,0.0
1206,-14925,14164,0.0
1236,-15193,14110,0.0
1266,-15452,14043,0.0
1298,-15734,13992,0.0
1328,-15989,13914,0.0
1363,-16293,13873,0.0
1397,-16573,13807,0.0
1432,-16852,13734,0.0
1467,-17146,13668,0.0
1505,-17454,13608,0.0
1543,-17747,13533,0.0
1583,-18068,13472,0.0
1623,-18377,13398,0.0
1668,-18736,13352,0.0
1707,-19018,13248,0.0
1754,-19378,13190,0.0
1798,-19702,13103,0.0
1845,-20047,13024,0.0
1893,-20393,12939,0.0
1940,-20731,12843,0.0
1994,-21123,12774,0.0
2027,-21287,12562,0.0
201,-2099,1208,0.0
15,-160,89,0.0
14,-156,85,0.0
18,-188,100,0.0
19,-201,103,0.0
19,-193,97,0.0
20,-204,100,0.0
23,-230,110,0.0
22,-221,102,0.0
24,-236,106,0.0
24,-242,106,0.0
26,-250,107,0.0
28,-263,109,0.0
30,-278,111,0.0
32,-295,115,0.0
35,-324,122,0.0
37,-338,123,0.0
38,-346,122,0.0
38,-344,117,0.0
38,-342,112,0.0
40,-353,112,0.0
-4247,17041,15543,0.0
-4333,16985,15828,0.0
-4401,16850,16042,0.0
-4493,16802,16343,0.0
-4446,16236,16137,0.0
-4581,16343,16596,0.0
-4642,16174,16783,0.0
-4661,15863,16820,0.0
-4966,16507,17887,0.0
-5069,16451,18218,0.0
-5168,16380,18539,0.0
-5239,16215,18759,0.0
-5344,16150,19098,0.0
-5437,16042,19395,0.0
-5348,15403,19041,0.0
-5434,15277,19314,0.0
-5773,15840,20480,0.0
-8628,23100,30552,0.0
-6718,17548,23745,0.0
-6838,17423,24124,0.0
-6959,17292,24506,0.0
-7019,17009,24675,0.0
-7030,16608,24670,0.0
-7016,16156,24577,0.0
-7003,15714,24488,0.0
-6987,15274,24390,0.0
-6982,14862,24326,0.0
-6966,14436,24226,0.0
-6980,14080,24234,0.0
-9690,19017,33584,0.0
-9665,18448,33438,0.0
-9646,17900,33314,0.0
-9649,17400,33267,0.0
-9654,16911,33225,0.0
0,0,0,0.0
-8875,14647,30437,0.0
-8939,14310,30604,0.0
-8876,13772,30334,0.0
-9007,13539,30727,0.0
-6358,9252,21652,0.0
-9339,13148,31749,0.0
-6528,8885,22154,0.0
-6425,8447,21767,0.0
-6501,8250,21984,0.0
-6587,8060,22234,0.0
-6620,7804,22309,0.0
-6623,7514,22278,0.0
-6631,7232,22269,0.0
-6617,6929,22181,0.0
-6606,6632,22106,0.0
-6596,6339,22029,0.0
-6585,6050,21952,0.0
-6580,5769,21896,0.0
-6567,5485,21813,0.0
-6571,5217,21786,0.0
-6549,4932,21677,0.0
-6546,4664,21626,0.0
-6533,4391,21543,0.0
-6493,4105,21374,0.0
-6213,3680,20410,0.0
-6485,3586,21265,0.0
-6306,3241,20641,0.0
-6271,2978,20485,0.0
-6256,2730,20396,0.0
-6465,2573,21040,0.0
-6450,2320,20951,0.0
-6417,2064,20804,0.0
-6419,1824,20769,0.0
-6396,1576,20657,0.0
-6389,1335,20591,0.0
-6381,1097,20525,0.0
-6331,854,20324,0.0
-6345,622,20327,0.0
-5892,362,18839,0.0
-6185,154,19734,0.0
-6185,-70,19694,0.0
-6183,-294,19649,0.0
-6124,-513,19417,0.0
-6284,-753,19884,0.0
-6339,-986,20015,0.0
-6334,-1212,19957,0.0
-6313,-1433,19850,0.0
-6308,-1657,19790,0.0
-6290,-1876,19692,0.0
-6248,-2084,19517,0.0
-6298,-2324,19629,0.0
-6288,-2542,19554,0.0
-6290,-2765,19517,0.0
-6288,-2985,19465,0.0
-6283,-3203,19406,0.0
-6238,-3400,19221,0.0
-6272,-3637,19280,0.0
-6239,-3838,19135,0.0
-6263,-4071,19161,0.0
-6216,-4258,18970,0.0
-6234,-4489,18978,0.0
-6236,-4709,18939,0.0
-6217,-4912,18837,0.0
-6081,-5018,18377,0.0
-5907,-5081,17804,0.0
-5847,-5234,17579,0.0
-5844,-5437,17524,0.0
-5855,-5653,17511,0.0
-6145,-6151,18329,0.0
-6264,-6491,18634,0.0
-6225,-6671,18470,0.0
-6251,-6920,18496,0.0
-6213,-7098,18329,0.0
-6039,-7114,17766,0.0
-5922,-7187,17370,0.0
-6198,-7744,18128,0.0
-6270,-8059,18285,0.0
-6269,-8283,18227,0.0
-6270,-8510,18176,0.0
-6241,-8697,18036,0.0
-6269,-8965,18062,0.0
-6280,-9209,18034,0.0
-6196,-9315,17739,0.0
-5871,-9041,16753,0.0
-5869,-9256,16693,0.0
-5876,-9484,16656,0.0
-5872,-9697,16590,0.0
-6332,-10696,17829,0.0
-6354,-10971,17827,0.0
-6349,-11205,17751,0.0
-6367,-11480,17739,0.0
-6377,-11743,17701,0.0
-6380,-11995,17644,0.0
-6390,-12262,17605,0.0
-6397,-12527,17559,0.0
-6405,-12794,17510,0.0
-6401,-13040,17430,0.0
-6157,-12790,16699,0.0
-5908,-12512,15960,0.0
-6192,-13364,16656,0.0
-6201,-13636,16607,0.0
-5919,-13263,15786,0.0
-6452,-14724,17130,0.0
-6461,-15016,17076,0.0
-6474,-15318,17031,0.0
-6474,-15599,16955,0.0
-6486,-15907,16905,0.0
-6503,-16232,16866,0.0
-6512,-16542,16807,0.0
-6521,-16854,16744,0.0
-6528,-17165,16675,0.0
-6548,-17514,16637,0.0
-6562,-17853,16583,0.0
-6569,-18178,16510,0.0
-6585,-18535,16460,0.0
-6596,-18876,16390,0.0
-6607,-19229,16322,0.0
-6619,-19586,16254,0.0
-6615,-19898,16143,0.0
-6627,-20267,16071,0.0
-6639,-20638,15995,0.0
-6673,-21086,15971,0.0
-6673,-21434,15862,0.0
-6679,-21806,15767,0.0
-6620,-21970,15518,0.0
-6686,-22551,15558,0.0
-6608,-22650,15259,0.0
-557,-1942,1278,0.0
0,0,0,0.0
0,0,0,0.0
0,0,0,0.0
0,0,0,0.0
0,0,0,0.0
0,0,0,0.0
0,0,0,0.0
-535,-2127,1145,0.0
-529,-2136,1120,0.0
-521,-2141,1092,0.0
-41,-177,88,0.0
-43,-188,91,0.0
-43,-189,89,0.0
-46,-204,92,0.0
-49,-219,97,0.0
-53,-245,106,0.0
-57,-265,110,0.0
-57,-272,109,0.0
-63,-303,119,0.0
-66,-324,123,0.0
-67,-336,124,0.0
-68,-345,122,0.0
-68,-350,120,0.0
-65,-344,114,0.0
-63,-340,108,0.0
-65,-352,108,0.0
-62,-346,102,0.0
-61,-342,97,0.0
-61,-353,96,0.0
120,-316,63,0.0
115,-298,63,0.0
111,-285,64,0.0
111,-283,66,0.0
109,-275,67,0.0
111,-274,70,0.0
107,-261,70,0.0
111,-265,74,0.0
107,-255,75,0.0
107,-253,77,0.0
109,-254,80,0.0
111,-254,83,0.0
110,-249,85,0.0
111,-247,87,0.0
113,-249,91,0.0
115,-250,95,0.0
115,-247,96,0.0
116,-244,99,0.0
120,-249,104,0.0
118,-244,105,0.0
119,-239,107,0.0
118,-235,108,0.0
124,-244,116,0.0
125,-242,117,0.0
125,-241,120,0.0
127,-240,123,0.0
126,-235,124,0.0
136,-251,136,0.0
145,-265,148,0.0
150,-269,154,0.0
149,-263,155,0.0
143,-249,151,0.0
147,-252,156,0.0
137,-232,148,0.0
131,-220,143,0.0
128,-211,141,0.0
125,-202,139,0.0
122,-194,137,0.0
11655,-18244,13199,0.0
11603,-17893,13270,0.0
11559,-17560,13347,0.0
11512,-17225,13418,0.0
11477,-16911,13499,0.0
11419,-16567,13550,0.0
11390,-16269,13633,0.0
11350,-15959,13701,0.0
11303,-15640,13756,0.0
11266,-15340,13823,0.0
11239,-15056,13899,0.0
11205,-14765,13963,0.0
11166,-14471,14019,0.0
11139,-14195,14088,0.0
11114,-13923,14157,0.0
11272,-13880,14460,0.0
11492,-13905,14844,0.0
11719,-13931,15239,0.0
11888,-13880,15561,0.0
11893,-13635,15667,0.0
11894,-13387,15767,0.0
11874,-13116,15838,0.0
11873,-12867,15931,0.0
11907,-12658,16073,0.0
11902,-12405,16159,0.0
11899,-12157,16246,0.0
11897,-11910,16333,0.0
11904,-11673,16432,0.0
11905,-11430,16520,0.0
11916,-11199,16622,0.0
11917,-10958,16708,0.0
11927,-10726,16807,0.0
11924,-10482,16885,0.0
11909,-10229,16944,0.0
11930,-10007,17055,0.0
11918,-9756,17115,0.0
11945,-9539,17232,0.0
11930,-9288,17286,0.0
11950,-9066,17390,0.0
11936,-8818,17445,0.0
11946,-8587,17531,0.0
11952,-8353,17612,0.0
11950,-8114,17679,0.0
11932,-7865,17723,0.0
11945,-7638,17811,0.0
11948,-7402,17882,0.0
11972,-7180,17985,0.0
11945,-6928,18010,0.0
11961,-6701,18098,0.0
11958,-6462,18156,0.0
11957,-6225,18215,0.0
11966,-5994,18291,0.0
11970,-5760,18358,0.0
11976,-5525,18426,0.0
11975,-5288,18481,0.0
11962,-5046,18520,0.0
11971,-4812,18590,0.0
11962,-4573,18631,0.0
11978,-4341,18710,0.0
11990,-4108,18782,0.0
11982,-3868,18821,0.0
11978,-3629,18866,0.0
11973,-3389,18909,0.0
11978,-3151,18964,0.0
11990,-2915,19033,0.0
4315,-963,6867,0.0
4192,-852,6688,0.0
4055,-743,6484,0.0
3874,-632,6210,0.0
3723,-532,5982,0.0
3575,-439,5757,0.0
3438,-352,5547,0.0
3406,-280,5509,0.0
3389,-210,5494,0.0
3373,-140,5478,0.0
3177,-67,5169,0.0
3116,-2,5080,0.0
3084,60,5038,0.0
3098,124,5069,0.0
3094,188,5072,0.0
3510,286,5762,0.0
3527,361,5801,0.0
3545,436,5839,0.0
3571,515,5892,0.0
3590,594,5933,0.0
3599,671,5955,0.0
3617,750,5994,0.0
3649,836,6057,0.0
3665,917,6091,0.0
3678,999,6120,0.0
3712,1089,6185,0.0
3765,1187,6281,0.0
3803,1281,6351,0.0
3383,1213,5656,0.0
3321,1264,5559,0.0
3279,1321,5493,0.0
3425,1456,5744,0.0
3392,1518,5693,0.0
3359,1579,5642,0.0
3334,1642,5605,0.0
3319,1710,5584,0.0
30,17,52,0.0
33,18,56,0.0
42,24,72,0.0
40,25,70,0.0
47,30,80,0.0
52,34,90,0.0
45,30,78,0.0
42,30,72,0.0
47,34,80,0.0
55,41,94,0.0
55,42,92,0.0
50,40,86,0.0
59,49,101,0.0
60,51,101,0.0
63,55,107,0.0
60,54,102,0.0
63,59,108,0.0
64,61,110,0.0
61,60,105,0.0
62,63,106,0.0
64,66,109,0.0
63,67,107,0.0
65,72,112,0.0
65,73,111,0.0
66,75,111,0.0
64,75,109,0.0
64,78,109,0.0
67,83,114,0.0
69,87,117,0.0
68,89,116,0.0
67,88,113,0.0
71,95,120,0.0
68,93,114,0.0
71,100,120,0.0
69,100,117,0.0
72,105,120,0.0
73,110,122,0.0
71,110,120,0.0
77,120,129,0.0
72,114,119,0.0
72,119,121,0.0
75,125,125,0.0
73,123,120,0.0
73,127,121,0.0
76,134,126,0.0
75,134,122,0.0
75,139,124,0.0
74,140,121,0.0
77,147,125,0.0
76,149,124,0.0
79,158,128,0.0
77,157,125,0.0
78,161,125,0.0
116,-316,65,0.0
112,-297,64,0.0
111,-293,66,0.0
107,-280,67,0.0
106,-272,68,0.0
105,-268,70,0.0
109,-271,74,0.0
108,-266,75,0.0
108,-263,78,0.0
109,-261,81,0.0
110,-260,83,0.0
107,-248,82,0.0
110,-254,87,0.0
106,-242,87,0.0
111,-249,93,0.0
110,-245,94,0.0
114,-250,99,0.0
114,-247,101,0.0
116,-247,104,0.0
117,-244,106,0.0
119,-245,110,0.0
119,-244,113,0.0
121,-244,116,0.0
119,-237,116,0.0
122,-239,120,0.0
123,-238,124,0.0
128,-244,130,0.0
134,-252,139,0.0
143,-264,150,0.0
148,-269,155,0.0
149,-268,159,0.0
142,-253,154,0.0
145,-254,160,0.0
141,-243,156,0.0
127,-216,142,0.0
122,-204,138,0.0
120,-200,138,0.0
112,-183,129,0.0
11346,-18149,13225,0.0
11308,-17816,13307,0.0
11271,-17492,13389,0.0
11221,-17151,13452,0.0
11170,-16815,13513,0.0
11135,-16503,13587,0.0
11091,-16184,13651,0.0
11078,-15912,13748,0.0
11020,-15578,13788,0.0
10981,-15273,13848,0.0
10954,-14989,13920,0.0
10915,-14692,13977,0.0
10888,-14413,14045,0.0
10860,-14136,14112,0.0
10831,-13859,14173,0.0
11048,-13894,14556,0.0
11253,-13907,14927,0.0
11425,-13871,15256,0.0
11738,-13997,15776,0.0
11881,-13913,16070,0.0
11873,-13649,16159,0.0
11902,-13427,16297,0.0
11902,-13174,16393,0.0
11904,-12924,16492,0.0
11895,-12663,16574,0.0
11907,-12425,16683,0.0
11896,-12164,16758,0.0
11925,-11944,16889,0.0
11927,-11698,16981,0.0
11896,-11420,17025,0.0
11922,-11197,17147,0.0
11913,-10943,17220,0.0
11940,-10722,17343,0.0
11939,-10476,17424,0.0
11931,-10224,17493,0.0
11926,-9975,17565,0.0
11936,-9739,17658,0.0
11937,-9497,17738,0.0
11942,-9257,17820,0.0
11942,-9015,17896,0.0
11955,-8781,17990,0.0
11948,-8534,18051,0.0
11961,-8300,18141,0.0
11952,-8053,18200,0.0
11967,-7821,18291,0.0
11970,-7581,18365,0.0
11980,-7345,18448,0.0
11974,-7101,18505,0.0
11981,-6864,18581,0.0
11977,-6619,18638,0.0
11971,-6375,18692,0.0
11971,-6134,18754,0.0
11979,-5897,18829,0.0
11980,-5656,18890,0.0
11986,-5417,18958,0.0
11969,-5168,18989,0.0
11995,-4938,19089,0.0
11990,-4693,19136,0.0
11988,-4451,19188,0.0
11979,-4207,19229,0.0
11982,-3966,19287,0.0
11982,-3722,19339,0.0
11987,-3482,19399,0.0
11958,-3230,19402,0.0
11990,-2996,19502,0.0
4210,-966,6865,0.0
4117,-861,6730,0.0
4000,-755,6555,0.0
3806,-640,6251,0.0
3675,-542,6050,0.0
3517,-447,5804,0.0
3387,-361,5600,0.0
3345,-288,5542,0.0
3343,-218,5550,0.0
3226,-143,5369,0.0
3107,-74,5182,0.0
3057,-8,5106,0.0
3049,54,5103,0.0
3063,119,5135,0.0
3305,198,5551,0.0
3461,280,5823,0.0
3468,355,5845,0.0
3485,431,5883,0.0
3513,509,5940,0.0
3519,586,5961,0.0
3534,664,5994,0.0
3566,747,6057,0.0
3578,827,6086,0.0
3611,914,6151,0.0
3612,993,6159,0.0
3660,1087,6250,0.0
3690,1177,6310,0.0
3692,1260,6319,0.0
3370,1226,5775,0.0
3349,1293,5746,0.0
3235,1322,5556,0.0
3274,1412,5627,0.0
3328,1511,5725,0.0
3290,1570,5667,0.0
3265,1633,5628,0.0
28,14,49,0.0
30,16,53,0.0
44,24,76,0.0
32,19,57,0.0
39,23,67,0.0
50,32,88,0.0
51,34,90,0.0
48,33,85,0.0
47,34,82,0.0
51,39,91,0.0
51,38,88,0.0
58,47,102,0.0
63,51,109,0.0
59,50,103,0.0
63,55,111,0.0
62,55,108,0.0
66,61,117,0.0
59,55,104,0.0
57,55,100,0.0
63,63,110,0.0
68,70,118,0.0
62,65,109,0.0
59,64,102,0.0
64,71,111,0.0
66,75,116,0.0
62,72,107,0.0
64,76,111,0.0
63,78,109,0.0
65,81,112,0.0
63,82,110,0.0
66,87,115,0.0
67,90,116,0.0
64,88,110,0.0
65,91,113,0.0
67,96,116,0.0
70,104,122,0.0
71,107,123,0.0
69,106,118,0.0
69,107,119,0.0
70,112,120,0.0
67,110,116,0.0
70,116,119,0.0
71,121,121,0.0
72,126,123,0.0
69,122,117,0.0
72,130,122,0.0
74,137,126,0.0
73,138,124,0.0
74,142,124,0.0
74,145,125,0.0
75,149,125,0.0
76,155,127,0.0
73,152,122,0.0
73,155,122,0.0
115,-317,66,0.0
108,-294,65,0.0
111,-301,70,0.0
109,-290,71,0.0
105,-274,70,0.0
105,-273,72,0.0
105,-269,75,0.0
105,-268,77,0.0
107,-265,80,0.0
105,-258,81,0.0
105,-256,83,0.0
106,-254,86,0.0
109,-256,90,0.0
111,-258,93,0.0
110,-254,95,0.0
112,-254,99,0.0
113,-252,101,0.0
113,-249,103,0.0
114,-248,106,0.0
117,-252,110,0.0
116,-245,111,0.0
121,-253,118,0.0
120,-248,119,0.0
121,-246,122,0.0
122,-244,125,0.0
120,-238,124,0.0
125,-245,131,0.0
133,-256,142,0.0
145,-276,157,0.0
144,-269,157,0.0
138,-253,152,0.0
138,-252,156,0.0
140,-252,159,0.0
127,-226,146,0.0
127,-222,147,0.0
124,-213,145,0.0
119,-203,141,0.0
107,-178,128,0.0
11042,-18051,13247,0.0
10999,-17716,13324,0.0
10966,-17396,13407,0.0
10911,-17048,13460,0.0
10881,-16740,13540,0.0
10843,-16424,13609,0.0
10816,-16128,13690,0.0
10778,-15819,13753,0.0
10725,-15493,13797,0.0
10708,-15220,13882,0.0
10686,-14943,13960,0.0
10626,-14616,13985,0.0
10602,-14341,14056,0.0
10592,-14087,14142,0.0
10560,-13807,14198,0.0
10825,-13910,14653,0.0
11034,-13934,15037,0.0
11179,-13868,15333,0.0
11502,-14015,15878,0.0
11755,-14066,16329,0.0
11842,-13910,16551,0.0
11876,-13690,16698,0.0
11909,-13469,16842,0.0
11922,-13225,16958,0.0
11901,-12945,17022,0.0
11911,-12700,17131,0.0
11928,-12463,17248,0.0
11903,-12182,17302,0.0
11935,-11960,17439,0.0
11926,-11699,17515,0.0
11937,-11457,17617,0.0
11932,-11200,17697,0.0
11932,-10950,17782,0.0
11936,-10702,17870,0.0
11937,-10455,17955,0.0
11943,-10209,18044,0.0
11945,-9961,18126,0.0
11957,-9722,18223,0.0
11940,-9460,18274,0.0
11965,-9233,18391,0.0
11948,-8972,18438,0.0
11957,-8730,18525,0.0
11959,-8486,18602,0.0
11964,-8242,18681,0.0
11956,-7990,18739,0.0
11974,-7755,18835,0.0
11969,-7506,18898,0.0
11973,-7261,18970,0.0
11971,-7015,19035,0.0
11976,-6771,19107,0.0
11983,-6530,19183,0.0
11988,-6286,19255,0.0
11977,-6034,19299,0.0
11992,-5795,19385,0.0
11974,-5541,19415,0.0
11967,-5292,19462,0.0
11975,-5049,19534,0.0
11968,-4800,19580,0.0
11977,-4558,19651,0.0
11986,-4315,19720,0.0
11985,-4067,19772,0.0
11979,-3818,19816,0.0
12005,-3578,19912,0.0
11971,-3320,19906,0.0
11975,-3073,19964,0.0
4118,-972,6883,0.0
4046,-870,6779,0.0
3933,-764,6605,0.0
3759,-652,6327,0.0
3601,-549,6076,0.0
3465,-456,5860,0.0
3319,-367,5625,0.0
3280,-294,5571,0.0
3273,-224,5570,0.0
3166,-150,5400,0.0
3051,-80,5214,0.0
3011,-15,5156,0.0
3003,49,5151,0.0
3049,115,5240,0.0
3200,189,5509,0.0
3221,259,5555,0.0
3224,330,5570,0.0
3223,399,5576,0.0
3205,467,5557,0.0
3230,541,5609,0.0
3275,621,5695,0.0
3277,693,5705,0.0
3305,773,5763,0.0
3322,850,5801,0.0
3325,925,5814,0.0
3367,1013,5895,0.0
3342,1080,5858,0.0
3261,1128,5721,0.0
3258,1201,5724,0.0
3284,1286,5776,0.0
3202,1327,5639,0.0
3185,1394,5614,0.0
3203,1477,5652,0.0
3208,1554,5666,0.0
29,14,53,0.0
33,17,59,0.0
29,16,52,0.0
35,20,63,0.0
40,24,72,0.0
37,23,67,0.0
42,27,76,0.0
38,25,69,0.0
45,31,80,0.0
44,32,79,0.0
56,42,100,0.0
57,45,104,0.0
54,43,97,0.0
50,41,89,0.0
55,46,98,0.0
65,57,117,0.0
67,60,119,0.0
63,59,113,0.0
65,62,116,0.0
65,64,116,0.0
68,69,121,0.0
65,68,117,0.0
59,62,104,0.0
61,67,109,0.0
62,71,112,0.0
60,70,109,0.0
62,74,111,0.0
61,75,109,0.0
60,74,107,0.0
58,75,105,0.0
63,82,112,0.0
64,87,115,0.0
65,90,117,0.0
62,88,112,0.0
64,92,115,0.0
63,93,113,0.0
64,97,114,0.0
68,104,120,0.0
67,105,119,0.0
67,107,118,0.0
67,109,118,0.0
68,115,122,0.0
70,119,124,0.0
68,118,119,0.0
70,125,123,0.0
69,126,122,0.0
70,130,123,0.0
69,130,121,0.0
71,137,125,0.0
70,138,122,0.0
71,142,124,0.0
70,143,122,0.0
74,155,129,0.0
72,152,124,0.0
75,162,129,0.0
109,-308,65,0.0
110,-309,69,0.0
103,-285,67,0.0
106,-290,71,0.0
102,-275,71,0.0
101,-270,73,0.0
101,-266,75,0.0
101,-261,77,0.0
99,-254,78,0.0
103,-259,82,0.0
105,-260,86,0.0
106,-259,89,0.0
106,-255,90,0.0
106,-252,92,0.0
108,-254,97,0.0
110,-255,100,0.0
110,-253,103,0.0
112,-252,106,0.0
114,-253,109,0.0
116,-257,114,0.0
115,-250,115,0.0
119,-252,120,0.0
118,-250,121,0.0
118,-245,123,0.0
115,-235,121,0.0
122,-249,131,0.0
128,-256,139,0.0
137,-269,150,0.0
141,-274,156,0.0
142,-273,161,0.0
138,-261,157,0.0
138,-257,159,0.0
132,-241,153,0.0
127,-229,150,0.0
123,-218,146,0.0
121,-212,145,0.0
111,-191,134,0.0
98,-168,121,0.0
10757,-17985,13290,0.0
10717,-17651,13364,0.0
10670,-17307,13426,0.0
10638,-16994,13506,0.0
10571,-16630,13538,0.0
10526,-16302,13594,0.0
10501,-16011,13674,0.0
10484,-15732,13762,0.0
10448,-15429,13823,0.0
10416,-15136,13887,0.0
10405,-14874,13978,0.0
10337,-14535,13988,0.0
9940,-13744,13546,0.0
10307,-14014,14146,0.0
10364,-13853,14322,0.0
10558,-13868,14687,0.0
10838,-13989,15177,0.0
10972,-13914,15464,0.0
11279,-14047,15996,0.0
11557,-14135,16493,0.0
11660,-14000,16739,0.0
11892,-14013,17174,0.0
11894,-13752,17276,0.0
11903,-13498,17386,0.0
11897,-13228,17473,0.0
11903,-12972,17577,0.0
11912,-12723,17686,0.0
11918,-12469,17786,0.0
11901,-12192,17851,0.0
11932,-11965,17988,0.0
11935,-11711,18082,0.0
11921,-11440,18146,0.0
11940,-11201,18262,0.0
11921,-10928,18316,0.0
11931,-10682,18415,0.0
11882,-10385,18422,0.0
16325,-13919,25418,0.0
16315,-13565,25513,0.0
16318,-13221,25624,0.0
16684,-13164,26307,0.0
17087,-13120,27050,0.0
17299,-12919,27495,0.0
17194,-12477,27434,0.0
17340,-12218,27771,0.0
16564,-11323,26629,0.0
16320,-10813,26332,0.0
16331,-10477,26444,0.0
16310,-10122,26504,0.0
16341,-9799,26647,0.0
16326,-9449,26714,0.0
16326,-9105,26801,0.0
0,0,0,0.0
17388,-8969,28730,0.0
17336,-8580,28736,0.0
17236,-8169,28656,0.0
16339,-7401,27247,0.0
16324,-7052,27303,0.0
16343,-6718,27414,0.0
16331,-6371,27473,0.0
16640,-6142,28071,0.0
17107,-5955,28937,0.0
17150,-5609,29088,0.0
17266,-5284,29362,0.0
0,0,0,0.0
16773,-4424,28669,0.0
16357,-3969,28027,0.0
3940,-872,6769,0.0
3858,-773,6643,0.0
3751,-671,6474,0.0
3557,-561,6154,0.0
3440,-469,5964,0.0
3271,-375,5683,0.0
3206,-300,5582,0.0
3197,-230,5579,0.0
3049,-153,5332,0.0
2986,-86,5232,0.0
2960,-21,5197,0.0
2973,43,5230,0.0
3007,109,5299,0.0
3180,185,5615,0.0
3217,257,5688,0.0
3203,327,5675,0.0
3230,402,5731,0.0
3122,457,5550,0.0
3104,524,5525,0.0
3234,618,5767,0.0
3228,690,5764,0.0
3251,769,5813,0.0
3247,840,5812,0.0
3247,914,5821,0.0
3255,992,5844,0.0
3256,1067,5853,0.0
3206,1125,5771,0.0
3187,1192,5743,0.0
3206,1274,5784,0.0
3136,1320,5664,0.0
3141,1396,5679,0.0
3157,1478,5715,0.0
3165,1558,5735,0.0
3191,1647,5786,0.0
35,19,65,0.0
39,21,72,0.0
36,21,66,0.0
35,22,66,0.0
37,23,69,0.0
35,23,65,0.0
45,31,83,0.0
46,34,86,0.0
53,39,98,0.0
50,38,92,0.0
46,35,84,0.0
57,46,104,0.0
60,50,110,0.0
60,53,111,0.0
60,54,110,0.0
58,54,107,0.0
63,60,116,0.0
61,59,111,0.0
61,62,114,0.0
61,63,112,0.0
58,63,108,0.0
62,68,113,0.0
60,67,110,0.0
56,65,104,0.0
60,71,111,0.0
60,73,111,0.0
61,75,112,0.0
62,80,114,0.0
62,81,114,0.0
59,78,108,0.0
61,83,112,0.0
64,90,117,0.0
63,90,117,0.0
63,92,115,0.0
63,94,115,0.0
63,96,115,0.0
62,97,112,0.0
65,104,118,0.0
63,104,115,0.0
67,112,122,0.0
66,112,120,0.0
64,113,118,0.0
67,120,123,0.0
67,121,120,0.0
68,125,122,0.0
68,130,124,0.0
67,129,121,0.0
66,130,119,0.0
70,141,126,0.0
68,141,123,0.0
69,144,123,0.0
71,152,127,0.0
67,148,121,0.0
70,156,125,0.0
102,-298,64,0.0
97,-280,64,0.0
98,-281,67,0.0
99,-277,70,0.0
98,-271,71,0.0
97,-266,73,0.0
98,-264,75,0.0
97,-258,76,0.0
98,-258,80,0.0
97,-252,81,0.0
97,-248,83,0.0
101,-256,89,0.0
97,-242,87,0.0
102,-248,92,0.0
104,-251,96,0.0
108,-256,102,0.0
106,-249,101,0.0
106,-246,103,0.0
111,-254,111,0.0
110,-250,112,0.0
109,-241,112,0.0
114,-250,119,0.0
115,-247,121,0.0
113,-241,121,0.0
115,-241,125,0.0
116,-241,129,0.0
120,-244,134,0.0
137,-277,156,0.0
130,-257,148,0.0
134,-261,155,0.0
136,-263,160,0.0
130,-248,155,0.0
126,-236,151,0.0
123,-228,150,0.0
111,-203,137,0.0
109,-198,136,0.0
100,-177,125,0.0
10488,-18211,13220,0.0
10460,-17892,13310,0.0
10412,-17543,13370,0.0
10382,-17230,13452,0.0
10341,-16901,13516,0.0
10287,-16553,13561,0.0
10259,-16252,13636,0.0
10238,-15965,13718,0.0
10210,-15671,13790,0.0
10171,-15362,13843,0.0
10152,-15088,13923,0.0
10107,-14777,13964,0.0
10087,-14506,14037,0.0
10068,-14237,14109,0.0
9952,-13839,14044,0.0
10148,-13872,14418,0.0
10305,-13843,14737,0.0
10589,-13978,15242,0.0
10738,-13925,15554,0.0
11006,-14019,16041,0.0
11266,-14090,16520,0.0
11616,-14261,17135,0.0
11895,-14333,17648,0.0
11907,-14076,17767,0.0
11903,-13802,17859,0.0
11899,-13531,17952,0.0
11922,-13288,18083,0.0
11905,-13004,18153,0.0
16309,-17450,24996,0.0
16248,-17023,25027,0.0
16269,-16685,25183,0.0
16506,-16563,25673,0.0
16860,-16547,26349,0.0
17209,-16512,27021,0.0
17293,-16213,27274,0.0
17314,-15854,27430,0.0
17334,-15494,27583,0.0
16297,-14214,26045,0.0
16309,-13871,26175,0.0
16336,-13539,26327,0.0
16505,-13323,26708,0.0
16953,-13317,27542,0.0
17350,-13256,28297,0.0
17355,-12887,28415,0.0
17320,-12488,28464,0.0
17220,-12047,28404,0.0
16310,-11060,27001,0.0
16297,-10701,27074,0.0
16304,-10357,27181,0.0
16331,-10024,27320,0.0
16308,-9662,27372,0.0
16322,-9321,27487,0.0
16305,-8962,27547,0.0
17372,-9178,29443,0.0
17390,-8816,29566,0.0
17320,-8410,29536,0.0
16435,-7628,28111,0.0
16355,-7242,28058,0.0
16359,-6894,28146,0.0
16345,-6538,28201,0.0
0,0,0,0.0
16472,-5884,28578,0.0
0,0,0,0.0
0,0,0,0.0
0,0,0,0.0
16683,-4524,29244,0.0
16339,-4078,28714,0.0
3857,-879,6794,0.0
3814,-787,6736,0.0
3650,-674,6460,0.0
3502,-570,6213,0.0
3383,-478,6015,0.0
3236,-386,5767,0.0
3152,-307,5629,0.0
3146,-238,5630,0.0
3000,-160,5381,0.0
2941,-92,5285,0.0
2921,-27,5261,0.0
2926,37,5278,0.0
2938,102,5310,0.0
2946,169,5333,0.0
2958,236,5365,0.0
2983,305,5419,0.0
2980,372,5424,0.0
2990,441,5450,0.0
3005,511,5486,0.0
3000,580,5487,0.0
3012,651,5517,0.0
3028,724,5553,0.0
3036,796,5578,0.0
3042,869,5596,0.0
3059,945,5635,0.0
3064,1019,5650,0.0
3077,1095,5681,0.0
3080,1170,5695,0.0
3087,1246,5715,0.0
3090,1321,5728,0.0
3098,1399,5748,0.0
3118,1483,5790,0.0
3132,1567,5822,0.0
3147,1652,5857,0.0
3162,1738,5890,0.0
34,19,63,0.0
36,21,66,0.0
34,21,64,0.0
36,23,68,0.0
40,26,75,0.0
49,34,91,0.0
47,35,91,0.0
43,33,82,0.0
45,34,84,0.0
47,38,90,0.0
45,37,84,0.0
52,45,99,0.0
52,47,100,0.0
54,50,102,0.0
48,46,92,0.0
59,57,110,0.0
60,60,114,0.0
56,58,106,0.0
56,59,105,0.0
53,58,102,0.0
57,64,108,0.0
56,64,106,0.0
58,68,110,0.0
55,67,105,0.0
57,70,107,0.0
55,70,104,0.0
57,73,107,0.0
56,75,107,0.0
55,76,105,0.0
60,83,113,0.0
58,84,110,0.0
57,84,108,0.0
59,89,111,0.0
57,89,109,0.0
61,96,115,0.0
60,96,113,0.0
62,101,116,0.0
60,101,112,0.0
61,106,116,0.0
64,113,121,0.0
63,113,118,0.0
62,112,115,0.0
62,115,116,0.0
63,118,116,0.0
63,123,118,0.0
64,127,119,0.0
65,130,121,0.0
63,129,117,0.0
66,138,121,0.0
66,141,121,0.0
67,148,124,0.0
62,140,115,0.0
65,147,118,0.0
98,-294,65,0.0
100,-296,68,0.0
95,-277,67,0.0
95,-274,69,0.0
95,-269,72,0.0
90,-253,70,0.0
93,-258,75,0.0
96,-262,78,0.0
95,-254,79,0.0
97,-258,84,0.0
99,-261,88,0.0
100,-257,90,0.0
100,-253,92,0.0
100,-251,94,0.0
101,-253,98,0.0
102,-249,100,0.0
104,-250,103,0.0
103,-246,105,0.0
107,-251,110,0.0
109,-251,114,0.0
107,-244,114,0.0
110,-247,119,0.0
114,-251,124,0.0
113,-248,126,0.0
113,-244,127,0.0
115,-242,130,0.0
123,-258,143,0.0
127,-263,149,0.0
133,-271,157,0.0
132,-265,158,0.0
130,-259,158,0.0
127,-248,156,0.0
118,-225,146,0.0
111,-211,139,0.0
109,-203,137,0.0
106,-193,135,0.0
10231,-18458,13164,0.0
10207,-18143,13258,0.0
10178,-17822,13344,0.0
10135,-17480,13407,0.0
10096,-17149,13474,0.0
10050,-16810,13527,0.0
10006,-16479,13581,0.0
9983,-16185,13660,0.0
9968,-15909,13751,0.0
9926,-15591,13799,0.0
9912,-15321,13885,0.0
9862,-14998,13917,0.0
9839,-14721,13988,0.0
9815,-14443,14053,0.0
9802,-14182,14130,0.0
9768,-13897,14178,0.0
9933,-13893,14514,0.0
10149,-13949,14925,0.0
10306,-13920,15255,0.0
10521,-13959,15668,0.0
10783,-14052,16157,0.0
11022,-14104,16614,0.0
11356,-14263,17217,0.0
16326,-20127,24896,0.0
16515,-19975,25324,0.0
16794,-19924,25894,0.0
17006,-19783,26362,0.0
17126,-19529,26689,0.0
0,0,0,0.0
16278,-17817,25627,0.0
16278,-17448,25755,0.0
16284,-17086,25891,0.0
16328,-16763,26085,0.0
16666,-16735,26749,0.0
17019,-16707,27441,0.0
17320,-16616,28054,0.0
17373,-16278,28262,0.0
17312,-15834,28286,0.0
16312,-14558,26767,0.0
16329,-14210,26905,0.0
16326,-13847,27011,0.0
16378,-13529,27206,0.0
16734,-13454,27907,0.0
17178,-13433,28759,0.0
17344,-13180,29145,0.0
17348,-12804,29261,0.0
17365,-12435,29397,0.0
16321,-11331,27730,0.0
16333,-10981,27849,0.0
16349,-10634,27972,0.0
16317,-10257,28012,0.0
16339,-9915,28144,0.0
16362,-9571,28276,0.0
16360,-9213,28364,0.0
17404,-9421,30267,0.0
17367,-9022,30297,0.0
17323,-8621,30312,0.0
16458,-7831,28884,0.0
16397,-7444,28862,0.0
16346,-7064,28854,0.0
16363,-6713,28965,0.0
16704,-6489,29652,0.0
0,0,0,0.0
0,0,0,0.0
16798,-5422,30058,0.0
16779,-5047,30101,0.0
16651,-4642,29945,0.0
16378,-4206,29527,0.0
3799,-892,6867,0.0
3735,-794,6766,0.0
3585,-683,6511,0.0
3431,-578,6245,0.0
3312,-483,6041,0.0
3188,-394,5829,0.0
3067,-311,5619,0.0
3045,-241,5592,0.0
2951,-167,5429,0.0
2893,-98,5333,0.0
2887,-33,5334,0.0
2891,32,5351,0.0
2894,97,5367,0.0
2904,163,5396,0.0
2910,231,5415,0.0
2965,303,5528,0.0
2981,373,5566,0.0
3003,445,5615,0.0
3040,522,5696,0.0
3058,596,5739,0.0
3115,681,5854,0.0
3207,776,6035,0.0
3272,869,6166,0.0
3334,965,6292,0.0
3353,1050,6337,0.0
3402,1147,6438,0.0
3424,1238,6489,0.0
3491,1347,6626,0.0
3539,1451,6723,0.0
3575,1554,6800,0.0
3617,1661,6888,0.0
3661,1772,6979,0.0
23,11,44,0.0
29,16,56,0.0
22,11,43,0.0
31,18,60,0.0
35,22,70,0.0
29,18,56,0.0
42,27,82,0.0
38,26,74,0.0
43,30,83,0.0
47,34,92,0.0
48,36,92,0.0
41,33,80,0.0
40,33,79,0.0
52,44,101,0.0
57,49,109,0.0
53,48,104,0.0
47,44,93,0.0
54,52,105,0.0
58,58,112,0.0
56,57,109,0.0
58,61,113,0.0
56,60,108,0.0
52,58,102,0.0
58,66,114,0.0
52,62,103,0.0
55,66,106,0.0
55,68,107,0.0
57,73,112,0.0
51,66,100,0.0
55,73,108,0.0
55,75,108,0.0
56,78,109,0.0
56,80,109,0.0
55,81,108,0.0
55,84,109,0.0
57,88,111,0.0
56,88,108,0.0
56,89,109,0.0
56,93,110,0.0
56,94,109,0.0
59,101,115,0.0
59,101,113,0.0
62,110,119,0.0
60,110,116,0.0
61,114,117,0.0
61,117,119,0.0
61,118,117,0.0
60,118,115,0.0
60,122,116,0.0
61,128,118,0.0
61,130,118,0.0
62,135,119,0.0
64,142,123,0.0
65,145,123,0.0
61,141,116,0.0
64,148,121,0.0
93,-288,65,0.0
93,-282,66,0.0
92,-278,68,0.0
90,-267,69,0.0
86,-252,68,0.0
89,-256,72,0.0
91,-259,76,0.0
91,-258,78,0.0
90,-248,79,0.0
94,-255,85,0.0
93,-251,86,0.0
94,-249,88,0.0
96,-249,92,0.0
94,-242,92,0.0
100,-252,98,0.0
99,-249,100,0.0
99,-246,103,0.0
101,-247,106,0.0
105,-253,112,0.0
104,-247,113,0.0
104,-244,115,0.0
107,-245,119,0.0
109,-248,124,0.0
109,-246,126,0.0
110,-243,128,0.0
116,-252,136,0.0
124,-266,148,0.0
124,-263,151,0.0
125,-261,153,0.0
123,-253,152,0.0
127,-258,159,0.0
122,-242,154,0.0
117,-229,149,0.0
110,-212,142,0.0
105,-201,137,0.0
103,-196,137,0.0
9943,-18374,13190,0.0
9917,-18055,13279,0.0
9875,-17709,13343,0.0
9845,-17389,13421,0.0
9814,-17071,13495,0.0
9793,-16773,13579,0.0
9740,-16427,13619,0.0
9719,-16135,13697,0.0
9682,-15821,13752,0.0
9660,-15536,13827,0.0
9648,-15270,13914,0.0
9601,-14948,13946,0.0
9572,-14662,14006,0.0
9558,-14399,14083,0.0
9529,-14115,14136,0.0
9504,-13843,14194,0.0
9700,-13886,14580,0.0
9872,-13891,14936,0.0
10033,-13870,15272,0.0
10294,-13980,15767,0.0
10565,-14091,16279,0.0
10795,-14138,16732,0.0
11079,-14244,17272,0.0
16286,-20549,25532,0.0
16253,-20121,25622,0.0
16591,-20146,26296,0.0
16806,-20010,26778,0.0
16853,-19669,26992,0.0
0,0,0,0.0
0,0,0,0.0
16296,-17878,26494,0.0
16316,-17523,26656,0.0
16327,-17157,26798,0.0
16447,-16905,27122,0.0
16796,-16878,27822,0.0
17169,-16859,28567,0.0
17335,-16627,28969,0.0
17323,-16221,29074,0.0
0,0,0,0.0
16275,-14500,27541,0.0
16327,-14177,27742,0.0
16362,-13838,27910,0.0
16587,-13655,28406,0.0
17044,-13647,29300,0.0
17387,-13531,30002,0.0
17157,-12967,29713,0.0
17398,-12759,30241,0.0
16357,-11630,28532,0.0
16324,-11242,28574,0.0
16319,-10874,28665,0.0
16349,-10529,28813,0.0
16333,-10154,28879,0.0
16329,-9787,28967,0.0
16360,-9441,29114,0.0
17401,-9655,31063,0.0
17421,-9277,31195,0.0
17386,-8871,31227,0.0
16600,-8101,29904,0.0
16359,-7618,29555,0.0
16380,-7262,29678,0.0
16368,-6892,29740,0.0
16726,-6670,30473,0.0
17201,-6475,31423,0.0
0,0,0,0.0
0,0,0,0.0
16581,-5128,30528,0.0
16455,-4719,30370,0.0
16382,-4330,30311,0.0
16387,-3962,30394,0.0
3657,-802,6801,0.0
3535,-695,6588,0.0
3406,-592,6363,0.0
3255,-492,6094,0.0
3139,-404,5889,0.0
3002,-317,5645,0.0
2972,-246,5601,0.0
2919,-175,5512,0.0
2851,-105,5394,0.0
2836,-39,5376,0.0
2851,26,5416,0.0
2878,92,5475,0.0
3138,174,5982,0.0
3146,248,6009,0.0
3149,322,6025,0.0
3178,401,6092,0.0
3184,476,6113,0.0
3199,554,6152,0.0
3209,633,6181,0.0
3217,711,6206,0.0
3254,798,6288,0.0
3282,884,6351,0.0
3305,970,6404,0.0
3335,1060,6473,0.0
3365,1153,6539,0.0
3374,1239,6566,0.0
3430,1344,6684,0.0
3471,1447,6770,0.0
3505,1549,6846,0.0
3544,1656,6932,0.0
22,10,43,0.0
20,9,39,0.0
17,9,35,0.0
16,9,32,0.0
20,12,41,0.0
22,14,46,0.0
30,20,61,0.0
40,27,80,0.0
34,23,67,0.0
43,31,87,0.0
33,25,66,0.0
39,30,77,0.0
43,35,86,0.0
47,38,93,0.0
45,38,89,0.0
47,42,94,0.0
52,48,104,0.0
56,53,111,0.0
50,50,102,0.0
52,52,103,0.0
52,54,104,0.0
50,54,101,0.0
57,62,113,0.0
49,56,99,0.0
55,63,109,0.0
51,61,102,0.0
49,60,99,0.0
51,65,104,0.0
52,67,105,0.0
50,67,101,0.0
52,70,103,0.0
54,75,107,0.0
52,74,105,0.0
50,74,102,0.0
