//X,Y,Z,Classification
-9726,-16051,22179,0.0
-9744,-16400,22121,0.0
-9773,-16770,22086,0.0
-9780,-17105,21998,0.0
-9804,-17474,21950,0.0
-9814,-17822,21870,0.0
-9836,-18195,21811,0.0
-9430,-17764,20806,0.0
-9319,-17873,20457,0.0
-9353,-18262,20428,0.0
-9422,-18722,20466,0.0
-9363,-18934,20231,0.0
-9954,-20480,21390,0.0
-9977,-20882,21319,0.0
-10003,-21295,21252,0.0
-10025,-21705,21176,0.0
-10060,-22145,21121,0.0
-10064,-22524,20999,0.0
-10115,-23014,20974,0.0
-10130,-23427,20870,0.0
-10142,-23839,20759,0.0
-10114,-24161,20565,0.0
-10148,-24633,20491,0.0
-10182,-25110,20413,0.0
-10093,-25289,20092,0.0
-9930,-25276,19622,0.0
-708,-1833,1390,0.0
-718,-1889,1400,0.0
0,0,0,0.0
0,0,0,0.0
-686,-1889,1304,0.0
0,0,0,0.0
-699,-1982,1304,0.0
0,0,0,0.0
-680,-1990,1247,0.0
-676,-2009,1227,0.0
-671,-2027,1207,0.0
0,0,0,0.0
-664,-2068,1171,0.0
0,0,0,0.0
0,0,0,0.0
-658,-2141,1119,0.0
-652,-2156,1099,0.0
-638,-2140,1061,0.0
-635,-2164,1043,0.0
-51,-179,84,0.0
-54,-192,87,0.0
-56,-203,89,0.0
-61,-225,97,0.0
-63,-235,98,0.0
-69,-262,106,0.0
-76,-290,113,0.0
-86,-332,125,0.0
-88,-347,126,0.0
-85,-344,121,0.0
-86,-350,119,0.0
-84,-345,114,0.0
-83,-350,111,0.0
-82,-346,106,0.0
-80,-348,102,0.0
-81,-353,100,0.0
-78,-347,94,0.0
-77,-350,91,0.0
-4626,15653,14000,0.0
-4713,15601,14256,0.0
-4801,15543,14512,0.0
-4890,15485,14774,0.0
-4983,15434,15046,0.0
-5035,15252,15193,0.0
-5283,15653,15934,0.0
-5110,14803,15399,0.0
-5299,15012,15959,0.0
-5258,14565,15826,0.0
-5269,14270,15847,0.0
-6275,16612,18857,0.0
-6222,16099,18681,0.0
-6153,15561,18461,0.0
-5984,14790,17941,0.0
-6117,14771,18323,0.0
-5948,14031,17802,0.0
-6176,14230,18468,0.0
-6190,13931,18496,0.0
-6202,13627,18514,0.0
-11653,24995,34755,0.0
-10161,21271,30276,0.0
-10200,20835,30366,0.0
-10182,20288,30280,0.0
-10234,19888,30408,0.0
-10275,19467,30498,0.0
-10288,18998,30507,0.0
-10397,18706,30796,0.0
-10442,18302,30900,0.0
-10418,17777,30793,0.0
-11381,18902,33603,0.0
-11360,18357,33506,0.0
-11338,17819,33406,0.0
-11316,17286,33301,0.0
-11286,16751,33174,0.0
-11268,16240,33083,0.0
-11248,15735,32986,0.0
-10180,13814,29819,0.0
-11204,14737,32776,0.0
-10200,12999,29803,0.0
-10179,12560,29707,0.0
-10226,12205,29804,0.0
-10454,12061,30430,0.0
-10485,11683,30480,0.0
-11030,11860,32024,0.0
-11065,11471,32086,0.0
0,0,0,0.0
-11037,10599,31917,0.0
0,0,0,0.0
0,0,0,0.0
0,0,0,0.0
0,0,0,0.0
-10964,8497,31479,0.0
-11131,8224,31913,0.0
-9255,6506,26492,0.0
-9458,6311,27035,0.0
-9564,6044,27295,0.0
-9554,5702,27225,0.0
-9500,5339,27031,0.0
-9481,4999,26932,0.0
-9523,4693,27006,0.0
-9551,4380,27043,0.0
-9552,4055,26998,0.0
-9519,3720,26864,0.0
-9512,3397,26799,0.0
-9502,3076,26722,0.0
-9485,2755,26630,0.0
-9470,2437,26542,0.0
-9457,2122,26455,0.0
-9415,1804,26292,0.0
-9431,1500,26290,0.0
-9031,1142,25127,0.0
-9269,872,25742,0.0
-9125,565,25295,0.0
-9043,270,25019,0.0
-9056,-18,25004,0.0
-9287,-314,25593,0.0
-9313,-612,25614,0.0
-9335,-909,25622,0.0
-9323,-1202,25538,0.0
-9324,-1495,25486,0.0
-9323,-1787,25430,0.0
-9312,-2077,25348,0.0
-9296,-2364,25251,0.0
-9295,-2653,25193,0.0
-9290,-2941,25123,0.0
-9060,-3150,24448,0.0
-9269,-3509,24952,0.0
-9267,-3796,24891,0.0
-9255,-4077,24801,0.0
-9252,-4361,24736,0.0
-9240,-4641,24642,0.0
-9220,-4915,24532,0.0
-9229,-5204,24497,0.0
-8973,-5336,23759,0.0
-8980,-5617,23716,0.0
-9066,-5950,23884,0.0
-9204,-6323,24185,0.0
-9199,-6602,24108,0.0
-9197,-6884,24038,0.0
-8806,-6863,22955,0.0
-8744,-7084,22731,0.0
-9174,-7715,23782,0.0
-9182,-8006,23737,0.0
-9183,-8291,23672,0.0
-9190,-8582,23622,0.0
-8969,-8653,22984,0.0
-8965,-8927,22906,0.0
-9067,-9312,23099,0.0
-9192,-9727,23345,0.0
-9063,-9874,22948,0.0
-9106,-10205,22982,0.0
-9204,-10605,23156,0.0
-9207,-10897,23086,0.0
-9212,-11195,23024,0.0
-9161,-11423,22820,0.0
-8980,-11483,22294,0.0
-9231,-12098,22836,0.0
-9257,-12429,22821,0.0
-9262,-12732,22751,0.0
-9271,-13044,22690,0.0
-9284,-13363,22638,0.0
-9299,-13687,22591,0.0
-9312,-14011,22535,0.0
-9131,-14038,22012,0.0
-9081,-14261,21805,0.0
-9092,-14579,21743,0.0
-9350,-15305,22268,0.0
-9377,-15663,22239,0.0
-9120,-15541,21538,0.0
-9394,-16325,22088,0.0
-9417,-16687,22045,0.0
-9439,-17051,21999,0.0
-9460,-17416,21948,0.0
-9465,-17752,21854,0.0
-9470,-18094,21762,0.0
-9480,-18445,21679,0.0
-9001,-17833,20481,0.0
-8899,-17949,20148,0.0
-8890,-18251,20023,0.0
-8908,-18614,19961,0.0
-9372,-19925,20887,0.0
-9394,-20320,20822,0.0
-9626,-21180,21218,0.0
-9657,-21609,21163,0.0
-9682,-22034,21096,0.0
-9695,-22432,20996,0.0
-9724,-22876,20933,0.0
-9747,-23309,20850,0.0
-9777,-23767,20781,0.0
-9706,-23978,20495,0.0
-9714,-24387,20374,0.0
-9774,-24937,20362,0.0
-9757,-25292,20184,0.0
-9591,-25261,19698,0.0
0,0,0,0.0
-678,-1844,1373,0.0
0,0,0,0.0
-696,-1953,1387,0.0
0,0,0,0.0
-668,-1934,1310,0.0
0,0,0,0.0
-658,-1964,1267,0.0
0,0,0,0.0
0,0,0,0.0
0,0,0,0.0
0,0,0,0.0
0,0,0,0.0
-632,-2068,1147,0.0
-634,-2110,1140,0.0
-643,-2169,1142,0.0
-626,-2147,1100,0.0
-611,-2127,1060,0.0
-615,-2175,1055,0.0
-608,-2181,1028,0.0
-55,-203,92,0.0
-62,-233,103,0.0
-60,-230,99,0.0
-63,-244,102,0.0
-70,-272,110,0.0
-70,-280,110,0.0
-80,-323,123,0.0
-82,-337,124,0.0
-82,-340,121,0.0
-80,-337,116,0.0
-79,-342,114,0.0
-77,-336,107,0.0
-77,-341,105,0.0
-77,-343,102,0.0
-74,-339,97,0.0
-73,-341,93,0.0
-73,-345,90,0.0
-4069,15596,14159,0.0
-4151,15549,14422,0.0
-4233,15496,14685,0.0
-4316,15437,14947,0.0
-4401,15379,15215,0.0
-4486,15321,15488,0.0
-4546,15170,15669,0.0
-4662,15198,16042,0.0
-4675,14891,16062,0.0
-4773,14852,16371,0.0
-4773,14505,16342,0.0
-4791,14225,16383,0.0
-5125,14860,17495,0.0
-5229,14805,17820,0.0
-5335,14752,18156,0.0
-5388,14546,18306,0.0
-5514,14533,18706,0.0
-5348,13756,18111,0.0
-5539,13907,18733,0.0
-5606,13732,18928,0.0
-5631,13456,18983,0.0
0,0,0,0.0
-6972,15848,23433,0.0
-7114,15765,23872,0.0
-7241,15636,24257,0.0
-7252,15261,24258,0.0
-7258,14877,24240,0.0
-7257,14486,24198,0.0
-7251,14090,24141,0.0
-7248,13705,24091,0.0
-7209,13262,23928,0.0
-7177,12839,23784,0.0
-7193,12507,23800,0.0
-10046,16968,33182,0.0
-10039,16468,33109,0.0
-10009,15936,32957,0.0
-9999,15443,32871,0.0
-10006,14984,32844,0.0
-9233,13396,30257,0.0
-9226,12960,30183,0.0
-9218,12531,30110,0.0
-9248,12157,30159,0.0
-9366,11895,30494,0.0
-9915,12156,32229,0.0
-9844,11639,31943,0.0
-9888,11265,32035,0.0
-9856,10808,31878,0.0
-9811,10344,31681,0.0
0,0,0,0.0
0,0,0,0.0
0,0,0,0.0
-9780,8694,31365,0.0
-9830,8341,31474,0.0
-10050,8125,32123,0.0
-8428,6479,26894,0.0
-8621,6287,27462,0.0
-8628,5955,27436,0.0
-8528,5553,27065,0.0
-8509,5214,26963,0.0
-8503,4884,26894,0.0
-8578,4601,27080,0.0
-8568,4271,27001,0.0
-8559,3945,26922,0.0
-8543,3620,26824,0.0
-8542,3302,26771,0.0
-8513,2977,26630,0.0
-8513,2665,26579,0.0
-8505,2352,26506,0.0
-8315,1998,25862,0.0
-8116,1657,25197,0.0
-8100,1363,25097,0.0
-8098,1073,25043,0.0
-8100,785,25002,0.0
-8096,498,24939,0.0
-8093,212,24877,0.0
-8092,-71,24824,0.0
-8116,-357,24848,0.0
-8241,-649,25180,0.0
-8329,-947,25397,0.0
-8390,-1244,25528,0.0
-8377,-1532,25433,0.0
-8376,-1821,25376,0.0
-8365,-2106,25288,0.0
-8362,-2392,25224,0.0
-8350,-2676,25133,0.0
-8343,-2958,25054,0.0
-8346,-3245,25009,0.0
-8333,-3523,24916,0.0
-8325,-3802,24833,0.0
-8326,-4086,24781,0.0
-8311,-4362,24679,0.0
-8315,-4646,24633,0.0
-8310,-4924,24558,0.0
-8304,-5201,24478,0.0
-8299,-5479,24405,0.0
-8285,-5751,24304,0.0
-8286,-6031,24246,0.0
-8285,-6311,24185,0.0
-8276,-6585,24098,0.0
-8182,-6786,23760,0.0
-8265,-7136,23942,0.0
-8252,-7405,23839,0.0
-8246,-7681,23761,0.0
-8261,-7975,23738,0.0
-8242,-8238,23620,0.0
-8230,-8506,23519,0.0
-8243,-8803,23491,0.0
-8266,-9109,23488,0.0
-8259,-9387,23403,0.0
-8265,-9676,23348,0.0
-8280,-9980,23322,0.0
-8269,-10253,23221,0.0
-8263,-10533,23136,0.0
-8272,-10833,23090,0.0
-8271,-11121,23015,0.0
-8280,-11423,22966,0.0
-8270,-11699,22863,0.0
-8297,-12031,22864,0.0
-8302,-12333,22803,0.0
-8318,-12654,22771,0.0
-8317,-12949,22689,0.0
-8334,-13277,22659,0.0
-8342,-13591,22601,0.0
-8347,-13902,22533,0.0
-8359,-14227,22484,0.0
-8363,-14540,22410,0.0
-8372,-14866,22352,0.0
-8378,-15188,22282,0.0
-8391,-15527,22232,0.0
-8404,-15866,22177,0.0
-8410,-16195,22104,0.0
-8425,-16545,22053,0.0
-8436,-16892,21992,0.0
-8449,-17245,21934,0.0
-8454,-17585,21852,0.0
-8467,-17944,21788,0.0
-8442,-18225,21627,0.0
-8444,-18566,21533,0.0
-8475,-18977,21513,0.0
-8292,-18901,20948,0.0
-8216,-19066,20658,0.0
-8502,-20080,21269,0.0
-8566,-20590,21324,0.0
-8592,-21015,21279,0.0
-8554,-21285,21074,0.0
-8617,-21810,21114,0.0
-8629,-22217,21030,0.0
-8650,-22650,20964,0.0
-8669,-23084,20889,0.0
-8693,-23539,20827,0.0
-8660,-23841,20624,0.0
-8639,-24180,20448,0.0
-8656,-24628,20359,0.0
-8749,-25302,20446,0.0
-8603,-25289,19974,0.0
-8432,-25194,19447,0.0
-599,-1821,1373,0.0
-604,-1868,1377,0.0
-600,-1883,1355,0.0
-598,-1906,1341,0.0
-583,-1890,1298,0.0
-595,-1961,1315,0.0
0,0,0,0.0
-572,-1946,1243,0.0
-588,-2033,1267,0.0
0,0,0,0.0
-543,-1938,1150,0.0
0,0,0,0.0
-567,-2090,1179,0.0
-548,-2050,1127,0.0
-560,-2130,1140,0.0
-554,-2140,1115,0.0
-547,-2147,1090,0.0
-534,-2131,1053,0.0
-38,-154,74,0.0
-45,-190,88,0.0
-44,-190,86,0.0
-51,-219,97,0.0
-56,-247,105,0.0
-57,-253,105,0.0
-62,-282,113,0.0
-64,-296,115,0.0
-71,-334,125,0.0
-71,-340,124,0.0
-71,-346,122,0.0
-70,-343,117,0.0
-67,-337,111,0.0
-67,-342,108,0.0
-67,-346,105,0.0
-67,-349,102,0.0
-64,-344,97,0.0
-64,-348,94,0.0
-3331,15571,14390,0.0
-3403,15513,14647,0.0
-3474,15447,14901,0.0
-3548,15386,15163,0.0
-3628,15342,15448,0.0
-3704,15283,15722,0.0
-3782,15223,16002,0.0
-3856,15134,16255,0.0
-3935,15067,16538,0.0
-3878,14483,16247,0.0
-4081,14867,17044,0.0
-4099,14568,17071,0.0
-4078,14134,16931,0.0
-4359,14733,18043,0.0
-4456,14689,18393,0.0
-4546,14610,18708,0.0
-4638,14534,19034,0.0
-4731,14452,19359,0.0
-4679,13933,19095,0.0
-4845,14061,19719,0.0
-4850,13714,19685,0.0
-4863,13399,19689,0.0
-5237,14053,21142,0.0
-5354,13992,21561,0.0
-5465,13905,21950,0.0
-5581,13823,22361,0.0
-5698,13734,22773,0.0
-5819,13645,23198,0.0
-5931,13527,23588,0.0
-6052,13418,24009,0.0
-6027,12987,23853,0.0
-6096,12762,24066,0.0
-6139,12481,24180,0.0
-8415,16605,33062,0.0
-8432,16145,33054,0.0
-7088,13162,27721,0.0
-8414,15143,32831,0.0
-8397,14641,32689,0.0
-8395,14171,32607,0.0
-7811,12757,30272,0.0
-7856,12406,30376,0.0
-8056,12291,31080,0.0
-8108,11942,31211,0.0
-8258,11732,31719,0.0
-8377,11470,32104,0.0
-8354,11013,31946,0.0
-8339,10572,31817,0.0
-8341,10160,31759,0.0
-8316,9720,31595,0.0
-8314,9311,31519,0.0
-8307,8902,31424,0.0
-8304,8502,31347,0.0
-8433,8233,31760,0.0
-7034,6537,26437,0.0
-7203,6360,27015,0.0
-7311,6117,27359,0.0
-7325,5795,27356,0.0
-7309,5451,27237,0.0
-7309,5122,27180,0.0
-7303,4792,27101,0.0
-7299,4467,27027,0.0
-7290,4141,26937,0.0
-7281,3818,26848,0.0
-7270,3497,26749,0.0
-7271,3185,26697,0.0
-7253,2867,26575,0.0
-7256,2559,26528,0.0
-7249,2250,26447,0.0
-7238,1944,26354,0.0
-7229,1639,26260,0.0
-6906,1279,25035,0.0
-6907,993,24983,0.0
-6938,712,25047,0.0
-7125,440,25660,0.0
-7073,148,25420,0.0
-7193,-140,25797,0.0
-7138,-428,25546,0.0
-7117,-713,25413,0.0
-7128,-1000,25398,0.0
-7121,-1284,25315,0.0
-7115,-1567,25243,0.0
-7110,-1849,25165,0.0
-7073,-2120,24980,0.0
-7074,-2401,24928,0.0
-6959,-2637,24466,0.0
-6962,-2912,24425,0.0
-6778,-3102,23724,0.0
-7084,-3520,24741,0.0
-7083,-3797,24679,0.0
-7083,-4075,24623,0.0
-7074,-4347,24535,0.0
-7066,-4618,24450,0.0
-7064,-4893,24382,0.0
-7060,-5167,24316,0.0
-7063,-5444,24266,0.0
-7057,-5715,24188,0.0
-7026,-5965,24023,0.0
-7046,-6257,24033,0.0
-7045,-6532,23973,0.0
-7029,-6792,23860,0.0
-6988,-7026,23659,0.0
-7023,-7338,23719,0.0
-7027,-7619,23672,0.0
-7018,-7884,23581,0.0
-6895,-8020,23111,0.0
-6896,-8293,23053,0.0
-6891,-8561,22978,0.0
-7008,-8985,23306,0.0
-7014,-9273,23264,0.0
-7028,-9572,23247,0.0
-7028,-9853,23182,0.0
-7025,-10133,23110,0.0
-7022,-10412,23034,0.0
-7028,-10707,22991,0.0
-6984,-10924,22781,0.0
-7021,-11269,22837,0.0
-7025,-11565,22784,0.0
-7030,-11865,22735,0.0
-7040,-12174,22701,0.0
-7046,-12478,22649,0.0
-7061,-12802,22628,0.0
-7052,-13083,22531,0.0
-7003,-13290,22303,0.0
-7055,-13689,22398,0.0
-7060,-14003,22342,0.0
-7068,-14326,22296,0.0
-7072,-14642,22234,0.0
-7071,-14952,22158,0.0
-7039,-15194,21981,0.0
-7077,-15594,22026,0.0
-6921,-15559,21461,0.0
-6946,-15929,21461,0.0
-7081,-16564,21801,0.0
-7103,-16945,21791,0.0
-7087,-17236,21660,0.0
-7113,-17632,21654,0.0
-7129,-18009,21620,0.0
-7126,-18343,21527,0.0
-7187,-18846,21623,0.0
-7199,-19230,21573,0.0
-7206,-19606,21506,0.0
-7217,-19996,21447,0.0
-7221,-20369,21365,0.0
-7236,-20782,21318,0.0
-7235,-21152,21219,0.0
-7250,-21574,21165,0.0
-7262,-21993,21101,0.0
-7265,-22392,21011,0.0
-7272,-22806,20928,0.0
-7281,-23236,20852,0.0
-28,-91,80,0.0
-7292,-24090,20672,0.0
-7310,-24567,20613,0.0
-7308,-24987,20498,0.0
-7312,-25430,20395,0.0
-7144,-25273,19813,0.0
-514,-1852,1419,0.0
-511,-1873,1403,0.0
-505,-1883,1379,0.0
-505,-1915,1370,0.0
-503,-1940,1355,0.0
-497,-1948,1329,0.0
-496,-1977,1318,0.0
-480,-1950,1269,0.0
0,0,0,0.0
-482,-2027,1256,0.0
0,0,0,0.0
-474,-2061,1216,0.0
-465,-2055,1183,0.0
-464,-2085,1169,0.0
-464,-2127,1163,0.0
-454,-2116,1127,0.0
-449,-2125,1102,0.0
-440,-2122,1071,0.0
-32,-161,79,0.0
-37,-188,90,0.0
-39,-202,94,0.0
-41,-213,96,0.0
-42,-225,99,0.0
-41,-221,93,0.0
-47,-260,107,0.0
-50,-283,113,0.0
-53,-305,118,0.0
-57,-332,125,0.0
-57,-343,124,0.0
-57,-348,122,0.0
-55,-344,116,0.0
-54,-338,111,0.0
-54,-350,110,0.0
-53,-346,105,0.0
-51,-340,99,0.0
-50,-344,96,0.0
0,0,0,0.0
-4188,38192,37225,0.0
-1662,14629,14566,0.0
-1702,14461,14709,0.0
-2080,17083,17752,0.0
-2126,16881,17921,0.0
-2200,16883,18313,0.0
-2271,16860,18685,0.0
-2315,16631,18835,0.0
-2334,16224,18776,0.0
-2344,15773,18656,0.0
-2358,15366,18577,0.0
-2202,13900,17177,0.0
-2284,13966,17645,0.0
-2331,13816,17846,0.0
-2404,13803,18233,0.0
-2445,13609,18387,0.0
-2852,15381,21258,0.0
-2661,13914,19674,0.0
-2692,13643,19739,0.0
-2724,13379,19814,0.0
-2911,13857,21008,0.0
-2830,13062,20279,0.0
-2935,13130,20879,0.0
-4259,18463,30079,0.0
-4342,18240,30453,0.0
-4416,17976,30766,0.0
-3864,15239,26746,0.0
-4863,18576,33444,0.0
-3940,14577,26932,0.0
-4086,14633,27755,0.0
-4098,14204,27669,0.0
-3827,12836,25689,0.0
-4117,13356,27477,0.0
-3969,12450,26341,0.0
-4029,12212,26587,0.0
-4033,11813,26477,0.0
-4361,12335,28481,0.0
-4510,12313,29306,0.0
-4632,12197,29945,0.0
-4790,12159,30814,0.0
-4836,11826,30960,0.0
-4980,11723,31729,0.0
-5049,11431,32017,0.0
-5069,11030,32001,0.0
-5074,10602,31889,0.0
-5098,10217,31896,0.0
-5073,9742,31610,0.0
0,0,0,0.0
-5069,8904,31319,0.0
-5090,8532,31319,0.0
-5157,8238,31605,0.0
-3992,6066,24367,0.0
-3993,5761,24278,0.0
-4000,5468,24232,0.0
-4001,5170,24149,0.0
-4002,4876,24064,0.0
-4011,4594,24033,0.0
-4012,4306,23954,0.0
-4018,4026,23906,0.0
-4020,3744,23834,0.0
-4025,3467,23782,0.0
-4027,3191,23716,0.0
-4028,2915,23642,0.0
-4032,2646,23595,0.0
-4033,2374,23521,0.0
-4032,2105,23443,0.0
-4040,1842,23418,0.0
-4036,1576,23324,0.0
-4040,1314,23275,0.0
-4043,1055,23221,0.0
-4040,794,23140,0.0
-4043,537,23090,0.0
-4044,281,23028,0.0
-4048,26,22988,0.0
-4048,-226,22925,0.0
-4050,-479,22870,0.0
-4049,-730,22808,0.0
-4035,-977,22669,0.0
-4040,-1226,22639,0.0
-4160,-1517,23245,0.0
-4256,-1813,23724,0.0
-4457,-2170,24780,0.0
-4717,-2583,26162,0.0
-4725,-2874,26143,0.0
-4731,-3164,26114,0.0
-4723,-3443,26008,0.0
-4718,-3724,25917,0.0
-4703,-3995,25774,0.0
0,0,0,0.0
-6084,-5900,33188,1.0
0,0,0,0.0
-6088,-6636,33062,1.0
-6067,-6978,32871,1.0
-6013,-7278,32508,1.0
-6035,-7669,32558,1.0
-6067,-8076,32659,1.0
0,0,0,0.0
-6096,-8851,32675,1.0
0,0,0,0.0
-6082,-9570,32464,1.0
-6088,-9953,32431,1.0
-6104,-10352,32448,1.0
0,0,0,0.0
-6083,-11069,32210,1.0
-6054,-11391,31994,1.0
-6047,-11756,31896,1.0
-6025,-12091,31720,1.0
-6025,-12470,31658,1.0
-6018,-12838,31563,1.0
-6014,-13211,31478,1.0
-6037,-13650,31540,1.0
-6045,-14058,31522,1.0
0,0,0,0.0
-6033,-14815,31342,1.0
0,0,0,0.0
0,0,0,0.0
-5935,-15763,30672,1.0
0,0,0,0.0
-5889,-16441,30325,1.0
-5843,-16717,30038,1.0
-5814,-17038,29835,1.0
0,0,0,0.0
-5789,-17787,29609,1.0
-5773,-18151,29476,1.0
-5733,-18442,29221,1.0
-5701,-18759,29010,1.0
-5647,-19003,28690,1.0
-5633,-19380,28571,1.0
-5571,-19591,28208,1.0
-5506,-19791,27837,1.0
-5484,-20141,27679,1.0
-5432,-20382,27372,1.0
-4422,-16951,22250,0.0
-4283,-16767,21514,0.0
-4181,-16720,20973,0.0
-4068,-16612,20374,0.0
-4015,-16736,20072,0.0
-3918,-16677,19560,0.0
-3856,-16753,19219,0.0
-3836,-17017,19093,0.0
-3836,-17368,19062,0.0
-3833,-17717,19021,0.0
-3824,-18040,18947,0.0
-3816,-18374,18880,0.0
-3810,-18721,18818,0.0
-3798,-19047,18733,0.0
-3791,-19406,18671,0.0
-3777,-19736,18577,0.0
-3770,-20105,18514,0.0
-3760,-20471,18441,0.0
-3750,-20842,18366,0.0
-3742,-21224,18295,0.0
-3726,-21581,18196,0.0
-15,-84,70,0.0
-16,-94,76,0.0
-3689,-22743,17935,0.0
-17,-103,79,0.0
-3663,-23549,17752,0.0
-3649,-23966,17661,0.0
-3609,-24218,17443,0.0
-285,-1948,1372,0.0
0,0,0,0.0
0,0,0,0.0
0,0,0,0.0
-271,-2024,1297,0.0
-272,-2082,1303,0.0
-265,-2077,1268,0.0
-263,-2109,1256,0.0
-254,-2088,1213,0.0
-248,-2084,1181,0.0
-18,-149,82,0.0
-241,-2123,1143,0.0
-18,-169,88,0.0
-18,-165,84,0.0
-19,-188,93,0.0
-21,-200,96,0.0
-21,-215,100,0.0
-21,-216,99,0.0
-22,-231,102,0.0
-24,-254,110,0.0
-24,-262,110,0.0
-23,-269,109,0.0
-24,-290,114,0.0
-27,-320,122,0.0
-26,-330,122,0.0
-26,-336,119,0.0
-26,-341,117,0.0
-25,-346,115,0.0
-24,-341,109,0.0
-23,-336,104,0.0
-23,-349,104,0.0
-523,16423,15909,0.0
-569,16415,16243,0.0
-615,16390,16567,0.0
-1255,31078,32092,0.0
-591,13648,14398,0.0
-625,13483,14532,0.0
-1421,28733,31637,0.0
-1483,28212,31740,0.0
-1530,27426,31530,0.0
-1607,27221,31980,0.0
-1656,26551,31878,0.0
-1656,25165,30882,0.0
-1713,24724,31015,0.0
-1761,24174,31002,0.0
0,0,0,0.0
-1186,14778,19817,0.0
-1231,14636,20074,0.0
-1238,14046,19707,0.0
-1286,13958,20037,0.0
-1381,14337,21060,0.0
-1413,14037,21105,0.0
-1444,13739,21150,0.0
-2092,19080,30078,0.0
-2153,18843,30424,0.0
-2210,18542,30675,0.0
-2252,18142,30758,0.0
-2498,19315,33572,0.0
-2528,18770,33457,0.0
-2559,18245,33362,0.0
-2060,14110,26480,0.0
-2131,14019,27011,0.0
-2193,13861,27429,0.0
-2230,13538,27527,0.0
-2250,13124,27434,0.0
-2273,12734,27379,0.0
-2321,12488,27630,0.0
-2327,12021,27385,0.0
-2352,11665,27377,0.0
-2311,11002,26621,0.0
-2336,10668,26630,0.0
-2388,10461,26961,0.0
-2879,12084,32177,0.0
-2892,11629,32022,0.0
-2919,11237,32025,0.0
-2938,10820,31945,0.0
-2945,10367,31744,0.0
-2975,10004,31799,0.0
-2995,9610,31753,0.0
-2995,9162,31507,0.0
-2990,8706,31203,0.0
-3031,8392,31397,0.0
-3098,8146,31866,0.0
-2378,5924,24275,0.0
-2387,5627,24201,0.0
-2398,5340,24157,0.0
-2403,5040,24048,0.0
-2419,4768,24054,0.0
-2423,4476,23948,0.0
-2431,4195,23885,0.0
-2438,3914,23812,0.0
-2447,3640,23762,0.0
-2455,3368,23711,0.0
-2459,3092,23621,0.0
-2470,2827,23598,0.0
-2474,2557,23514,0.0
-2480,2292,23456,0.0
-2486,2028,23401,0.0
-2490,1765,23320,0.0
-2497,1507,23288,0.0
-2503,1248,23232,0.0
-2505,990,23156,0.0
-2506,734,23064,0.0
-2512,481,23034,0.0
-2517,228,22980,0.0
-2519,-22,22912,0.0
-2525,-273,22880,0.0
-2527,-521,22809,0.0
-2529,-769,22752,0.0
-2518,-1010,22570,0.0
-2537,-1263,22664,0.0
-2608,-1550,23226,0.0
-2678,-1847,23772,0.0
-2898,-2276,25645,0.0
0,0,0,0.0
-3954,-3856,34783,1.0
-3971,-4248,34840,1.0
-3996,-4652,34966,1.0
0,0,0,0.0
-4050,-5478,35250,1.0
0,0,0,0.0
0,0,0,0.0
-4061,-6643,35104,1.0
-4066,-7035,35067,1.0
-4052,-7394,34872,1.0
0,0,0,0.0
-4052,-8164,34739,1.0
-4069,-8586,34819,1.0
-4071,-8981,34782,1.0
-4084,-9403,34838,1.0
-4069,-9762,34655,1.0
-4075,-10174,34655,1.0
-4067,-10551,34540,1.0
-4061,-10933,34438,1.0
-4061,-11338,34403,1.0
-4056,-11731,34324,1.0
0,0,0,0.0
-3963,-12260,33462,1.0
-3956,-12641,33369,1.0
-3964,-13081,33419,1.0
-3949,-13444,33271,1.0
-3956,-13882,33303,1.0
-3943,-14256,33175,1.0
0,0,0,0.0
0,0,0,0.0
-3933,-15509,33056,1.0
-3937,-15967,33087,1.0
-3941,-16429,33117,1.0
-3918,-16785,32924,1.0
0,0,0,0.0
-3887,-17570,32678,1.0
-3853,-17883,32409,1.0
0,0,0,0.0
0,0,0,0.0
-3780,-18960,31848,1.0
-3727,-19178,31430,1.0
-3686,-19450,31106,1.0
-3659,-19799,30908,1.0
0,0,0,0.0
-3547,-20175,30033,1.0
-3514,-20493,29800,1.0
0,0,0,0.0
-3407,-20877,28983,1.0
-3357,-21086,28610,1.0
-3308,-21297,28247,1.0
-2566,-16932,21956,0.0
-2488,-16823,21331,0.0
-2406,-16683,20685,0.0
-2354,-16724,20281,0.0
-2289,-16677,19779,0.0
-2228,-16643,19308,0.0
-2202,-16871,19148,0.0
-2176,-17089,18976,0.0
-2172,-17493,19004,0.0
-2156,-17825,18945,0.0
-2141,-18155,18882,0.0
-2124,-18485,18811,0.0
-2106,-18811,18731,0.0
-2088,-19146,18654,0.0
-2071,-19502,18593,0.0
-2052,-19850,18517,0.0
-2034,-20223,18458,0.0
-2013,-20573,18372,0.0
-1990,-20909,18267,0.0
-1970,-21293,18200,0.0
-9,-97,81,0.0
-1925,-22049,18034,0.0
-9,-101,81,0.0
-1878,-22826,17857,0.0
-1852,-23218,17762,0.0
-1828,-23643,17684,0.0
-1801,-24053,17588,0.0
-1757,-24243,17327,0.0
-138,-1961,1370,0.0
-135,-1988,1357,0.0
0,0,0,0.0
0,0,0,0.0
0,0,0,0.0
-123,-2103,1307,0.0
0,0,0,0.0
-115,-2115,1252,0.0
-111,-2148,1240,0.0
-106,-2126,1197,0.0
-101,-2123,1165,0.0
-8,-185,98,0.0
-8,-184,95,0.0
-8,-177,90,0.0
-8,-198,98,0.0
-8,-218,105,0.0
-7,-212,99,0.0
-8,-239,108,0.0
-7,-237,104,0.0
-7,-255,109,0.0
-7,-255,106,0.0
-7,-270,109,0.0
-7,-291,113,0.0
-7,-318,120,0.0
-7,-340,124,0.0
-6,-347,123,0.0
-5,-340,116,0.0
-4,-346,114,0.0
-4,-349,111,0.0
-3,-342,104,0.0
250,13851,13519,0.0
521,32492,32394,0.0
250,17999,18330,0.0
178,15172,15785,0.0
152,15718,16704,0.0
116,15519,16850,0.0
67,12961,14378,0.0
44,15279,17319,0.0
9,14749,17082,0.0
-24,14446,17099,0.0
-66,16137,19519,0.0
-104,15914,19677,0.0
-142,15716,19865,0.0
-180,15598,20155,0.0
-220,15552,20547,0.0
-382,22812,30821,0.0
-488,25046,34610,0.0
-320,14384,20334,0.0
-356,14238,20592,0.0
-395,14131,20916,0.0
-429,13872,21017,0.0
-654,19267,29885,0.0
-706,19053,30264,0.0
-738,18323,29812,0.0
-799,18334,30563,0.0
-845,17972,30706,0.0
-964,19094,33446,0.0
-1005,18580,33377,0.0
-1043,18044,33254,0.0
-860,13935,26355,0.0
-882,13427,26075,0.0
-964,13806,27538,0.0
-993,13393,27451,0.0
-1022,12995,27383,0.0
-1051,12620,27354,0.0
-1033,11736,26178,0.0
-1135,12185,27987,0.0
-1129,11470,27144,0.0
-1110,10688,26079,0.0
-1167,10641,26786,0.0
-1356,11717,30453,0.0
-1431,11719,31474,0.0
-1484,11513,31978,0.0
-1512,11118,31961,0.0
-1537,10717,31920,0.0
-1561,10305,31836,0.0
-1587,9920,31820,0.0
-1602,9479,31607,0.0
-1618,9056,31435,0.0
-1633,8633,31238,0.0
-1665,8312,31400,0.0
-1306,6146,24284,0.0
-1318,5844,24190,0.0
-1332,5549,24112,0.0
-1347,5268,24087,0.0
-1360,4983,24031,0.0
-1370,4694,23941,0.0
-1385,4422,23931,0.0
-1394,4134,23812,0.0
-1404,3860,23762,0.0
-1417,3588,23718,0.0
-1427,3319,23670,0.0
-1435,3044,23575,0.0
-1443,2776,23506,0.0
-1453,2513,23469,0.0
-1464,2252,23432,0.0
-1470,1989,23357,0.0
-1480,1731,23328,0.0
-1485,1471,23244,0.0
-1492,1215,23191,0.0
-1499,959,23123,0.0
-1503,705,23046,0.0
-1508,453,22982,0.0
-1513,202,22913,0.0
-1518,-46,22857,0.0
-1525,-294,22840,0.0
-1530,-542,22786,0.0
-1533,-787,22713,0.0
-1521,-1020,22421,0.0
-1538,-1274,22569,0.0
-1604,-1578,23424,0.0
-1646,-1874,23939,0.0
0,0,0,0.0
-2459,-3558,35498,1.0
0,0,0,0.0
-2483,-4351,35588,1.0
-2509,-4778,35836,1.0
-2519,-5181,35877,1.0
0,0,0,0.0
-2551,-6025,36145,1.0
0,0,0,0.0
0,0,0,0.0
-2566,-7235,36100,1.0
-2559,-7612,35941,1.0
0,0,0,0.0
0,0,0,0.0
0,0,0,0.0
-2598,-9351,36289,1.0
0,0,0,0.0
0,0,0,0.0
0,0,0,0.0
-2578,-10944,35927,1.0
0,0,0,0.0
0,0,0,0.0
-2513,-11935,35033,1.0
-2495,-12279,34798,1.0
0,0,0,0.0
-2488,-13120,34754,1.0
-2468,-13460,34514,1.0
0,0,0,0.0
-2462,-14340,34532,1.0
-2456,-14777,34519,1.0
-2430,-15086,34210,1.0
-2411,-15448,34024,1.0
0,0,0,0.0
0,0,0,0.0
0,0,0,0.0
-2477,-17948,35364,1.0
-2465,-18408,35314,1.0
-2430,-18702,34947,1.0
-2398,-19020,34631,1.0
-2367,-19347,34337,1.0
0,0,0,0.0
-2304,-20002,33763,1.0
-2247,-20101,33105,1.0
0,0,0,0.0
-2131,-20242,31763,1.0
-2083,-20393,31247,1.0
-2046,-20643,30892,1.0
0,0,0,0.0
-1969,-21140,30195,1.0
0,0,0,0.0
-1885,-21531,29376,1.0
-1841,-21702,28947,1.0
-1396,-16998,22167,0.0
-1340,-16846,21482,0.0
-1288,-16741,20877,0.0
-1237,-16640,20297,0.0
-1202,-16719,19949,0.0
-1158,-16674,19462,0.0
-1123,-16743,19120,0.0
-1105,-17078,19081,0.0
-1085,-17392,19013,0.0
-1064,-17704,18937,0.0
-1044,-18034,18876,0.0
-1021,-18363,18809,0.0
-999,-18697,18741,0.0
-976,-19032,18668,0.0
-952,-19386,18607,0.0
-928,-19728,18529,0.0
-902,-20076,18451,0.0
-876,-20433,18375,0.0
-849,-20779,18284,0.0
-821,-21166,18222,0.0
-792,-21530,18133,0.0
-764,-21910,18052,0.0
-3,-99,80,0.0
-701,-22677,17875,0.0
-669,-23062,17779,0.0
-636,-23462,17686,0.0
-602,-23891,17608,0.0
-562,-24119,17379,0.0
-42,-1978,1392,0.0
-39,-1977,1360,0.0
0,0,0,0.0
0,0,0,0.0
0,0,0,0.0
0,0,0,0.0
0,0,0,0.0
-19,-2123,1267,0.0
-15,-2136,1244,0.0
-11,-2184,1241,0.0
-7,-2131,1180,0.0
0,-166,89,0.0
0,-164,86,0.0
0,-179,92,0.0
0,-201,100,0.0
0,-208,101,0.0
0,-201,95,0.0
1,-216,99,0.0
2,-237,106,0.0
2,-243,104,0.0
3,-241,101,0.0
3,-259,105,0.0
3,-276,109,0.0
5,-303,116,0.0
6,-335,124,0.0
7,-343,123,0.0
7,-347,120,0.0
8,-350,117,0.0
9,-345,111,0.0
9,-357,110,0.0
1212,14918,14656,0.0
1161,14495,14545,0.0
1125,14261,14617,0.0
1076,13835,14486,0.0
1051,13721,14677,0.0
1004,13299,14534,0.0
975,13117,14645,0.0
924,12640,14420,0.0
905,12582,14668,0.0
1001,14147,16854,0.0
951,13669,16643,0.0
846,12376,15401,0.0
824,12270,15609,0.0
1165,17657,22964,0.0
1141,17621,23434,0.0
1448,22809,31020,0.0
1391,22345,31084,0.0
842,13802,19641,0.0
1004,16794,24452,0.0
793,13556,20201,0.0
775,13566,20690,0.0
756,13514,21105,0.0
728,13342,21337,0.0
844,15855,25973,0.0
817,15729,26402,0.0
776,15342,26395,0.0
715,14547,25658,0.0
663,13872,25093,0.0
640,13794,25600,0.0
613,13654,26009,0.0
581,13373,26154,0.0
541,12890,25894,0.0
510,12611,26033,0.0
478,12295,26096,0.0
446,11949,26089,0.0
415,11632,26136,0.0
386,11339,26237,0.0
358,11062,26373,0.0
333,10875,26735,0.0
304,10586,26852,0.0
317,11773,30834,0.0
293,11707,31682,0.0
263,11393,31889,0.0
231,11006,31892,0.0
200,10581,31768,0.0
171,10217,31817,0.0
141,9781,31630,0.0
112,9374,31520,0.0
84,8930,31257,0.0
58,8546,31186,0.0
32,8254,31448,0.0
6,6065,24171,0.0
-12,5782,24144,0.0
-30,5483,24041,0.0
-48,5201,24000,0.0
-64,4914,23922,0.0
-80,4634,23868,0.0
-96,4362,23838,0.0
-111,4084,23770,0.0
-125,3809,23702,0.0
-139,3537,23639,0.0
-153,3265,23565,0.0
-165,3002,23531,0.0
-179,2736,23467,0.0
-190,2470,23378,0.0
-201,2212,23356,0.0
-212,1951,23276,0.0
-222,1694,23232,0.0
-232,1438,23180,0.0
-241,1183,23104,0.0
-250,931,23048,0.0
-258,678,22939,0.0
-266,430,22924,0.0
-273,181,22856,0.0
-281,-65,22824,0.0
-288,-311,22775,0.0
-293,-556,22693,0.0
-299,-798,22603,0.0
-304,-1040,22540,0.0
-309,-1284,22528,0.0
-325,-1581,23306,0.0
-339,-1886,23949,0.0
-366,-2288,25528,0.0
0,0,0,0.0
0,0,0,0.0
-542,-4474,36541,1.0
-547,-4870,36495,1.0
-552,-5290,36627,1.0
-560,-5739,36909,1.0
0,0,0,0.0
0,0,0,0.0
-569,-7018,37146,1.0
0,0,0,0.0
0,0,0,0.0
0,0,0,0.0
-569,-8711,37207,1.0
0,0,0,0.0
0,0,0,0.0
-564,-10053,37428,1.0
-558,-10471,37364,1.0
0,0,0,0.0
0,0,0,0.0
0,0,0,0.0
0,0,0,0.0
-501,-12090,35612,1.0
-486,-12344,35107,1.0
-475,-12730,34992,1.0
0,0,0,0.0
0,0,0,0.0
0,0,0,0.0
0,0,0,0.0
-421,-14945,35058,1.0
-403,-15247,34719,1.0
-391,-15789,34924,1.0
0,0,0,0.0
0,0,0,0.0
-352,-17607,35805,1.0
0,0,0,0.0
-312,-18444,35545,1.0
-289,-18750,35200,1.0
0,0,0,0.0
-242,-19398,34593,1.0
-217,-19654,34180,1.0
-192,-19968,33872,1.0
0,0,0,0.0
-140,-20374,32915,1.0
-112,-20402,32178,1.0
-86,-20644,31795,1.0
-59,-20893,31430,1.0
-31,-21080,30982,1.0
-3,-21302,30593,1.0
24,-21552,30249,1.0
52,-21760,29854,1.0
82,-21923,29403,1.0
85,-16959,22241,0.0
107,-16924,21704,0.0
127,-16761,21022,0.0
147,-16659,20439,0.0
170,-16803,20167,0.0
190,-16694,19602,0.0
210,-16670,19150,0.0
235,-16965,19070,0.0
261,-17269,18994,0.0
287,-17594,18937,0.0
315,-17913,18867,0.0
344,-18237,18797,0.0
373,-18554,18715,0.0
403,-18891,18649,0.0
433,-19235,18583,0.0
466,-19576,18508,0.0
498,-19933,18442,0.0
532,-20284,18365,0.0
566,-20636,18282,0.0
602,-20998,18202,0.0
640,-21379,18133,0.0
676,-21747,18045,0.0
715,-22110,17947,0.0
755,-22506,17869,0.0
797,-22899,17783,0.0
839,-23289,17685,0.0
883,-23683,17586,0.0
927,-24095,17493,0.0
77,-1951,1385,0.0
81,-2000,1386,0.0
0,0,0,0.0
86,-2008,1329,0.0
0,0,0,0.0
0,0,0,0.0
97,-2070,1276,0.0
101,-2097,1263,0.0
101,-2061,1210,0.0
107,-2108,1207,0.0
108,-2086,1166,0.0
115,-2176,1186,0.0
8,-159,84,0.0
9,-172,89,0.0
9,-181,91,0.0
10,-198,97,0.0
11,-202,96,0.0
12,-212,98,0.0
12,-216,97,0.0
14,-231,101,0.0
15,-242,103,0.0
14,-237,97,0.0
16,-257,102,0.0
19,-280,108,0.0
22,-328,122,0.0
23,-336,121,0.0
24,-343,120,0.0
25,-345,117,0.0
25,-339,110,0.0
25,-341,107,0.0
2087,14397,14190,0.0
1872,12928,13016,0.0
1855,12830,13195,0.0
1860,12878,13529,0.0
1850,12826,13765,0.0
1826,12659,13881,0.0
1836,12745,14278,0.0
1821,12643,14472,0.0
1802,12512,14634,0.0
1762,12236,14627,0.0
1705,11837,14460,0.0
1662,11536,14406,0.0
0,0,0,0.0
1748,12115,15811,0.0
1742,12061,16097,0.0
1737,12006,16387,0.0
1731,11944,16674,0.0
1724,11875,16958,0.0
1717,11800,17244,0.0
1710,11725,17535,0.0
1705,11660,17850,0.0
1700,11583,18154,0.0
1695,11510,18476,0.0
1691,11432,18798,0.0
1686,11357,19135,0.0
1682,11275,19470,0.0
1678,11186,19806,0.0
1677,11115,20183,0.0
1672,11018,20526,0.0
1670,10934,20909,0.0
1670,10852,21306,0.0
1669,10761,21702,0.0
1666,10651,22075,0.0
1668,10571,22526,0.0
1670,10482,22977,0.0
1671,10381,23420,0.0
1671,10271,23863,0.0
1675,10174,24357,0.0
1678,10064,24845,0.0
1681,9949,25340,0.0
1684,9825,25841,0.0
1688,9697,26357,0.0
2005,11334,31861,0.0
1971,10950,31865,0.0
1931,10530,31752,0.0
1895,10132,31693,0.0
1862,9742,31646,0.0
1819,9310,31449,0.0
1783,8909,31330,0.0
1747,8503,31176,0.0
1739,8238,31540,0.0
1312,6035,24166,0.0
1290,5746,24113,0.0
1267,5456,24049,0.0
1246,5174,24001,0.0
1224,4888,23921,0.0
1202,4602,23829,0.0
1184,4331,23797,0.0
1165,4053,23721,0.0
1145,3775,23631,0.0
1130,3514,23630,0.0
1112,3240,23527,0.0
1098,2980,23513,0.0
1082,2713,23432,0.0
1066,2452,23375,0.0
1052,2193,23323,0.0
1037,1930,23216,0.0
1023,1674,23157,0.0
1012,1422,23133,0.0
1000,1168,23058,0.0
990,917,23011,0.0
978,667,22944,0.0
971,419,22941,0.0
960,172,22870,0.0
950,-74,22797,0.0
941,-318,22718,0.0
934,-562,22666,0.0
927,-804,22616,0.0
920,-1047,22583,0.0
908,-1280,22387,0.0
942,-1583,23293,0.0
965,-1888,23958,0.0
1027,-2291,25548,0.0
1453,-3646,36270,1.0
1467,-4086,36666,1.0
1470,-4499,36774,1.0
1476,-4927,36964,1.0
1480,-5346,37051,1.0
0,0,0,0.0
0,0,0,0.0
0,0,0,0.0
1498,-7033,37296,1.0
1487,-7382,36952,1.0
0,0,0,0.0
0,0,0,0.0
1533,-8789,37625,1.0
1545,-9243,37729,1.0
0,0,0,0.0
0,0,0,0.0
0,0,0,0.0
1579,-10951,37612,1.0
0,0,0,0.0
0,0,0,0.0
0,0,0,0.0
1571,-12237,36148,1.0
0,0,0,0.0
0,0,0,0.0
0,0,0,0.0
1624,-13879,35835,1.0
0,0,0,0.0
0,0,0,0.0
0,0,0,0.0
1674,-15370,35116,1.0
1684,-15704,34850,1.0
1730,-16370,35309,1.0
0,0,0,0.0
0,0,0,0.0
1815,-17831,35417,1.0
0,0,0,0.0
1840,-18453,34766,1.0
0,0,0,0.0
1873,-19112,34206,1.0
1888,-19417,33891,1.0
1905,-19729,33591,1.0
1920,-20008,33240,1.0
1933,-20258,32850,1.0
1952,-20562,32553,1.0
0,0,0,0.0
1978,-21015,31735,1.0
1992,-21242,31338,1.0
2004,-21436,30902,1.0
2012,-21573,30396,1.0
2030,-21810,30039,1.0
2052,-22074,29723,1.0
1572,-16938,22302,0.0
1570,-16919,21785,0.0
1558,-16803,21160,0.0
1548,-16693,20564,0.0
1552,-16730,20161,0.0
1541,-16598,19569,0.0
1543,-16602,19151,0.0
1567,-16836,19003,0.0
1589,-17041,18823,0.0
1635,-17490,18905,0.0
1669,-17812,18842,0.0
1704,-18136,18775,0.0
1739,-18465,18707,0.0
1776,-18792,18633,0.0
1814,-19134,18568,0.0
1853,-19466,18487,0.0
1892,-19802,18404,0.0
1933,-20149,18325,0.0
1977,-20533,18275,0.0
2021,-20883,18186,0.0
2066,-21246,18104,0.0
2113,-21635,18036,0.0
2159,-21997,17939,0.0
2209,-22380,17854,0.0
2258,-22767,17765,0.0
2308,-23144,17662,0.0
2362,-23556,17578,0.0
2419,-23979,17496,0.0
2462,-24267,17309,0.0
0,0,0,0.0
206,-2012,1370,0.0
0,0,0,0.0
0,0,0,0.0
0,0,0,0.0
0,0,0,0.0
0,0,0,0.0
227,-2137,1262,0.0
222,-2073,1194,0.0
233,-2166,1217,0.0
234,-2162,1184,0.0
241,-2209,1179,0.0
20,-191,99,0.0
20,-194,98,0.0
22,-197,97,0.0
22,-209,100,0.0
26,-234,109,0.0
25,-229,104,0.0
28,-249,110,0.0
28,-254,108,0.0
31,-264,110,0.0
32,-279,113,0.0
33,-283,110,0.0
39,-328,123,0.0
41,-350,128,0.0
44,-358,126,0.0
42,-352,119,0.0
44,-357,117,0.0
44,-361,114,0.0
-4437,15623,14045,0.0
-4526,15585,14315,0.0
-4612,15526,14570,0.0
-4702,15476,14841,0.0
-4788,15412,15100,0.0
-4872,15336,15354,0.0
-4963,15271,15624,0.0
-4893,14719,15387,0.0
-5103,15008,16034,0.0
-5145,14791,16149,0.0
-5103,14339,16003,0.0
-5899,16198,18479,0.0
-5969,16018,18679,0.0
-5967,15646,18654,0.0
-5969,15290,18641,0.0
-5949,14887,18559,0.0
-5907,14440,18411,0.0
-5976,14263,18602,0.0
-5996,13974,18646,0.0
-6014,13684,18684,0.0
-11207,24883,34772,0.0
-9804,21242,30385,0.0
-7379,15596,22843,0.0
-7324,15098,22647,0.0
-7307,14687,22569,0.0
-7304,14311,22532,0.0
-9911,18924,30537,0.0
-10013,18626,30817,0.0
-10028,18166,30825,0.0
-10966,19339,33667,0.0
-10946,18784,33561,0.0
-10920,18230,33443,0.0
-10923,17730,33410,0.0
-10893,17185,33276,0.0
-10866,16652,33151,0.0
-10846,16140,33049,0.0
-10820,15624,32924,0.0
-10822,15155,32885,0.0
-10811,14675,32809,0.0
-9829,12924,29789,0.0
-9817,12494,29712,0.0
-9962,12264,30110,0.0
-9994,11890,30165,0.0
-10139,11649,30559,0.0
-10668,11824,32106,0.0
-10680,11412,32100,0.0
-10661,10967,31997,0.0
-10566,10454,31663,0.0
0,0,0,0.0
0,0,0,0.0
-10618,9275,31678,0.0
-10603,8859,31587,0.0
-10557,8423,31401,0.0
-10751,8176,31930,0.0
-8921,6453,26453,0.0
-8977,6163,26576,0.0
-9273,6027,27406,0.0
-9157,5619,27020,0.0
-9144,5283,26940,0.0
-9126,4945,26844,0.0
-9163,4639,26904,0.0
-9172,4320,26888,0.0
-9154,3990,26788,0.0
-9158,3672,26752,0.0
-9152,3352,26689,0.0
-9143,3033,26617,0.0
-9134,2717,26545,0.0
-9100,2396,26396,0.0
-9082,2083,26294,0.0
-8888,1737,25687,0.0
-9042,1463,26086,0.0
-8728,1120,25129,0.0
-8772,833,25209,0.0
-8764,541,25139,0.0
-8713,249,24942,0.0
-8722,-37,24918,0.0
-8693,-322,24789,0.0
-8910,-622,25357,0.0
-9000,-922,25560,0.0
-9017,-1217,25554,0.0
-9013,-1509,25491,0.0
-8998,-1797,25394,0.0
-8997,-2088,25338,0.0
-8977,-2373,25227,0.0
-8978,-2661,25173,0.0
-8972,-2947,25101,0.0
-8956,-3229,25002,0.0
-8952,-3514,24933,0.0
-8948,-3798,24867,0.0
-8944,-4080,24797,0.0
-8935,-4361,24714,0.0
-8931,-4643,24646,0.0
-8932,-4928,24588,0.0
-8907,-5197,24461,0.0
-8674,-5336,23762,0.0
-8685,-5619,23732,0.0
-8735,-5929,23808,0.0
-8890,-6314,24169,0.0
-8894,-6601,24119,0.0
-8731,-6757,23615,0.0
-8518,-6862,22977,0.0
-8488,-7108,22833,0.0
-8841,-7686,23719,0.0
-8872,-7994,23734,0.0
-8872,-8278,23671,0.0
-8883,-8572,23632,0.0
-8668,-8641,22991,0.0
-8666,-8918,22920,0.0
-8659,-9189,22834,0.0
-8872,-9701,23326,0.0
-8879,-9995,23273,0.0
-8861,-10261,23153,0.0
-8713,-10372,22693,0.0
-8894,-10877,23092,0.0
-8899,-11174,23031,0.0
-8877,-11437,22897,0.0
-8797,-11622,22616,0.0
-8917,-12075,22846,0.0
-8938,-12399,22821,0.0
-8943,-12702,22753,0.0
-8955,-13019,22704,0.0
-8968,-13337,22652,0.0
-8983,-13662,22608,0.0
-8994,-13982,22550,0.0
-8841,-14046,22083,0.0
-8778,-14244,21839,0.0
-8784,-14557,21770,0.0
-9011,-15243,22243,0.0
-9051,-15626,22251,0.0
-9059,-15957,22180,0.0
-9072,-16296,22114,0.0
-9089,-16648,22060,0.0
-9101,-16994,21994,0.0
-9123,-17362,21949,0.0
-9112,-17669,21822,0.0
-9045,-17868,21562,0.0
-8921,-17950,21166,0.0
-8756,-17941,20675,0.0
-8743,-18238,20542,0.0
-8749,-18580,20455,0.0
-8776,-18969,20414,0.0
-9010,-19815,20846,0.0
-9079,-20316,20893,0.0
-9224,-20997,21112,0.0
-9275,-21475,21110,0.0
-9296,-21893,21041,0.0
-9314,-22306,20958,0.0
-9329,-22715,20866,0.0
-9344,-23131,20774,0.0
-9363,-23562,20687,0.0
-9323,-23850,20469,0.0
-9338,-24277,20367,0.0
-9350,-24706,20259,0.0
-9475,-25443,20391,0.0
-9153,-24974,19561,0.0
-9094,-25211,19295,0.0
-656,-1850,1383,0.0
-636,-1822,1331,0.0
-657,-1911,1363,0.0
-652,-1929,1345,0.0
-645,-1937,1318,0.0
0,0,0,0.0
0,0,0,0.0
0,0,0,0.0
-623,-1990,1229,0.0
-615,-1996,1203,0.0
0,0,0,0.0
-621,-2079,1190,0.0
0,0,0,0.0
0,0,0,0.0
-611,-2141,1133,0.0
-589,-2098,1082,0.0
-590,-2136,1072,0.0
-580,-2132,1040,0.0
-594,-2219,1053,0.0
-50,-193,88,0.0
-54,-212,94,0.0
-58,-227,98,0.0
-60,-242,102,0.0
-62,-253,103,0.0
-67,-279,110,0.0
-75,-315,121,0.0
-81,-345,127,0.0
-78,-339,122,0.0
-78,-345,120,0.0
-77,-348,117,0.0
-76,-345,111,0.0
-73,-341,106,0.0
-75,-351,105,0.0
-72,-347,99,0.0
-69,-341,94,0.0
-70,-344,91,0.0
-4262,15645,14134,0.0
-4342,15579,14379,0.0
-4428,15529,14646,0.0
-4514,15474,14911,0.0
-4604,15427,15189,0.0
-4688,15356,15449,0.0
-4780,15300,15728,0.0
-4842,15149,15915,0.0
-4925,15062,16170,0.0
-4912,14677,16104,0.0
-4919,14361,16105,0.0
-5237,14940,17125,0.0
-5333,14866,17420,0.0
-5813,15826,18959,0.0
-9506,25276,30962,0.0
-9573,24862,31143,0.0
-5762,14613,18722,0.0
-5792,14341,18794,0.0
-5798,14014,18789,0.0
-5809,13703,18800,0.0
-5843,13450,18886,0.0
0,0,0,0.0
-7208,15785,23232,0.0
-7204,15384,23188,0.0
-7197,14983,23135,0.0
-7201,14611,23117,0.0
-7205,14242,23096,0.0
-7175,13815,22970,0.0
-7167,13438,22914,0.0
-7153,13053,22835,0.0
-7154,12701,22807,0.0
-10503,18137,33437,0.0
-10501,17629,33383,0.0
-10463,17068,33214,0.0
-10447,16553,33118,0.0
-10437,16053,33038,0.0
-10409,15534,32900,0.0
-10408,15062,32849,0.0
-10391,14573,32749,0.0
-9460,12848,29769,0.0
-9486,12468,29806,0.0
-9668,12289,30334,0.0
-9743,11969,30524,0.0
-9972,11827,31194,0.0
-10293,11776,32147,0.0
-10305,11362,32140,0.0
-10286,10918,32027,0.0
-10207,10419,31733,0.0
0,0,0,0.0
0,0,0,0.0
0,0,0,0.0
-10173,8763,31428,0.0
-10234,8415,31564,0.0
-10419,8164,32083,0.0
-8622,6425,26507,0.0
-8718,6165,26757,0.0
-8925,5974,27345,0.0
-8840,5585,27037,0.0
-8817,5242,26924,0.0
-8797,4905,26815,0.0
-8865,4617,26976,0.0
-8875,4298,26961,0.0
-8858,3967,26859,0.0
-8869,3653,26847,0.0
-8860,3332,26770,0.0
-8855,3014,26708,0.0
-8837,2694,26604,0.0
-8748,2359,26289,0.0
-8604,2018,25808,0.0
-8430,1683,25238,0.0
-8415,1388,25143,0.0
-8421,1097,25114,0.0
-8421,808,25067,0.0
-8409,518,24984,0.0
-8409,230,24933,0.0
-8396,-55,24847,0.0
-8426,-340,24884,0.0
-8546,-634,25188,0.0
-8629,-931,25379,0.0
-8709,-1232,25562,0.0
-8704,-1523,25495,0.0
-8693,-1811,25407,0.0
-8687,-2099,25336,0.0
-8674,-2384,25245,0.0
-8673,-2672,25183,0.0
-8661,-2954,25093,0.0
-8660,-3240,25036,0.0
-8651,-3522,24951,0.0
-8644,-3803,24873,0.0
-8647,-4090,24826,0.0
-8629,-4365,24716,0.0
-8626,-4646,24650,0.0
-8627,-4930,24592,0.0
-8615,-5206,24501,0.0
-8382,-5339,23778,0.0
-8385,-5617,23729,0.0
-8536,-5998,24097,0.0
-8588,-6314,24181,0.0
-8589,-6597,24124,0.0
-8488,-6797,23776,0.0
-8476,-7064,23678,0.0
-8438,-7311,23510,0.0
-8528,-7669,23698,0.0
-8578,-7997,23772,0.0
-8576,-8277,23702,0.0
-8571,-8554,23618,0.0
-8366,-8627,22990,0.0
-8365,-8903,22918,0.0
-8510,-9340,23249,0.0
-8577,-9700,23363,0.0
-8576,-9983,23289,0.0
-8583,-10279,23237,0.0
-8581,-10565,23162,0.0
-8589,-10864,23111,0.0
-8594,-11160,23049,0.0
-8544,-11384,22840,0.0
-8564,-11702,22819,0.0
-8617,-12068,22885,0.0
-8623,-12371,22823,0.0
-8636,-12687,22780,0.0
-8641,-12993,22713,0.0
-8665,-13331,22697,0.0
-8665,-13633,22614,0.0
-8679,-13959,22569,0.0
-8515,-13995,22062,0.0
-8461,-14204,21836,0.0
-8478,-14534,21795,0.0
-8703,-15232,22287,0.0
-8733,-15598,22274,0.0
-8734,-15918,22189,0.0
-8754,-16272,22145,0.0
-8761,-16606,22071,0.0
-8772,-16953,22006,0.0
-8784,-17302,21940,0.0
-8776,-17615,21823,0.0
-8711,-17813,21564,0.0
-8655,-18028,21326,0.0
-8650,-18349,21215,0.0
-8634,-18647,21072,0.0
-8547,-18794,20761,0.0
-8549,-19134,20662,0.0
-8825,-20101,21221,0.0
-8794,-20381,21036,0.0
-8884,-20950,21141,0.0
-8956,-21484,21196,0.0
-8990,-21936,21160,0.0
-9001,-22335,21065,0.0
-9023,-22768,20994,0.0
-9036,-23187,20905,0.0
-9063,-23643,20839,0.0
-8990,-23841,20543,0.0
-8988,-24229,20410,0.0
-9002,-24666,20310,0.0
-8967,-24971,20097,0.0
-8816,-24950,19624,0.0
-8772,-25229,19393,0.0
-623,-1821,1368,0.0
-618,-1838,1349,0.0
-626,-1889,1354,0.0
-598,-1836,1285,0.0
-624,-1947,1332,0.0
-617,-1955,1304,0.0
0,0,0,0.0
-614,-2010,1278,0.0
-597,-1982,1230,0.0
0,0,0,0.0
0,0,0,0.0
0,0,0,0.0
-596,-2106,1182,0.0
0,0,0,0.0
-570,-2080,1108,0.0
-570,-2112,1095,0.0
-568,-2140,1081,0.0
-566,-2165,1063,0.0
-45,-178,85,0.0
-47,-187,87,0.0
-48,-195,87,0.0
-55,-227,99,0.0
-60,-252,106,0.0
-58,-247,101,0.0
-67,-288,115,0.0
-71,-312,120,0.0
-73,-326,121,0.0
-74,-337,122,0.0
-73,-340,119,0.0
-72,-336,113,0.0
-71,-339,110,0.0
-69,-335,105,0.0
-68,-340,103,0.0
-69,-344,100,0.0
-67,-341,95,0.0
-66,-343,91,0.0
-3144,15561,14440,0.0
-3215,15504,14698,0.0
-3287,15452,14965,0.0
-3360,15398,15237,0.0
-3434,15338,15507,0.0
-3508,15276,15779,0.0
-3584,15216,16058,0.0
-3661,15150,16339,0.0
-3737,15080,16618,0.0
-3807,14976,16865,0.0
-3888,14914,17167,0.0
-3867,14460,17012,0.0
-3929,14323,17226,0.0
0,0,0,0.0
-4238,14678,18452,0.0
-4328,14614,18787,0.0
-4418,14540,19118,0.0
-4476,14353,19304,0.0
-4587,14335,19726,0.0
-4501,13701,19292,0.0
-4653,13799,19886,0.0
-4652,13433,19818,0.0
-4994,14044,21214,0.0
-5102,13967,21609,0.0
-5211,13886,22008,0.0
-5329,13816,22440,0.0
-5438,13718,22837,0.0
-5551,13617,23246,0.0
-5673,13531,23692,0.0
-5787,13416,24104,0.0
-5917,13330,24582,0.0
-5925,12963,24547,0.0
-5913,12561,24436,0.0
-6316,13020,26033,0.0
-6446,12890,26500,0.0
-6588,12772,27014,0.0
-6717,12619,27473,0.0
-8022,14595,32727,0.0
-7430,13085,30237,0.0
-7408,12619,30074,0.0
-7506,12360,30397,0.0
-7677,12211,31016,0.0
-7753,11904,31250,0.0
-7954,11775,31977,0.0
-7990,11397,32048,0.0
-7967,10940,31882,0.0
-7958,10507,31771,0.0
-7956,10090,31691,0.0
-7919,9635,31471,0.0
-7946,9261,31503,0.0
-7913,8822,31298,0.0
-7949,8465,31370,0.0
-8096,8221,31879,0.0
-6735,6509,26460,0.0
-6968,6396,27314,0.0
-7008,6094,27407,0.0
-7002,5756,27325,0.0
-6992,5415,27220,0.0
-6985,5083,27135,0.0
-6983,4757,27067,0.0
-6986,4437,27022,0.0
-6968,4106,26892,0.0
-6971,3790,26843,0.0
-6960,3470,26739,0.0
-6957,3157,26671,0.0
-6948,2843,26579,0.0
-6947,2535,26515,0.0
-6941,2228,26434,0.0
-6937,1923,26361,0.0
-6924,1618,26252,0.0
-6622,1261,25054,0.0
-6613,975,24968,0.0
-6696,700,25223,0.0
-6750,418,25369,0.0
-6763,132,25365,0.0
-6808,-153,25475,0.0
-6816,-440,25452,0.0
-6805,-725,25351,0.0
-6811,-1010,25319,0.0
-6804,-1292,25233,0.0
-6786,-1570,25113,0.0
-6770,-1847,24999,0.0
-6757,-2122,24893,0.0
-6752,-2399,24823,0.0
-6663,-2640,24440,0.0
-6666,-2915,24395,0.0
-6474,-3095,23638,0.0
-6830,-3545,24880,0.0
-6830,-3823,24822,0.0
-6828,-4101,24761,0.0
-6820,-4373,24674,0.0
-6820,-4651,24618,0.0
-6806,-4919,24510,0.0
-6807,-5195,24454,0.0
-6805,-5471,24390,0.0
-6798,-5741,24304,0.0
-6789,-6010,24216,0.0
-6791,-6287,24166,0.0
-6786,-6561,24093,0.0
-6779,-6828,24006,0.0
-6780,-7106,23950,0.0
-6772,-7376,23865,0.0
-6773,-7654,23807,0.0
-6762,-7920,23712,0.0
-6585,-7983,23034,0.0
-6414,-8040,22376,0.0
-6423,-8318,22353,0.0
-6752,-9023,23437,0.0
-6764,-9320,23416,0.0
-6759,-9596,23340,0.0
-6760,-9879,23279,0.0
-6768,-10175,23243,0.0
-6767,-10458,23175,0.0
-6764,-10740,23104,0.0
-6769,-11037,23056,0.0
-6771,-11330,23002,0.0
-6776,-11628,22950,0.0
-6765,-11901,22849,0.0
-6775,-12214,22819,0.0
-6776,-12511,22755,0.0
-6787,-12829,22725,0.0
-6785,-13124,22648,0.0
-6797,-13451,22622,0.0
-6797,-13754,22552,0.0
-6801,-14067,22494,0.0
-6805,-14385,22438,0.0
-6804,-14697,22368,0.0
-6810,-15021,22312,0.0
-6817,-15353,22263,0.0
-6815,-15668,22183,0.0
-6621,-15533,21479,0.0
-6557,-15694,21197,0.0
-6798,-16598,21901,0.0
-6835,-17020,21944,0.0
-6846,-17382,21902,0.0
-6845,-17719,21821,0.0
-6849,-18071,21752,0.0
-6856,-18434,21693,0.0
-6857,-18784,21611,0.0
-6864,-19158,21551,0.0
-6870,-19531,21484,0.0
-6883,-19930,21439,0.0
-6885,-20301,21356,0.0
-6891,-20691,21287,0.0
-6902,-21099,21230,0.0
-6902,-21482,21140,0.0
-6912,-21900,21078,0.0
-6919,-22314,21005,0.0
-6920,-22717,20913,0.0
-6929,-23145,20838,0.0
-30,-102,90,0.0
-24,-86,74,0.0
-6954,-24480,20610,0.0
-6955,-24915,20511,0.0
-6963,-25379,20426,0.0
-6807,-25245,19863,0.0
-6688,-25231,19406,0.0
-502,-1931,1452,0.0
-486,-1898,1394,0.0
-495,-1972,1415,0.0
-478,-1933,1356,0.0
-477,-1966,1347,0.0
-476,-1996,1335,0.0
0,0,0,0.0
-454,-1971,1257,0.0
0,0,0,0.0
-455,-2048,1243,0.0
-451,-2061,1221,0.0
-454,-2115,1221,0.0
-442,-2093,1179,0.0
0,0,0,0.0
-441,-2161,1157,0.0
-432,-2157,1124,0.0
-33,-172,86,0.0
-30,-161,79,0.0
-35,-189,90,0.0
-35,-191,89,0.0
-38,-215,98,0.0
-37,-210,92,0.0
-41,-234,101,0.0
-45,-266,111,0.0
-48,-289,116,0.0
-48,-291,113,0.0
-51,-322,121,0.0
-53,-337,123,0.0
-52,-337,119,0.0
-52,-342,116,0.0
-49,-336,110,0.0
-49,-340,108,0.0
-48,-340,104,0.0
-47,-339,99,0.0
-46,-341,96,0.0
-2392,15502,14602,0.0
-2431,15303,14727,0.0
-2471,15108,14852,0.0
-5459,32424,32565,0.0
-5478,31628,32452,0.0
-3033,17017,17839,0.0
-5571,30382,32542,0.0
-3052,16182,17710,0.0
-3267,16847,18841,0.0
-3289,16487,18842,0.0
-3289,16034,18728,0.0
-2965,14059,16785,0.0
-3418,15766,19240,0.0
-3179,14261,17793,0.0
-3194,13933,17773,0.0
-3428,14545,18974,0.0
-3504,14459,19291,0.0
-3585,14385,19633,0.0
-3646,14231,19871,0.0
-3748,14223,20322,0.0
0,0,0,0.0
-3824,13716,20535,0.0
-3852,13434,20594,0.0
-4100,13897,21819,0.0
-4200,13831,22249,0.0
-4294,13740,22649,0.0
-4391,13649,23064,0.0
-4488,13547,23473,0.0
-4592,13459,23921,0.0
-4689,13337,24325,0.0
-4791,13221,24753,0.0
-4901,13118,25219,0.0
-4937,12813,25311,0.0
-4968,12494,25367,0.0
-5012,12213,25499,0.0
-5389,12716,27316,0.0
-5513,12591,27845,0.0
-5613,12401,28248,0.0
-5752,12285,28843,0.0
-5831,12034,29142,0.0
-5970,11896,29733,0.0
-6040,11613,29979,0.0
-6420,11902,31761,0.0
-6478,11567,31939,0.0
-6529,11222,32087,0.0
-6526,10787,31972,0.0
-6527,10362,31875,0.0
0,0,0,0.0
-6470,9446,31403,0.0
-6471,9042,31314,0.0
-6478,8651,31257,0.0
-6539,8331,31454,0.0
-6696,8126,32116,0.0
-5728,6608,27391,0.0
-5717,6259,27261,0.0
-5746,5954,27324,0.0
-5754,5628,27283,0.0
-5749,5294,27185,0.0
-5742,4961,27077,0.0
-5749,4643,27034,0.0
-5744,4320,26939,0.0
-5741,4000,26854,0.0
-5744,3688,26795,0.0
-5736,3371,26690,0.0
-5735,3061,26614,0.0
-5735,2753,26544,0.0
-5730,2446,26452,0.0
-5729,2144,26382,0.0
-5725,1842,26298,0.0
-5718,1542,26202,0.0
-5326,1160,24341,0.0
-5390,897,24571,0.0
0,0,0,0.0
-5083,326,23063,0.0
-5636,77,25504,0.0
-5314,-194,23990,0.0
-5306,-461,23897,0.0
-5298,-725,23803,0.0
-5288,-987,23702,0.0
-5182,-1224,23171,0.0
-5241,-1497,23379,0.0
-5321,-1782,23682,0.0
-5674,-2179,25194,0.0
-5674,-2458,25134,0.0
-5338,-2573,23592,0.0
-5357,-2843,23617,0.0
-5363,-3109,23594,0.0
-5652,-3551,24807,0.0
-5645,-3821,24716,0.0
-5327,-3864,23273,0.0
-5319,-4117,23182,0.0
-5316,-4373,23118,0.0
-5310,-4626,23042,0.0
-5631,-5178,24376,0.0
-5628,-5448,24310,0.0
-5620,-5712,24216,0.0
-5618,-5983,24152,0.0
-5586,-6220,23961,0.0
-5595,-6503,23946,0.0
-5321,-6443,22720,0.0
-5586,-7038,23797,0.0
-5306,-6944,22552,0.0
-5308,-7207,22508,0.0
-5296,-7453,22409,0.0
-5304,-7725,22388,0.0
-5296,-7976,22304,0.0
-5308,-8258,22307,0.0
-5300,-8511,22221,0.0
-5291,-8760,22129,0.0
-5290,-9023,22072,0.0
-5290,-9291,22022,0.0
-5295,-9568,21989,0.0
-5285,-9819,21897,0.0
-5290,-10102,21869,0.0
-5287,-10366,21801,0.0
-5278,-10624,21716,0.0
-5263,-10867,21598,0.0
-5281,-11182,21622,0.0
-5276,-11450,21547,0.0
-5271,-11721,21478,0.0
-5276,-12015,21447,0.0
-5265,-12274,21347,0.0
-5267,-12566,21302,0.0
-5265,-12850,21241,0.0
-5258,-13125,21159,0.0
-5245,-13384,21051,0.0
-5255,-13707,21039,0.0
-5256,-14010,20991,0.0
-5252,-14301,20919,0.0
-5248,-14596,20851,0.0
-5247,-14899,20790,0.0
-5245,-15203,20725,0.0
-5241,-15506,20654,0.0
-5235,-15807,20576,0.0
-5228,-16105,20489,0.0
-5226,-16422,20423,0.0
-5219,-16729,20340,0.0
-5095,-16656,19800,0.0
-4986,-16620,19319,0.0
-4975,-16909,19222,0.0
-4967,-17214,19136,0.0
-4967,-17542,19075,0.0
-4966,-17880,19015,0.0
-4953,-18174,18905,0.0
-4959,-18545,18869,0.0
-4957,-18892,18804,0.0
-4953,-19232,18725,0.0
-4954,-19600,18666,0.0
-23,-92,86,0.0
-27,-112,102,0.0
-25,-104,93,0.0
-23,-99,85,0.0
-20,-86,73,0.0
-22,-96,80,0.0
-19,-86,70,0.0
-20,-91,73,0.0
-4917,-23011,17937,0.0
-23,-107,81,0.0
-4907,-23837,17755,0.0
-4868,-24097,17542,0.0
-380,-1916,1364,0.0
-381,-1961,1363,0.0
-381,-1998,1357,0.0
-385,-2055,1362,0.0
-355,-1931,1250,0.0
-364,-2021,1277,0.0
-364,-2058,1269,0.0
-360,-2071,1247,0.0
-356,-2093,1229,0.0
-354,-2121,1215,0.0
-343,-2103,1174,0.0
-339,-2117,1153,0.0
-25,-157,83,0.0
-27,-177,91,0.0
-27,-179,89,0.0
-29,-196,95,0.0
-28,-196,92,0.0
-30,-211,97,0.0
-31,-225,101,0.0
-33,-240,104,0.0
-34,-262,110,0.0
-36,-278,114,0.0
-36,-283,112,0.0
-38,-314,121,0.0
-40,-334,124,0.0
-41,-342,123,0.0
