//X,Y,Z,Classification
-83,-305,118,0.0
-92,-342,128,0.0
-88,-335,122,0.0
-89,-342,120,0.0
-88,-345,116,0.0
-86,-344,112,0.0
-84,-337,106,0.0
-83,-341,103,0.0
-82,-345,100,0.0
-82,-347,97,0.0
-80,-343,91,0.0
-80,-346,89,0.0
-5140,16744,14896,0.0
-5659,18037,16396,0.0
-5187,16177,15026,0.0
-5204,15881,15072,0.0
-5615,16763,16256,0.0
-5617,16406,16258,0.0
-5243,14981,15171,0.0
-5540,15480,16019,0.0
-5502,15037,15903,0.0
-5543,14818,16018,0.0
-6562,17155,18952,0.0
-6555,16755,18922,0.0
-6532,16323,18845,0.0
-6246,15258,18009,0.0
-6075,14506,17508,0.0
-6203,14475,17864,0.0
-6331,14436,18223,0.0
-6413,14286,18448,0.0
-6452,14040,18547,0.0
-10814,22979,31062,0.0
-10575,21940,30353,0.0
-10598,21464,30397,0.0
-10558,20867,30257,0.0
-10524,20296,30139,0.0
-10686,20101,30576,0.0
-10679,19590,30534,0.0
-10800,19312,30851,0.0
-10865,18934,31009,0.0
-10834,18392,30892,0.0
-11847,19586,33752,0.0
-11801,18992,33588,0.0
-11782,18452,33504,0.0
-11732,17872,33330,0.0
-11731,17373,33292,0.0
-11687,16818,33133,0.0
-11661,16299,33025,0.0
-11600,15739,32819,0.0
-11615,15290,32827,0.0
-10937,13959,30876,0.0
-10931,13518,30824,0.0
-10903,13055,30710,0.0
-10843,12562,30505,0.0
-10887,12195,30595,0.0
-11313,12241,31753,0.0
0,0,0,0.0
0,0,0,0.0
0,0,0,0.0
0,0,0,0.0
-11340,10167,31631,0.0
-11356,9770,31634,0.0
-11274,9296,31365,0.0
-11371,8972,31590,0.0
-11637,8771,32284,0.0
-11912,8560,33000,0.0
-9243,6321,25570,0.0
-9208,5979,25437,0.0
-9208,5664,25400,0.0
-9194,5343,25325,0.0
-9191,5030,25277,0.0
-9162,4707,25160,0.0
-9161,4400,25115,0.0
-9142,4087,25025,0.0
-9138,3784,24974,0.0
-9125,3479,24899,0.0
-9125,3182,24859,0.0
-9110,2880,24774,0.0
-9116,2588,24751,0.0
-9082,2287,24614,0.0
-9073,1995,24548,0.0
-9089,1709,24547,0.0
-9059,1417,24422,0.0
-9076,1133,24424,0.0
-9048,845,24305,0.0
-9057,563,24283,0.0
-9042,281,24197,0.0
-9040,0,24146,0.0
-9036,-279,24085,0.0
-9023,-556,24006,0.0
-8971,-829,23818,0.0
-9260,-1139,24535,0.0
-9486,-1458,25082,0.0
-10213,-1880,26951,2.0
-10452,-2242,27520,2.0
-10452,-2559,27463,2.0
-10528,-2896,27602,2.0
-10621,-3243,27786,2.0
-10747,-3605,28053,2.0
-10818,-3954,28174,2.0
-10913,-4318,28358,2.0
-10961,-4666,28417,2.0
-11061,-5040,28606,2.0
-11092,-5386,28618,2.0
-11024,-5683,28374,2.0
-10968,-5982,28160,2.0
-10917,-6281,27961,2.0
-10982,-6647,28055,2.0
-11247,-7142,28658,2.0
-11344,-7543,28832,2.0
-11425,-7937,28960,2.0
-11508,-8339,29093,2.0
-11558,-8720,29139,2.0
0,0,0,0.0
-11584,-9434,29043,2.0
-11545,-9748,28865,2.0
-11484,-10042,28631,2.0
-11423,-10332,28395,2.0
-11328,-10586,28075,2.0
-11224,-10827,27733,2.0
-11086,-11029,27308,2.0
-11209,-11489,27526,2.0
-11354,-11983,27793,2.0
-11450,-12431,27938,2.0
-11514,-12851,28004,2.0
-11538,-13230,27969,2.0
-11500,-13539,27784,2.0
-11485,-13873,27652,2.0
-11434,-14163,27433,2.0
-11308,-14358,27037,2.0
-11187,-14549,26649,2.0
-11214,-14935,26619,2.0
0,0,0,0.0
-11121,-15506,26201,2.0
-11046,-15749,25924,2.0
-10915,-15907,25517,2.0
-10889,-16217,25357,2.0
-10811,-16445,25073,2.0
-10744,-16687,24815,2.0
-10552,-16729,24269,2.0
-10271,-16615,23521,0.0
-9974,-16460,22742,0.0
-9650,-16241,21907,0.0
-9512,-16321,21495,0.0
-9299,-16263,20916,0.0
-9157,-16321,20502,0.0
-9114,-16551,20308,0.0
-9231,-17075,20470,0.0
-9238,-17402,20384,0.0
-9250,-17740,20305,0.0
-9269,-18097,20242,0.0
-9290,-18461,20181,0.0
-9310,-18825,20115,0.0
-9313,-19161,20013,0.0
-9339,-19547,19957,0.0
-9360,-19926,19886,0.0
-9381,-20310,19814,0.0
-9378,-20646,19689,0.0
-9399,-21035,19611,0.0
-9432,-21460,19558,0.0
-9439,-21831,19448,0.0
-9472,-22262,19386,0.0
-9487,-22663,19289,0.0
-9511,-23087,19205,0.0
-9533,-23512,19115,0.0
-9469,-23727,18850,0.0
0,0,0,0.0
0,0,0,0.0
0,0,0,0.0
0,0,0,0.0
0,0,0,0.0
0,0,0,0.0
0,0,0,0.0
0,0,0,0.0
0,0,0,0.0
0,0,0,0.0
0,0,0,0.0
0,0,0,0.0
0,0,0,0.0
0,0,0,0.0
0,0,0,0.0
0,0,0,0.0
0,0,0,0.0
0,0,0,0.0
0,0,0,0.0
0,0,0,0.0
0,0,0,0.0
-54,-191,87,0.0
-59,-213,94,0.0
-60,-218,93,0.0
-70,-258,108,0.0
-73,-274,110,0.0
-76,-289,113,0.0
-82,-321,121,0.0
-87,-341,125,0.0
-87,-349,123,0.0
-87,-352,120,0.0
-83,-342,113,0.0
-83,-345,110,0.0
-82,-351,107,0.0
-81,-352,103,0.0
-81,-357,101,0.0
-78,-350,94,0.0
-76,-347,90,0.0
-4786,16198,14486,0.0
-4873,16132,14742,0.0
-4962,16066,15001,0.0
-5040,15963,15229,0.0
-5360,16601,16184,0.0
-5068,15354,15296,0.0
-5318,15756,16039,0.0
-5208,15089,15696,0.0
-5260,14902,15841,0.0
-6306,17467,18978,0.0
-6301,17064,18950,0.0
-6280,16628,18874,0.0
-6246,16164,18757,0.0
-6197,15672,18592,0.0
-6025,14891,18063,0.0
-6188,14942,18535,0.0
-6180,14578,18495,0.0
-6200,14286,18541,0.0
-10426,23461,31151,0.0
-10471,23006,31257,0.0
-10155,21780,30286,0.0
0,0,0,0.0
-10154,20742,30229,0.0
-10039,20005,29859,0.0
-10214,19847,30346,0.0
-10322,19557,30639,0.0
-10368,19146,30742,0.0
-10447,18797,30944,0.0
-10449,18312,30918,0.0
-11381,19420,33639,0.0
-11405,18941,33672,0.0
-11353,18346,33486,0.0
-11321,17791,33353,0.0
-11282,17235,33202,0.0
-11252,16700,33075,0.0
-11253,16220,33039,0.0
-11208,15681,32871,0.0
-10194,13834,29861,0.0
-10202,13419,29844,0.0
-10193,12991,29785,0.0
-10282,12687,30008,0.0
-10477,12504,30535,0.0
-11111,12819,32342,0.0
-10765,11996,31296,0.0
0,0,0,0.0
-11091,11498,32159,0.0
-11042,11022,31971,0.0
0,0,0,0.0
-11012,10160,31801,0.0
-10947,9690,31567,0.0
-10908,9251,31408,0.0
-11019,8941,31684,0.0
-11283,8745,32395,0.0
-8909,6581,25540,0.0
-8934,6279,25572,0.0
-8911,5946,25469,0.0
-8891,5619,25376,0.0
-8899,5312,25359,0.0
-8887,4994,25285,0.0
-8879,4681,25221,0.0
-8870,4372,25154,0.0
-8842,4055,25035,0.0
-8845,3756,25002,0.0
-8832,3451,24922,0.0
-8815,3149,24835,0.0
-8813,2853,24788,0.0
-8797,2555,24699,0.0
-8783,2260,24615,0.0
-8788,1972,24587,0.0
-8775,1681,24505,0.0
-8768,1394,24440,0.0
-8760,1108,24375,0.0
-8751,824,24302,0.0
-8755,542,24268,0.0
-8743,260,24187,0.0
-8744,-17,24143,0.0
-8740,-296,24087,0.0
-8727,-572,24002,0.0
-8729,-849,23959,0.0
-8967,-1155,24561,0.0
-9177,-1471,25084,0.0
-9926,-1904,27075,2.0
-10069,-2246,27409,2.0
-10143,-2579,27548,2.0
-10169,-2903,27559,2.0
-10294,-3259,27837,2.0
-10395,-3613,28047,2.0
-10447,-3955,28124,2.0
-10527,-4312,28275,2.0
-10614,-4676,28443,2.0
-10647,-5019,28465,2.0
-10703,-5376,28545,2.0
-10665,-5686,28378,2.0
-10584,-5968,28090,2.0
-10560,-6279,27957,2.0
-10580,-6617,27940,2.0
-10857,-7125,28602,2.0
-10928,-7506,28713,2.0
-11001,-7896,28831,2.0
-11084,-8297,28970,2.0
-11159,-8696,29086,2.0
-11162,-9043,29014,2.0
-11187,-9409,29001,2.0
-11120,-9696,28745,2.0
-11068,-9992,28530,2.0
-11016,-10287,28314,2.0
-10900,-10516,27935,2.0
-10831,-10787,27676,2.0
-10694,-10983,27245,2.0
-10832,-11462,27510,2.0
-10887,-11861,27564,2.0
-10993,-12320,27746,2.0
-11095,-12784,27913,2.0
-11158,-13207,27978,2.0
-11192,-13601,27972,2.0
-11149,-13901,27771,2.0
-11049,-14128,27428,2.0
-10886,-14267,26931,2.0
-10781,-14474,26576,2.0
-10798,-14844,26524,2.0
-10810,-15208,26456,2.0
-10744,-15465,26199,2.0
-10664,-15696,25906,2.0
-10594,-15939,25638,2.0
-10551,-16221,25434,2.0
-10477,-16453,25156,2.0
-10389,-16658,24843,2.0
-10251,-16779,24413,2.0
-9926,-16580,23542,0.0
-9675,-16487,22849,0.0
-9372,-16287,22037,0.0
-9185,-16275,21502,0.0
-9020,-16293,21022,0.0
-8881,-16349,20603,0.0
-8809,-16523,20341,0.0
-8893,-16990,20435,0.0
-8905,-17327,20364,0.0
-8930,-17694,20321,0.0
-8935,-18023,20230,0.0
-8942,-18360,20142,0.0
-8961,-18725,20081,0.0
-8974,-19080,20001,0.0
-8987,-19440,19920,0.0
-9013,-19829,19864,0.0
-9024,-20193,19776,0.0
-9049,-20593,19716,0.0
-9072,-20992,19648,0.0
-9091,-21387,19569,0.0
-9092,-21745,19450,0.0
-9126,-22183,19397,0.0
-9129,-22554,19278,0.0
-9156,-22987,19204,0.0
-9182,-23425,19127,0.0
-9113,-23624,18852,0.0
0,0,0,0.0
0,0,0,0.0
0,0,0,0.0
0,0,0,0.0
0,0,0,0.0
0,0,0,0.0
0,0,0,0.0
0,0,0,0.0
-628,-1874,1209,0.0
-656,-1991,1253,0.0
0,0,0,0.0
0,0,0,0.0
0,0,0,0.0
0,0,0,0.0
-622,-2034,1129,0.0
0,0,0,0.0
0,0,0,0.0
-588,-2016,1033,0.0
-595,-2073,1033,0.0
0,0,0,0.0
0,0,0,0.0
-52,-191,88,0.0
-57,-213,94,0.0
-60,-228,99,0.0
-59,-231,97,0.0
-71,-280,113,0.0
-73,-292,114,0.0
-80,-324,123,0.0
-81,-332,122,0.0
-81,-337,120,0.0
-80,-340,117,0.0
-79,-337,112,0.0
-78,-340,109,0.0
-76,-336,103,0.0
-75,-340,100,0.0
-75,-345,98,0.0
-72,-336,92,0.0
-72,-341,89,0.0
-4209,16137,14649,0.0
-4293,16083,14918,0.0
-4378,16026,15187,0.0
-4462,15957,15450,0.0
-4542,15874,15705,0.0
-4634,15826,15998,0.0
-4548,15174,15673,0.0
-4782,15588,16454,0.0
-4772,15200,16396,0.0
-4777,14864,16385,0.0
-5098,15497,17461,0.0
-5205,15454,17799,0.0
-5303,15376,18103,0.0
-5403,15300,18416,0.0
-5503,15215,18725,0.0
0,0,0,0.0
-5619,14809,19060,0.0
-5616,14447,19022,0.0
-5646,14175,19094,0.0
-9422,23080,31813,0.0
0,0,0,0.0
-9001,20980,30297,0.0
-7162,16277,24067,0.0
-7220,15997,24225,0.0
-7204,15559,24135,0.0
-7221,15195,24154,0.0
-7211,14781,24083,0.0
-7238,14447,24135,0.0
-6847,13306,22797,0.0
-7226,13663,24018,0.0
-7201,13247,23899,0.0
-7234,12942,23973,0.0
-10041,17458,33222,0.0
-10018,16922,33091,0.0
-10030,16453,33079,0.0
-9987,15901,32885,0.0
-9226,14249,30329,0.0
-9169,13730,30095,0.0
-9166,13299,30036,0.0
-9221,12955,30169,0.0
-9248,12572,30206,0.0
-9387,12339,30610,0.0
-9662,12271,31457,0.0
-9795,12009,31841,0.0
-9876,11678,32052,0.0
-9883,11259,32017,0.0
-9884,10839,31970,0.0
-9832,10365,31745,0.0
0,0,0,0.0
-9726,9443,31300,0.0
-9782,9095,31426,0.0
-9926,8824,31836,0.0
-10196,8652,32646,0.0
-7990,6460,25539,0.0
-7986,6139,25481,0.0
-7980,5819,25418,0.0
-7969,5500,25340,0.0
-7958,5182,25260,0.0
-7969,4882,25248,0.0
-7949,4566,25141,0.0
-7935,4256,25054,0.0
-7927,3952,24981,0.0
-7937,3658,24966,0.0
-7919,3355,24865,0.0
-7903,3055,24768,0.0
-7914,2767,24756,0.0
-7913,2477,24707,0.0
-7889,2181,24584,0.0
-7894,1896,24553,0.0
-7885,1610,24481,0.0
-7868,1324,24381,0.0
-7875,1043,24353,0.0
-7883,764,24332,0.0
-7862,483,24216,0.0
-7858,206,24154,0.0
-7851,-69,24088,0.0
-7855,-345,24049,0.0
-7856,-619,24001,0.0
-7843,-891,23916,0.0
-8122,-1204,24713,0.0
-8316,-1522,25247,0.0
-8900,-1935,26963,2.0
-8964,-2257,27101,2.0
-9012,-2579,27186,2.0
-9104,-2916,27401,2.0
-9226,-3271,27710,2.0
-9306,-3618,27884,2.0
-9356,-3955,27972,2.0
-9468,-4326,28244,2.0
-9514,-4670,28315,2.0
-9568,-5020,28408,2.0
-9628,-5378,28519,2.0
-9680,-5735,28604,2.0
-9627,-6031,28382,2.0
-9605,-6342,28248,2.0
-9614,-6673,28204,2.0
-9794,-7130,28661,2.0
-9891,-7534,28872,2.0
-9938,-7907,28935,2.0
-10051,-8338,29191,2.0
-10074,-8699,29181,2.0
-10085,-9050,29134,2.0
-10098,-9405,29095,2.0
0,0,0,0.0
-9998,-9993,28652,2.0
-9960,-10295,28463,2.0
-9894,-10565,28195,2.0
0,0,0,0.0
-9693,-11016,27465,2.0
-9812,-11490,27722,2.0
-9881,-11911,27835,2.0
-9913,-12292,27838,2.0
-9999,-12745,27994,2.0
-10072,-13190,28114,2.0
-10033,-13489,27916,2.0
-10012,-13812,27770,2.0
-9929,-14046,27450,2.0
-9868,-14309,27194,2.0
-9700,-14410,26644,2.0
-9729,-14800,26633,2.0
-9681,-15074,26413,2.0
-9633,-15346,26190,2.0
-9579,-15605,25951,2.0
-9538,-15886,25750,2.0
-9450,-16083,25417,2.0
-9394,-16335,25176,2.0
-9377,-16650,25035,2.0
-9226,-16724,24536,2.0
-8986,-16625,23805,0.0
-8762,-16540,23120,0.0
-8515,-16397,22380,0.0
-8288,-16275,21693,0.0
-8129,-16277,21191,0.0
-7944,-16213,20620,0.0
-7906,-16443,20433,0.0
-7957,-16863,20476,0.0
-7970,-17204,20416,0.0
-7962,-17506,20305,0.0
-7965,-17834,20218,0.0
-7993,-18220,20191,0.0
-7989,-18538,20084,0.0
-8012,-18923,20045,0.0
-8020,-19276,19963,0.0
-8022,-19620,19868,0.0
-8045,-20018,19819,0.0
-8060,-20402,19750,0.0
-8067,-20770,19660,0.0
-8084,-21167,19591,0.0
-8093,-21550,19501,0.0
-8106,-21947,19419,0.0
-8119,-22352,19334,0.0
-8129,-22754,19243,0.0
-8143,-23169,19153,0.0
-8150,-23573,19049,0.0
-8121,-23874,18857,0.0
0,0,0,0.0
0,0,0,0.0
-601,-1857,1368,0.0
0,0,0,0.0
0,0,0,0.0
0,0,0,0.0
0,0,0,0.0
0,0,0,0.0
-574,-1952,1248,0.0
0,0,0,0.0
0,0,0,0.0
0,0,0,0.0
0,0,0,0.0
0,0,0,0.0
-565,-2116,1163,0.0
0,0,0,0.0
0,0,0,0.0
0,0,0,0.0
-536,-2138,1055,0.0
-41,-167,79,0.0
-44,-183,86,0.0
-48,-203,92,0.0
-48,-207,91,0.0
-53,-235,101,0.0
-59,-262,108,0.0
-59,-266,107,0.0
-66,-302,118,0.0
-71,-332,125,0.0
-71,-335,122,0.0
-71,-341,120,0.0
-71,-348,118,0.0
-69,-342,112,0.0
-66,-337,107,0.0
-66,-341,104,0.0
-65,-344,101,0.0
-63,-338,95,0.0
-63,-343,92,0.0
-3441,16086,14866,0.0
-3517,16034,15140,0.0
-3591,15966,15400,0.0
-3672,15922,15691,0.0
-3750,15861,15970,0.0
-3828,15793,16248,0.0
-3904,15709,16513,0.0
-3987,15650,16810,0.0
-4063,15557,17076,0.0
-4048,15122,16963,0.0
-4101,14943,17131,0.0
-4176,14839,17389,0.0
-4422,15324,18356,0.0
-4513,15255,18680,0.0
-4603,15174,19000,0.0
-4698,15101,19335,0.0
-4775,14965,19598,0.0
-4854,14829,19865,0.0
-4857,14464,19823,0.0
-4852,14081,19747,0.0
-5198,14698,21097,0.0
-5310,14626,21492,0.0
-5420,14543,21881,0.0
-5532,14455,22274,0.0
-5644,14363,22673,0.0
-5767,14283,23105,0.0
-5881,14175,23502,0.0
-5992,14050,23886,0.0
-6131,13982,24382,0.0
-6136,13604,24342,0.0
-6127,13203,24249,0.0
-8433,17652,33289,0.0
-8419,17116,33157,0.0
-7051,13915,27705,0.0
-8410,16102,32966,0.0
-8402,15600,32858,0.0
-8389,15097,32730,0.0
-7769,13545,30244,0.0
-7792,13153,30266,0.0
-7855,12830,30442,0.0
-8122,12827,31407,0.0
-8171,12467,31524,0.0
-8347,12294,32130,0.0
-8383,11910,32198,0.0
-8364,11453,32058,0.0
-8360,11021,31969,0.0
-8356,10594,31884,0.0
-8322,10135,31682,0.0
-8299,9699,31530,0.0
-8261,9252,31318,0.0
-8347,8944,31575,0.0
-8533,8735,32208,0.0
-8775,8567,33052,0.0
-6805,6324,25576,0.0
-6799,6003,25499,0.0
-6795,5685,25429,0.0
-6806,5384,25418,0.0
-6801,5072,25347,0.0
-6781,4752,25218,0.0
-6801,4462,25237,0.0
-6800,4161,25180,0.0
-6782,3852,25061,0.0
-6816,3574,25130,0.0
-6807,3274,25046,0.0
-6814,2984,25018,0.0
-6781,2680,24845,0.0
-6815,2404,24918,0.0
-6815,2115,24864,0.0
-6828,1834,24858,0.0
-6817,1545,24763,0.0
-6829,1265,24757,0.0
-6830,983,24707,0.0
-6818,700,24612,0.0
-6834,422,24614,0.0
-6853,144,24630,0.0
-6848,-134,24557,0.0
-6856,-411,24535,0.0
-6858,-688,24489,0.0
-6834,-959,24350,0.0
-6994,-1262,24863,0.0
-7006,-1544,24851,0.0
-7004,-1822,24789,0.0
-6998,-2098,24714,0.0
-6991,-2372,24636,0.0
-7002,-2652,24618,0.0
-6996,-2926,24544,0.0
-6998,-3202,24493,0.0
-6994,-3475,24424,0.0
-6985,-3745,24339,0.0
-6996,-4025,24320,0.0
-6992,-4296,24250,0.0
-6994,-4571,24200,0.0
-6990,-4841,24131,0.0
-6991,-5115,24074,0.0
-6997,-5394,24039,0.0
-7000,-5670,23993,0.0
-6987,-5932,23892,0.0
-6996,-6213,23865,0.0
-7001,-6491,23823,0.0
-6973,-6738,23669,0.0
-6991,-7031,23672,0.0
-6998,-7311,23634,0.0
-7001,-7590,23585,0.0
-6983,-7846,23466,0.0
-7001,-8143,23466,0.0
-6999,-8418,23400,0.0
-7013,-8712,23381,0.0
-7008,-8985,23304,0.0
-6993,-9246,23196,0.0
-7001,-9536,23159,0.0
-6996,-9810,23079,0.0
-6994,-10088,23007,0.0
-6985,-10359,22916,0.0
-6993,-10655,22879,0.0
-7001,-10950,22837,0.0
-7012,-11255,22807,0.0
-7001,-11526,22707,0.0
-6997,-11809,22627,0.0
-7009,-12121,22600,0.0
-6992,-12383,22476,0.0
-7003,-12696,22443,0.0
-7006,-12997,22382,0.0
-7019,-13321,22356,0.0
-6992,-13568,22199,0.0
-7012,-13908,22189,0.0
-7011,-14211,22115,0.0
-7020,-14535,22071,0.0
-7027,-14858,22018,0.0
-7019,-15152,21919,0.0
-7001,-15426,21788,0.0
-7009,-15758,21736,0.0
-7027,-16117,21715,0.0
-6995,-16363,21536,0.0
-6904,-16468,21177,0.0
-6909,-16802,21115,0.0
-6928,-17173,21092,0.0
-6928,-17503,21013,0.0
-6951,-17893,20999,0.0
-6928,-18167,20844,0.0
-6914,-18468,20717,0.0
-6954,-18917,20750,0.0
-6925,-19185,20579,0.0
-6933,-19558,20514,0.0
-6958,-19985,20499,0.0
-6974,-20392,20456,0.0
-6944,-20667,20275,0.0
-6970,-21113,20257,0.0
-6889,-21233,19924,0.0
-6947,-21789,19995,0.0
-6951,-22184,19907,0.0
-24,-81,72,0.0
-6892,-22769,19539,0.0
-6891,-23161,19433,0.0
-6948,-23757,19489,0.0
0,0,0,0.0
-529,-1871,1467,0.0
-521,-1878,1439,0.0
-505,-1852,1387,0.0
-500,-1865,1365,0.0
0,0,0,0.0
0,0,0,0.0
-510,-1999,1364,0.0
0,0,0,0.0
0,0,0,0.0
0,0,0,0.0
0,0,0,0.0
0,0,0,0.0
0,0,0,0.0
0,0,0,0.0
0,0,0,0.0
-457,-2090,1142,0.0
0,0,0,0.0
-35,-170,88,0.0
-34,-169,85,0.0
-38,-189,93,0.0
-34,-177,84,0.0
-38,-200,93,0.0
-39,-206,93,0.0
-42,-225,99,0.0
-44,-245,104,0.0
-47,-262,108,0.0
-48,-275,110,0.0
-52,-302,117,0.0
-56,-329,123,0.0
-58,-346,126,0.0
-56,-343,120,0.0
-55,-339,115,0.0
-54,-342,111,0.0
-54,-347,109,0.0
-53,-350,105,0.0
-51,-345,100,0.0
-51,-348,98,0.0
-3640,34411,32832,0.0
-1657,15107,14724,0.0
-1691,14887,14822,0.0
-2079,17674,17977,0.0
-3817,31345,32572,0.0
-3869,30708,32602,0.0
-2274,17451,18929,0.0
-2299,17064,18912,0.0
-2311,16604,18804,0.0
-2325,16164,18707,0.0
-2340,15750,18629,0.0
-2352,15326,18528,0.0
-2280,14394,17788,0.0
-2371,14499,18317,0.0
-2408,14269,18432,0.0
-2674,15354,20281,0.0
-2847,15843,21405,0.0
-2682,14463,19988,0.0
-2692,14071,19895,0.0
-2885,14619,21153,0.0
-2801,13759,20377,0.0
-2907,13843,20988,0.0
-2941,13573,21072,0.0
-4275,19123,30409,0.0
-4337,18799,30628,0.0
-4402,18493,30877,0.0
-3870,15751,26960,0.0
-4836,19074,33478,0.0
0,0,0,0.0
-4069,15054,27812,0.0
-4083,14623,27734,0.0
-3907,13541,26377,0.0
-4064,13632,27282,0.0
-3989,12941,26623,0.0
-4016,12598,26654,0.0
-4283,12986,28272,0.0
-4391,12861,28827,0.0
-4549,12865,29705,0.0
-4650,12692,30208,0.0
-4802,12644,31041,0.0
-4931,12515,31718,0.0
-5030,12298,32198,0.0
-5038,11859,32100,0.0
-5046,11425,32000,0.0
0,0,0,0.0
-5076,10607,31906,0.0
0,0,0,0.0
0,0,0,0.0
-5041,9264,31276,0.0
-5099,8956,31501,0.0
-5216,8743,32094,0.0
-5360,8562,32848,0.0
-4503,6844,27492,0.0
-4635,6688,28185,0.0
-4696,6420,28449,0.0
-4706,6081,28400,0.0
-4704,5731,28285,0.0
-4709,5393,28215,0.0
-4709,5053,28110,0.0
-4718,4726,28068,0.0
-4719,4396,27984,0.0
-4719,4065,27883,0.0
-4716,3737,27774,0.0
-4720,3416,27705,0.0
-4729,3102,27667,0.0
-4722,2781,27539,0.0
-4721,2465,27448,0.0
-4730,2158,27412,0.0
-4729,1847,27329,0.0
-4592,1495,26453,0.0
-4641,1211,26659,0.0
-4597,904,26332,0.0
-4577,608,26140,0.0
-4602,320,26212,0.0
-4720,31,26801,0.0
-4727,-265,26772,0.0
-4725,-558,26686,0.0
-4727,-852,26624,0.0
-4714,-1142,26487,0.0
-4717,-1432,26434,0.0
-4713,-1719,26335,0.0
-4720,-2011,26312,0.0
-4719,-2298,26244,0.0
-4719,-2584,26177,0.0
-4713,-2866,26079,0.0
-4711,-3150,25998,0.0
-4712,-3435,25947,0.0
-4715,-3721,25897,0.0
-4709,-4000,25806,0.0
-4702,-4278,25710,0.0
-4699,-4557,25630,0.0
-4702,-4843,25591,0.0
-4695,-5118,25495,0.0
-4689,-5393,25403,0.0
-4689,-5675,25351,0.0
-4682,-5950,25256,0.0
-4683,-6234,25209,0.0
-4679,-6511,25134,0.0
-4676,-6790,25068,0.0
-4671,-7066,24987,0.0
-4659,-7333,24874,0.0
-4657,-7614,24812,0.0
-4664,-7910,24796,0.0
-4659,-8188,24717,0.0
-4664,-8484,24692,0.0
-4658,-8765,24617,0.0
-4647,-9031,24505,0.0
-4650,-9329,24474,0.0
-4650,-9623,24430,0.0
-4649,-9916,24380,0.0
-4643,-10198,24300,0.0
-4644,-10498,24259,0.0
-4636,-10779,24172,0.0
-4628,-11062,24086,0.0
-4632,-11377,24067,0.0
-4631,-11680,24018,0.0
-4620,-11958,23915,0.0
-4631,-12297,23928,0.0
-4620,-12584,23835,0.0
-4620,-12898,23790,0.0
-4613,-13198,23716,0.0
-4616,-13527,23686,0.0
-4613,-13844,23634,0.0
-4609,-14158,23570,0.0
-4602,-14470,23498,0.0
-4601,-14801,23453,0.0
-4592,-15109,23367,0.0
-4602,-15484,23378,0.0
-4592,-15797,23288,0.0
-4588,-16135,23232,0.0
-4588,-16491,23195,0.0
-4576,-16806,23096,0.0
-4570,-17150,23032,0.0
-4563,-17494,22962,0.0
-4564,-17867,22925,0.0
-4559,-18228,22865,0.0
-4552,-18586,22796,0.0
-4540,-18927,22700,0.0
-4543,-19338,22682,0.0
-4539,-19724,22626,0.0
-4528,-20086,22538,0.0
-4526,-20492,22490,0.0
-4516,-20873,22410,0.0
-4505,-21250,22319,0.0
-4505,-21692,22288,0.0
-4490,-22066,22181,0.0
-4479,-22467,22095,0.0
-4467,-22867,22000,0.0
-4464,-23324,21955,0.0
-4454,-23750,21871,0.0
-4445,-24196,21797,0.0
-13,-71,63,0.0
-4420,-25073,21612,0.0
-15,-84,71,0.0
-14,-83,68,0.0
-12,-77,62,0.0
-13,-82,64,0.0
0,0,0,0.0
-19,-118,89,0.0
0,0,0,0.0
0,0,0,0.0
-286,-1962,1380,0.0
-289,-2020,1390,0.0
0,0,0,0.0
0,0,0,0.0
0,0,0,0.0
0,0,0,0.0
-264,-2073,1266,0.0
-256,-2055,1224,0.0
-245,-2004,1165,0.0
-256,-2146,1216,0.0
-19,-162,89,0.0
-19,-164,88,0.0
-19,-166,87,0.0
-18,-172,88,0.0
-20,-194,96,0.0
-20,-195,94,0.0
-21,-204,95,0.0
-22,-230,105,0.0
-22,-226,99,0.0
-23,-248,107,0.0
-24,-272,114,0.0
-24,-275,112,0.0
-26,-306,120,0.0
-26,-323,123,0.0
-27,-335,124,0.0
-26,-334,119,0.0
-25,-337,116,0.0
-25,-343,114,0.0
-24,-345,110,0.0
-23,-341,105,0.0
-22,-346,103,0.0
-532,16725,16202,0.0
-572,16499,16326,0.0
-613,16344,16521,0.0
-569,14101,14562,0.0
-601,13855,14616,0.0
-1365,29439,31728,0.0
-1427,28872,31791,0.0
-1477,28088,31601,0.0
0,0,0,0.0
-1590,26934,31642,0.0
-1608,25773,30945,0.0
-1665,25311,31061,0.0
-1714,24732,31024,0.0
-1754,24065,30863,0.0
-1171,15310,20076,0.0
-1181,14713,19730,0.0
-1231,14622,20055,0.0
-1326,15044,21107,0.0
-1364,14796,21239,0.0
-1390,14431,21199,0.0
-1997,19844,29837,0.0
-2058,19591,30158,0.0
-2110,19251,30344,0.0
-2166,18948,30595,0.0
-2222,18655,30860,0.0
-2455,19776,33529,0.0
-2499,19319,33579,0.0
-2525,18745,33412,0.0
-2554,18211,33302,0.0
-2580,17665,33151,0.0
-2177,14326,27601,0.0
-2204,13927,27561,0.0
-2226,13518,27487,0.0
-2258,13172,27533,0.0
-2275,12742,27395,0.0
-2330,12539,27742,0.0
-2316,11969,27267,0.0
-2333,11572,27160,0.0
-2346,11165,27015,0.0
-2554,11666,29124,0.0
-2582,11309,29148,0.0
-2873,12056,32104,0.0
-2902,11668,32127,0.0
-2912,11208,31941,0.0
-2932,10796,31875,0.0
-2951,10388,31806,0.0
-2961,9956,31646,0.0
-2947,9455,31241,0.0
-2971,9088,31252,0.0
-3033,8833,31658,0.0
-3128,8662,32409,0.0
-3228,8488,33203,0.0
-2705,6742,27627,0.0
-2782,6560,28216,0.0
-2820,6280,28414,0.0
-2831,5938,28326,0.0
-2838,5594,28217,0.0
-2851,5266,28172,0.0
-2858,4931,28076,0.0
-2866,4602,27990,0.0
-2875,4278,27920,0.0
-2885,3957,27856,0.0
-2887,3629,27726,0.0
-2893,3312,27640,0.0
-2901,3000,27578,0.0
-2909,2688,27511,0.0
-2913,2376,27418,0.0
-2915,2067,27308,0.0
-2922,1763,27242,0.0
-2823,1408,26207,0.0
-2923,1156,27021,0.0
-2873,841,26440,0.0
-2849,545,26116,0.0
-2924,266,26687,0.0
-2947,-26,26795,0.0
-2948,-318,26716,0.0
-2950,-608,26623,0.0
-2954,-898,26569,0.0
-2953,-1185,26467,0.0
-2957,-1472,26410,0.0
-2960,-1758,26355,0.0
-2958,-2040,26257,0.0
-2962,-2326,26215,0.0
-2963,-2607,26137,0.0
-2962,-2888,26060,0.0
-2962,-3170,25990,0.0
-2964,-3450,25930,0.0
-2960,-3725,25830,0.0
-2962,-4007,25781,0.0
-2958,-4281,25685,0.0
-2961,-4563,25645,0.0
-2956,-4835,25548,0.0
-2958,-5118,25512,0.0
-2951,-5385,25398,0.0
-2950,-5664,25341,0.0
-2945,-5933,25247,0.0
-2945,-6215,25204,0.0
-2937,-6478,25090,0.0
-2933,-6753,25021,0.0
-2933,-7037,24979,0.0
-2925,-7302,24875,0.0
-2924,-7584,24827,0.0
-2920,-7862,24762,0.0
-2915,-8135,24686,0.0
-2916,-8432,24673,0.0
-2912,-8712,24609,0.0
-2902,-8976,24500,0.0
-2896,-9258,24438,0.0
-2897,-9557,24418,0.0
-2874,-9781,24207,0.0
-2882,-10116,24266,0.0
-2877,-10403,24209,0.0
-2870,-10688,24141,0.0
-2864,-10976,24078,0.0
-2787,-10991,23427,0.0
-2782,-11285,23385,0.0
-2840,-11842,23870,0.0
-2842,-12176,23883,0.0
-2835,-12479,23832,0.0
-2828,-12781,23773,0.0
-2823,-13103,23747,0.0
-2816,-13415,23697,0.0
-2804,-13709,23611,0.0
-2732,-13702,23016,0.0
-2724,-14016,22969,0.0
-2744,-14481,23160,0.0
-2770,-14991,23403,0.0
-2766,-15347,23393,0.0
-2746,-15620,23252,0.0
-2736,-15955,23201,0.0
-2729,-16308,23169,0.0
-2717,-16645,23109,0.0
-2705,-16985,23045,0.0
-2692,-17331,22986,0.0
-2679,-17674,22918,0.0
-2666,-18030,22860,0.0
-2652,-18391,22803,0.0
-2639,-18753,22740,0.0
-2624,-19118,22675,0.0
-2611,-19503,22627,0.0
-2591,-19843,22521,0.0
-2569,-20178,22404,0.0
-2559,-20621,22402,0.0
-2544,-21022,22345,0.0
-2525,-21411,22267,0.0
-2508,-21829,22213,0.0
-2485,-22191,22097,0.0
-2469,-22641,22060,0.0
-2447,-23053,21978,0.0
-2429,-23495,21917,0.0
-2405,-23913,21827,0.0
-2383,-24351,21746,0.0
-7,-74,65,0.0
-2326,-25136,21485,0.0
-8,-86,71,0.0
-161,-1842,1506,0.0
-151,-1783,1426,0.0
-9,-111,86,0.0
-153,-1918,1467,0.0
0,0,0,0.0
-142,-1904,1392,0.0
-142,-1970,1409,0.0
0,0,0,0.0
0,0,0,0.0
0,0,0,0.0
0,0,0,0.0
0,0,0,0.0
-124,-2119,1316,0.0
0,0,0,0.0
0,0,0,0.0
0,0,0,0.0
-102,-2049,1153,0.0
-8,-166,90,0.0
-9,-189,100,0.0
-8,-186,97,0.0
-8,-178,89,0.0
-8,-198,98,0.0
-8,-218,105,0.0
-8,-220,103,0.0
-8,-229,104,0.0
-7,-245,108,0.0
-7,-257,110,0.0
-7,-273,113,0.0
-6,-269,108,0.0
-7,-299,116,0.0
-6,-323,122,0.0
-6,-336,123,0.0
-6,-342,121,0.0
-5,-344,117,0.0
-4,-349,115,0.0
-3,-343,109,0.0
-3,-347,106,0.0
259,14362,14018,0.0
523,32638,32540,0.0
258,18570,18912,0.0
193,16353,17013,0.0
131,13617,14472,0.0
119,15995,17367,0.0
81,15628,17337,0.0
44,15098,17112,0.0
9,14979,17349,0.0
-28,16865,19962,0.0
-67,16400,19838,0.0
-106,16215,20049,0.0
-145,16055,20291,0.0
-184,16034,20718,0.0
-215,15262,20165,0.0
-385,22966,31028,0.0
-426,21850,30194,0.0
-332,14957,21143,0.0
-367,14649,21187,0.0
-400,14319,21193,0.0
-621,20087,30433,0.0
-666,19616,30426,0.0
-706,19030,30228,0.0
-759,18828,30634,0.0
-806,18489,30822,0.0
-925,19682,33628,0.0
-966,19111,33477,0.0
-791,14611,26247,0.0
-825,14256,26275,0.0
-899,14561,27542,0.0
-934,14204,27583,0.0
-964,13794,27512,0.0
-994,13400,27466,0.0
-1027,13068,27536,0.0
-1041,12509,27111,0.0
-1073,12186,27182,0.0
-1086,11663,26787,0.0
-1110,11277,26691,0.0
-1151,11075,27022,0.0
-1342,12239,30809,0.0
-1430,12349,32096,0.0
-1455,11920,32012,0.0
-1484,11519,31992,0.0
-1506,11078,31848,0.0
-1534,10686,31832,0.0
-1560,10295,31806,0.0
-1577,9859,31628,0.0
-1586,9382,31287,0.0
-1616,9037,31370,0.0
-1662,8791,31809,0.0
-1728,8627,32587,0.0
-1794,8446,33368,0.0
-1516,6722,27822,0.0
-1569,6539,28414,0.0
-1586,6206,28374,0.0
-1601,5865,28282,0.0
-1612,5523,28169,0.0
-1626,5193,28096,0.0
-1641,4868,28042,0.0
-1652,4540,27953,0.0
-1663,4213,27845,0.0
-1676,3898,27802,0.0
-1687,3580,27724,0.0
-1699,3269,27681,0.0
-1704,2948,27526,0.0
-1716,2641,27486,0.0
-1685,2278,26759,0.0
-1661,1943,26181,0.0
-1669,1652,26115,0.0
-1677,1364,26051,0.0
-1685,1079,26001,0.0
-1692,793,25947,0.0
-1701,511,25905,0.0
-1706,228,25833,0.0
-1718,-52,25867,0.0
-1752,-338,26226,0.0
-1775,-628,26426,0.0
-1789,-918,26496,0.0
-1796,-1206,26475,0.0
-1798,-1489,26388,0.0
-1801,-1773,26320,0.0
-1805,-2056,26255,0.0
-1808,-2338,26202,0.0
-1810,-2620,26132,0.0
-1811,-2897,26050,0.0
-1813,-3176,25980,0.0
-1811,-3449,25874,0.0
-1814,-3730,25828,0.0
-1812,-4004,25744,0.0
-1814,-4284,25700,0.0
-1814,-4560,25632,0.0
-1812,-4833,25550,0.0
-1706,-4812,24008,0.0
-1705,-5071,23947,0.0
-1790,-5601,25095,0.0
-1805,-5930,25271,0.0
-1802,-6205,25208,0.0
-1782,-6414,24890,0.0
-1794,-6747,25051,0.0
-1790,-7015,24964,0.0
-1786,-7290,24899,0.0
-1783,-7568,24842,0.0
-1778,-7842,24774,0.0
-1773,-8119,24711,0.0
-1736,-8246,24204,0.0
-1721,-8471,24007,0.0
-1731,-8821,24158,0.0
-1751,-9231,24453,0.0
-1741,-9498,24355,0.0
-1737,-9790,24321,0.0
-1730,-10074,24259,0.0
-1726,-10384,24258,0.0
-1716,-10660,24173,0.0
-1708,-10943,24102,0.0
-1687,-11152,23870,0.0
-1686,-11491,23914,0.0
-1682,-11825,23941,0.0
-1669,-12098,23836,0.0
-1662,-12417,23820,0.0
-1653,-12724,23775,0.0
-1642,-13022,23711,0.0
-1632,-13343,23681,0.0
-1621,-13654,23630,0.0
-1607,-13948,23545,0.0
-1598,-14285,23528,0.0
-1581,-14576,23430,0.0
-1568,-14895,23373,0.0
-1556,-15230,23335,0.0
-1542,-15563,23290,0.0
-1526,-15885,23222,0.0
-1511,-16213,23158,0.0
-1494,-16543,23092,0.0
-1478,-16878,23029,0.0
-1461,-17236,22990,0.0
-1444,-17578,22923,0.0
-1425,-17930,22864,0.0
-1407,-18291,22811,0.0
-1389,-18664,22765,0.0
-1364,-18975,22639,0.0
-1347,-19397,22639,0.0
-1324,-19731,22532,0.0
-1301,-20110,22468,0.0
-1281,-20519,22430,0.0
-1254,-20865,22319,0.0
-1229,-21241,22235,0.0
-1205,-21661,22188,0.0
-1181,-22096,22148,0.0
-1154,-22507,22076,0.0
-1124,-22879,21959,0.0
-1096,-23312,21895,0.0
-1069,-23773,21850,0.0
-1036,-24170,21736,0.0
-1006,-24642,21683,0.0
-973,-25058,21573,0.0
-911,-24748,20844,0.0
-866,-24852,20477,0.0
-63,-1911,1540,0.0
-56,-1801,1419,0.0
0,0,0,0.0
0,0,0,0.0
0,0,0,0.0
-44,-1902,1370,0.0
-42,-1968,1385,0.0
0,0,0,0.0
-35,-1964,1320,0.0
0,0,0,0.0
0,0,0,0.0
0,0,0,0.0
0,0,0,0.0
0,0,0,0.0
-15,-2088,1216,0.0
-11,-2181,1239,0.0
0,-171,94,0.0
0,-171,92,0.0
0,-178,93,0.0
0,-176,90,0.0
0,-200,100,0.0
0,-209,101,0.0
1,-218,102,0.0
1,-229,104,0.0
1,-235,104,0.0
2,-248,106,0.0
3,-248,103,0.0
3,-271,110,0.0
4,-283,112,0.0
5,-300,115,0.0
6,-339,126,0.0
7,-338,121,0.0
8,-350,121,0.0
8,-346,115,0.0
9,-349,112,0.0
10,-352,110,0.0
1219,15016,14751,0.0
1072,13390,13437,0.0
1053,13342,13675,0.0
1052,13530,14168,0.0
1047,13656,14608,0.0
998,13236,14465,0.0
981,13212,14752,0.0
1042,14245,16252,0.0
1023,14217,16574,0.0
923,13040,15535,0.0
897,12889,15693,0.0
868,12707,15814,0.0
1228,18283,23259,0.0
1199,18180,23645,0.0
1515,23395,31113,0.0
919,14470,19679,0.0
1109,17812,24778,0.0
868,14223,20241,0.0
859,14365,20916,0.0
825,14112,21028,0.0
803,14027,21395,0.0
1088,19457,30385,0.0
1051,19250,30786,0.0
867,16292,26689,0.0
821,15808,26535,0.0
776,15346,26401,0.0
707,14379,25361,0.0
683,14297,25862,0.0
655,14129,26223,0.0
614,13671,26038,0.0
578,13287,25985,0.0
538,12817,25747,0.0
511,12646,26105,0.0
509,13110,27826,0.0
449,12029,26262,0.0
418,11715,26323,0.0
384,11295,26134,0.0
363,11251,26823,0.0
401,13105,32216,0.0
364,12631,32037,0.0
330,12229,32028,0.0
296,11835,32029,0.0
262,11393,31891,0.0
231,11007,31893,0.0
199,10559,31704,0.0
170,10184,31717,0.0
141,9785,31643,0.0
111,9280,31202,0.0
85,8970,31397,0.0
59,8752,31940,0.0
34,8575,32674,0.0
9,8403,33487,0.0
-14,6674,27873,0.0
-36,6464,28346,0.0
-56,6143,28346,0.0
-76,5798,28230,0.0
-94,5462,28131,0.0
-113,5131,28046,0.0
-131,4810,28002,0.0
-148,4481,27889,0.0
-164,4160,27809,0.0
-180,3843,27732,0.0
-195,3526,27640,0.0
-209,3215,27566,0.0
-223,2907,27513,0.0
-236,2595,27400,0.0
-249,2291,27334,0.0
-261,1989,27273,0.0
-272,1682,27093,0.0
-272,1337,26099,0.0
-291,1085,26868,0.0
-299,786,26583,0.0
-305,493,26265,0.0
-321,212,26784,0.0
-330,-77,26735,0.0
-337,-365,26684,0.0
-343,-650,26542,0.0
-350,-935,26481,0.0
-356,-1219,26422,0.0
-362,-1502,26363,0.0
-367,-1782,26271,0.0
-373,-2067,26257,0.0
-376,-2345,26165,0.0
-380,-2625,26113,0.0
-382,-2900,26014,0.0
-386,-3179,25962,0.0
-388,-3449,25851,0.0
-389,-3729,25818,0.0
-390,-4003,25742,0.0
-392,-4278,25680,0.0
-392,-4550,25599,0.0
-391,-4823,25528,0.0
-391,-5100,25478,0.0
-389,-5369,25394,0.0
-388,-5643,25335,0.0
-386,-5918,25276,0.0
-383,-6183,25177,0.0
-380,-6452,25104,0.0
-377,-6726,25041,0.0
-373,-6993,24954,0.0
-368,-7263,24879,0.0
-364,-7538,24821,0.0
-351,-7656,24261,0.0
-345,-7902,24130,0.0
-338,-8168,24061,0.0
-340,-8631,24548,0.0
-333,-8919,24516,0.0
-326,-9201,24466,0.0
-317,-9464,24363,0.0
-308,-9744,24299,0.0
-300,-10033,24259,0.0
-289,-10305,24174,0.0
-280,-10613,24170,0.0
-269,-10875,24054,0.0
-258,-11164,23999,0.0
-246,-11463,23962,0.0
-235,-11762,23920,0.0
-222,-12054,23860,0.0
-209,-12349,23800,0.0
-195,-12668,23782,0.0
-181,-12963,23714,0.0
-166,-13291,23703,0.0
-151,-13588,23630,0.0
-134,-13867,23524,0.0
-117,-14201,23507,0.0
-100,-14519,23458,0.0
-82,-14838,23403,0.0
-63,-15141,23321,0.0
-43,-15269,22971,0.0
-23,-15412,22651,0.0
-3,-15719,22573,0.0
19,-16433,23064,0.0
41,-16789,23032,0.0
64,-17134,22981,0.0
88,-17472,22913,0.0
112,-17787,22810,0.0
137,-18106,22711,0.0
164,-18518,22720,0.0
191,-18889,22669,0.0
219,-19228,22576,0.0
248,-19618,22537,0.0
277,-19996,22476,0.0
308,-20368,22402,0.0
339,-20777,22362,0.0
373,-21146,22273,0.0
406,-21544,22206,0.0
440,-21925,22115,0.0
476,-22342,22056,0.0
512,-22749,21979,0.0
550,-23131,21869,0.0
589,-23587,21823,0.0
631,-24060,21783,0.0
671,-24451,21662,0.0
713,-24884,21572,0.0
752,-25170,21348,0.0
773,-24825,20599,0.0
57,-1804,1465,0.0
0,0,0,0.0
63,-1835,1425,0.0
0,0,0,0.0
0,0,0,0.0
0,0,0,0.0
75,-1921,1363,0.0
79,-1948,1351,0.0
0,0,0,0.0
0,0,0,0.0
0,0,0,0.0
0,0,0,0.0
0,0,0,0.0
97,-2027,1220,0.0
0,0,0,0.0
108,-2134,1222,0.0
107,-2082,1163,0.0
7,-147,80,0.0
9,-167,89,0.0
9,-170,87,0.0
9,-177,89,0.0
11,-190,92,0.0
11,-195,93,0.0
12,-202,94,0.0
13,-225,101,0.0
14,-234,102,0.0
14,-233,98,0.0
15,-245,101,0.0
17,-260,104,0.0
18,-272,105,0.0
22,-321,121,0.0
23,-341,123,0.0
25,-347,121,0.0
24,-342,116,0.0
25,-343,112,0.0
25,-336,106,0.0
1950,13453,13260,0.0
1950,13465,13556,0.0
1944,13445,13827,0.0
1915,13262,13933,0.0
1980,13721,14726,0.0
1909,13234,14510,0.0
1894,13137,14718,0.0
2001,13890,15900,0.0
1999,13882,16237,0.0
1744,12107,14473,0.0
1946,13512,16507,0.0
1957,13581,16959,0.0
1924,13345,17036,0.0
1822,12629,16482,0.0
1808,12516,16704,0.0
1800,12445,16984,0.0
1794,12383,17288,0.0
1790,12330,17608,0.0
1786,12276,17938,0.0
1777,12184,18222,0.0
1774,12124,18559,0.0
1768,12044,18878,0.0
1763,11968,19210,0.0
1758,11887,19546,0.0
1753,11802,19885,0.0
1749,11717,20234,0.0
1745,11631,20594,0.0
1741,11543,20960,0.0
1741,11467,21364,0.0
1736,11360,21722,0.0
1735,11271,22129,0.0
1733,11172,22531,0.0
1734,11093,22992,0.0
1733,10984,23406,0.0
1733,10876,23842,0.0
1737,10791,24346,0.0
1737,10676,24804,0.0
1740,10570,25304,0.0
1741,10445,25786,0.0
1747,10342,26340,0.0
1853,10811,28435,0.0
2048,11769,31987,0.0
2007,11342,31884,0.0
0,0,0,0.0
1931,10530,31754,0.0
1894,10126,31676,0.0
1857,9720,31574,0.0
1803,9223,31154,0.0
1790,8942,31445,0.0
1791,8718,31966,0.0
1807,8559,32766,0.0
1488,6843,27406,0.0
1506,6707,28150,0.0
1350,5813,25622,0.0
1465,6086,28226,0.0
1443,5762,28200,0.0
1421,5437,28154,0.0
1395,5099,28019,0.0
1275,4433,25953,0.0
1254,4131,25856,0.0
1227,3812,25636,0.0
1216,3543,25730,0.0
1200,3258,25704,0.0
1182,2966,25615,0.0
1168,2685,25594,0.0
1152,2401,25534,0.0
1137,2115,25446,0.0
1125,1839,25431,0.0
1112,1562,25397,0.0
1119,1308,25807,0.0
1156,1072,26885,0.0
1136,775,26644,0.0
1065,460,25165,0.0
1054,188,25078,0.0
1045,-81,25062,0.0
1025,-347,24734,0.0
1010,-607,24504,0.0
981,-851,23937,0.0
1076,-1224,26408,0.0
1050,-1478,25869,0.0
1048,-1763,25930,0.0
1056,-2067,26220,0.0
1022,-2281,25441,0.0
1024,-2568,25541,0.0
1008,-2808,25199,0.0
1036,-3174,25937,0.0
1033,-3451,25888,0.0
1023,-3695,25605,0.0
1025,-3986,25663,0.0
993,-4130,24828,0.0
974,-4315,24314,0.0
1025,-4816,25536,0.0
1023,-5079,25425,0.0
1024,-5351,25360,0.0
1026,-5623,25297,0.0
1026,-5886,25197,0.0
1029,-6156,25129,0.0
1032,-6429,25076,0.0
1035,-6696,24993,0.0
989,-6633,23732,0.0
989,-6860,23565,0.0
995,-7128,23535,0.0
1000,-7377,23443,0.0
1053,-7994,24480,0.0
1015,-7912,23372,0.0
1074,-8584,24485,0.0
1028,-8412,23191,0.0
1037,-8677,23143,0.0
1046,-8943,23091,0.0
1056,-9204,23028,0.0
1090,-9678,23477,0.0
1079,-9755,22957,0.0
1104,-10144,23176,0.0
1102,-10281,22817,0.0
1115,-10550,22756,0.0
1130,-10833,22722,0.0
1142,-11083,22617,0.0
1158,-11377,22596,0.0
1173,-11646,22525,0.0
1188,-11919,22456,0.0
1209,-12233,22460,0.0
1224,-12488,22351,0.0
1243,-12787,22319,0.0
1257,-13027,22181,0.0
1281,-13356,22191,0.0
1300,-13633,22106,0.0
1321,-13918,22034,0.0
1342,-14207,21964,0.0
1366,-14516,21921,0.0
1389,-14813,21853,0.0
1408,-15069,21725,0.0
1436,-15405,21704,0.0
1464,-15725,21658,0.0
1487,-16006,21553,0.0
1514,-16309,21475,0.0
1512,-16305,20996,0.0
1506,-16244,20458,0.0
1533,-16535,20368,0.0
1563,-16845,20300,0.0
1596,-17185,20261,0.0
1624,-17469,20151,0.0
1656,-17789,20079,0.0
1692,-18138,20034,0.0
1726,-18467,19961,0.0
1763,-18813,19900,0.0
1797,-19137,19811,0.0
1836,-19485,19740,0.0
1873,-19823,19656,0.0
1915,-20199,19601,0.0
1956,-20559,19525,0.0
2000,-20926,19448,0.0
2043,-21301,19373,0.0
2089,-21687,19301,0.0
2134,-22063,19214,0.0
2181,-22435,19117,0.0
2230,-22829,19032,0.0
2282,-23247,18960,0.0
2334,-23656,18872,0.0
188,-1899,1482,0.0
194,-1949,1487,0.0
199,-1990,1486,0.0
0,0,0,0.0
0,0,0,0.0
0,0,0,0.0
0,0,0,0.0
0,0,0,0.0
0,0,0,0.0
0,0,0,0.0
0,0,0,0.0
211,-2001,1211,0.0
227,-2129,1257,0.0
0,0,0,0.0
233,-2156,1212,0.0
229,-2112,1157,0.0
17,-162,86,0.0
20,-184,95,0.0
18,-172,87,0.0
22,-205,101,0.0
22,-205,98,0.0
25,-226,105,0.0
26,-232,105,0.0
29,-263,115,0.0
31,-266,113,0.0
31,-265,109,0.0
33,-289,116,0.0
35,-302,117,0.0
39,-333,125,0.0
41,-345,126,0.0
42,-354,125,0.0
42,-352,119,0.0
43,-353,116,0.0
43,-351,111,0.0
-4591,16166,14533,0.0
-4678,16106,14793,0.0
-4768,16053,15065,0.0
-4860,15998,15340,0.0
-4951,15936,15614,0.0
-5021,15803,15821,0.0
-5117,15746,16109,0.0
-5100,15343,16040,0.0
-5125,15073,16104,0.0
-5827,16750,18290,0.0
-5953,16726,18667,0.0
-6004,16487,18806,0.0
-5972,16026,18690,0.0
-5936,15563,18556,0.0
-5907,15131,18446,0.0
-5993,14995,18694,0.0
-6002,14669,18704,0.0
-6002,14326,18684,0.0
-10050,23421,31252,0.0
-9976,22695,30987,0.0
-9774,21702,30326,0.0
0,0,0,0.0
-9767,20644,30236,0.0
-9879,20365,30547,0.0
-9787,19671,30226,0.0
-9927,19449,30623,0.0
-9973,19043,30730,0.0
-10051,18694,30930,0.0
-10952,19840,33666,0.0
-10954,19315,33628,0.0
-10916,18732,33470,0.0
-10889,18178,33348,0.0
-10872,17648,33254,0.0
-10864,17139,33187,0.0
-10850,16629,33102,0.0
-10818,16098,32963,0.0
-9929,14339,30215,0.0
-9835,13774,29890,0.0
-9820,13330,29802,0.0
-9875,12984,29929,0.0
-9932,12640,30060,0.0
-10088,12418,30492,0.0
-10425,12404,31465,0.0
-10706,12301,32270,0.0
-10664,11820,32095,0.0
-10677,11408,32090,0.0
-10626,10931,31889,0.0
0,0,0,0.0
-10625,10099,31794,0.0
0,0,0,0.0
-10524,9193,31399,0.0
-10644,8893,31706,0.0
-10935,8724,32524,0.0
-8600,6540,25539,0.0
-8604,6224,25509,0.0
-8595,5901,25444,0.0
-8597,5588,25408,0.0
-8566,5258,25280,0.0
-8560,4944,25217,0.0
-8547,4631,25137,0.0
-8533,4320,25056,0.0
-8544,4024,25044,0.0
-8529,3718,24959,0.0
-8514,3414,24873,0.0
-8502,3113,24792,0.0
-8511,2823,24774,0.0
-8494,2526,24684,0.0
-8484,2233,24610,0.0
-8472,1943,24532,0.0
-8485,1659,24521,0.0
-8457,1368,24398,0.0
-8455,1085,24343,0.0
-8460,803,24312,0.0
-8450,521,24236,0.0
-8449,242,24187,0.0
-8445,-35,24129,0.0
-8429,-313,24035,0.0
-8428,-588,23986,0.0
-8416,-863,23901,0.0
-8693,-1173,24637,0.0
-8823,-1478,24951,0.0
-9618,-1922,27144,2.0
-9718,-2256,27367,2.0
-9779,-2585,27480,2.0
-9837,-2916,27582,2.0
-9952,-3269,27844,2.0
-10011,-3609,27947,2.0
-10128,-3975,28210,2.0
-10190,-4324,28316,2.0
-10179,-4644,28221,2.0
-10293,-5024,28471,2.0
-10331,-5371,28510,2.0
-10323,-5695,28417,2.0
-10244,-5977,28132,2.0
-10222,-6289,28003,2.0
-10318,-6675,28194,2.0
-10511,-7134,28651,2.0
-10587,-7520,28782,2.0
-10656,-7908,28897,2.0
-10685,-8268,28898,2.0
-10631,-8565,28675,2.0
-10703,-8963,28792,2.0
-10672,-9277,28631,2.0
-10669,-9615,28544,2.0
-10677,-9961,28483,2.0
-10651,-10278,28332,2.0
-10609,-10577,28140,2.0
-10475,-10780,27705,2.0
-10365,-10999,27333,2.0
-10454,-11431,27484,2.0
-10580,-11910,27730,2.0
-10632,-12312,27781,2.0
-10700,-12738,27870,2.0
-10783,-13187,27995,2.0
-10784,-13539,27906,2.0
-10717,-13807,27643,2.0
-10657,-14078,27394,2.0
-10544,-14277,27013,2.0
-10377,-14395,26495,2.0
-10408,-14783,26478,2.0
-10428,-15160,26437,2.0
-10375,-15430,26206,2.0
-10295,-15658,25909,2.0
-10237,-15915,25667,2.0
-10133,-16098,25310,2.0
-10117,-16419,25174,2.0
-10092,-16725,25013,2.0
-9905,-16756,24449,2.0
-9621,-16610,23651,0.0
-9357,-16481,22908,0.0
-9085,-16319,22146,0.0
-8918,-16335,21646,0.0
-8731,-16303,21099,0.0
-8565,-16301,20607,0.0
-8494,-16472,20343,0.0
-8581,-16952,20456,0.0
-8591,-17285,20382,0.0
-8604,-17629,20315,0.0
-8621,-17985,20256,0.0
-8630,-18327,20177,0.0
-8628,-18647,20068,0.0
-8648,-19020,20010,0.0
-8670,-19401,19954,0.0
-8691,-19787,19895,0.0
-8704,-20155,19812,0.0
-8708,-20507,19709,0.0
-8720,-20882,19621,0.0
-8746,-21296,19562,0.0
-8768,-21705,19493,0.0
-8775,-22082,19388,0.0
-8790,-22486,19299,0.0
-8808,-22902,19214,0.0
-8833,-23339,19138,0.0
-8825,-23696,18991,0.0
0,0,0,0.0
0,0,0,0.0
0,0,0,0.0
0,0,0,0.0
-652,-1898,1354,0.0
0,0,0,0.0
0,0,0,0.0
0,0,0,0.0
0,0,0,0.0
0,0,0,0.0
0,0,0,0.0
0,0,0,0.0
0,0,0,0.0
0,0,0,0.0
0,0,0,0.0
0,0,0,0.0
0,0,0,0.0
0,0,0,0.0
-579,-2096,1052,0.0
0,0,0,0.0
-44,-168,79,0.0
-52,-201,93,0.0
-51,-200,89,0.0
-56,-224,97,0.0
-58,-232,98,0.0
-63,-257,105,0.0
-68,-283,112,0.0
-72,-305,117,0.0
-81,-342,127,0.0
-79,-345,124,0.0
-79,-348,121,0.0
-77,-344,115,0.0
-76,-348,112,0.0
-74,-344,107,0.0
-74,-348,104,0.0
-72,-342,98,0.0
-71,-344,95,0.0
-70,-349,92,0.0
-4401,16152,14593,0.0
-4488,16099,14861,0.0
-4574,16041,15129,0.0
-4664,15989,15408,0.0
-4735,15867,15623,0.0
-4845,15868,15965,0.0
-4931,15784,16227,0.0
-4928,15420,16199,0.0
-4934,15089,16200,0.0
-4974,14864,16308,0.0
-5313,15512,17396,0.0
-5793,16526,18944,0.0
-9709,27057,31706,0.0
-5538,15078,18064,0.0
-5728,15232,18658,0.0
-5594,14528,18199,0.0
-5742,14561,18656,0.0
-5787,14330,18779,0.0
-9651,23324,31271,0.0
-9816,23153,31766,0.0
-7130,16412,23046,0.0
-7216,16203,23290,0.0
-7206,15782,23226,0.0
-7212,15404,23217,0.0
-7196,14981,23131,0.0
-7193,14596,23093,0.0
-7185,14204,23034,0.0
-7159,13785,22920,0.0
-7192,13483,22992,0.0
-10513,19185,33564,0.0
-10503,18648,33485,0.0
-10478,18094,33358,0.0
-10461,17563,33259,0.0
-10463,17068,33215,0.0
-10422,16512,33038,0.0
-10410,16013,32954,0.0
-10419,15549,32933,0.0
-9479,13717,29919,0.0
-9463,13272,29825,0.0
-9550,12971,30055,0.0
-9722,12779,30549,0.0
-9761,12408,30626,0.0
-10199,12529,31952,0.0
-10292,12208,32197,0.0
-10282,11763,32115,0.0
-10284,11340,32073,0.0
-10268,10899,31971,0.0
-10244,10456,31848,0.0
0,0,0,0.0
-10105,9501,31316,0.0
-10134,9126,31355,0.0
-10270,8845,31727,0.0
-10571,8693,32605,0.0
-8309,6511,25584,0.0
-8301,6185,25518,0.0
-8298,5867,25466,0.0
-8275,5539,25355,0.0
-8269,5224,25293,0.0
-8267,4916,25246,0.0
-8259,4605,25178,0.0
-8249,4296,25103,0.0
-8235,3988,25014,0.0
-8229,3686,24952,0.0
-8221,3386,24884,0.0
-8213,3089,24816,0.0
-8205,2793,24748,0.0
-8195,2499,24670,0.0
-8198,2211,24637,0.0
-8186,1920,24555,0.0
-8190,1635,24518,0.0
-8166,1347,24402,0.0
-8168,1065,24363,0.0
-8166,782,24309,0.0
-8156,502,24229,0.0
-8165,224,24210,0.0
-8144,-53,24100,0.0
-8132,-329,24013,0.0
-8143,-604,24001,0.0
-8136,-878,23929,0.0
-8430,-1193,24743,0.0
-8611,-1507,25221,0.0
-9270,-1931,27093,2.0
-9356,-2261,27285,2.0
-9382,-2579,27302,2.0
-9458,-2914,27463,2.0
-9542,-3256,27648,2.0
-9637,-3606,27861,2.0
-9748,-3968,28114,2.0
-9791,-4309,28175,2.0
-9875,-4670,28352,2.0
-9952,-5034,28506,2.0
-9992,-5382,28551,2.0
-9959,-5691,28391,2.0
-9938,-6005,28263,2.0
-9908,-6311,28108,2.0
-10024,-6714,28367,2.0
-10192,-7160,28767,2.0
-10222,-7514,28780,2.0
-10281,-7897,28875,2.0
-10401,-8329,29135,2.0
-10390,-8661,29027,2.0
-10381,-8994,28923,2.0
-10406,-9359,28917,2.0
-10395,-9691,28806,2.0
-10378,-10016,28679,2.0
-10296,-10277,28374,2.0
-10236,-10557,28129,2.0
-10182,-10836,27897,2.0
-10081,-11064,27540,2.0
-10133,-11459,27601,2.0
-10194,-11868,27684,2.0
-10303,-12339,27894,2.0
-10329,-12718,27880,2.0
-10413,-13171,28017,2.0
-10388,-13489,27860,2.0
-10348,-13789,27665,2.0
-10293,-14064,27426,2.0
-10157,-14224,26972,2.0
-10051,-14420,26603,2.0
-10056,-14773,26523,2.0
-10066,-15136,26459,2.0
-10006,-15393,26208,2.0
-9920,-15607,25890,2.0
-9900,-15922,25744,2.0
-9822,-16142,25445,2.0
-9742,-16356,25143,2.0
-9690,-16612,24912,2.0
-9603,-16808,24593,2.0
-9312,-16634,23753,0.0
-9053,-16498,22998,0.0
-8807,-16370,22280,0.0
-8612,-16324,21695,0.0
-8420,-16271,21121,0.0
-8264,-16277,20640,0.0
-8201,-16462,20395,0.0
-8253,-16876,20429,0.0
-8275,-17236,20391,0.0
-8284,-17573,20316,0.0
-8305,-17939,20272,0.0
-8316,-18286,20198,0.0
-8310,-18600,20085,0.0
-8313,-18934,19987,0.0
-8333,-19313,19933,0.0
-8361,-19715,19894,0.0
-8365,-20065,19796,0.0
-8379,-20444,19721,0.0
-8401,-20848,19662,0.0
-8406,-21211,19560,0.0
-8414,-21589,19464,0.0
-8447,-22033,19421,0.0
-8456,-22427,19325,0.0
-8464,-22819,19222,0.0
-8478,-23232,19129,0.0
-8489,-23640,19026,0.0
0,0,0,0.0
0,0,0,0.0
0,0,0,0.0
0,0,0,0.0
0,0,0,0.0
0,0,0,0.0
-619,-1929,1319,0.0
0,0,0,0.0
0,0,0,0.0
0,0,0,0.0
0,0,0,0.0
0,0,0,0.0
0,0,0,0.0
-581,-2021,1164,0.0
0,0,0,0.0
0,0,0,0.0
-545,-1991,1060,0.0
0,0,0,0.0
0,0,0,0.0
-45,-176,87,0.0
-49,-194,93,0.0
-49,-195,91,0.0
-55,-223,101,0.0
-53,-220,96,0.0
-59,-247,105,0.0
-62,-268,110,0.0
-61,-265,106,0.0
-72,-316,122,0.0
-72,-321,120,0.0
-73,-331,120,0.0
-73,-335,117,0.0
-72,-338,114,0.0
-69,-335,108,0.0
-68,-331,103,0.0
-70,-343,103,0.0
-67,-338,99,0.0
-67,-343,95,0.0
-66,-346,93,0.0
-3249,16076,14918,0.0
-3321,16020,15187,0.0
-3397,15970,15468,0.0
-3470,15899,15732,0.0
-3548,15848,16021,0.0
-3626,15792,16312,0.0
-3680,15623,16488,0.0
-3778,15636,16863,0.0
-3754,15145,16691,0.0
-3894,15321,17255,0.0
-3926,15056,17330,0.0
-3925,14678,17269,0.0
-4191,15279,18376,0.0
-4288,15242,18740,0.0
-4377,15165,19066,0.0
-4432,14962,19235,0.0
-4537,14931,19632,0.0
-4440,14237,19148,0.0
-4563,14255,19616,0.0
-4635,14109,19866,0.0
-4947,14670,21141,0.0
-5058,14609,21552,0.0
-5164,14523,21937,0.0
-5276,14443,22346,0.0
-5383,14342,22732,0.0
-5498,14255,23154,0.0
-5614,14161,23575,0.0
-5714,14018,23929,0.0
-5837,13924,24379,0.0
-5807,13464,24188,0.0
-5903,13297,24521,0.0
-5939,12995,24608,0.0
-6380,13552,26363,0.0
-6519,13437,26867,0.0
-6656,13310,27363,0.0
-8004,15518,32821,0.0
-6911,12982,28263,0.0
-7406,13474,30213,0.0
-7427,13079,30223,0.0
-7591,12932,30817,0.0
-7762,12780,31432,0.0
-7840,12471,31674,0.0
-7977,12246,32148,0.0
-7976,11808,32065,0.0
-7965,11361,31946,0.0
-7972,10948,31905,0.0
-7970,10524,31822,0.0
-7961,10096,31709,0.0
-7957,9680,31617,0.0
-7919,9228,31392,0.0
-7984,8903,31583,0.0
-8186,8718,32305,0.0
-8426,8557,33180,0.0
-6970,6736,27383,0.0
-7254,6658,28436,0.0
-6613,5751,25866,0.0
-6604,5428,25771,0.0
-7277,5637,28333,0.0
-7273,5292,28254,0.0
-6682,4552,25903,0.0
-6681,4243,25839,0.0
-7253,4274,27990,0.0
-6666,3624,25665,0.0
-7245,3613,27836,0.0
-6680,3031,25610,0.0
-7240,2962,27695,0.0
-7233,2640,27607,0.0
-7222,2318,27506,0.0
-6727,1864,25564,0.0
-6700,1566,25405,0.0
-6739,1283,25496,0.0
-6721,991,25372,0.0
-6634,694,24991,0.0
-6724,417,25274,0.0
-6730,132,25239,0.0
-6726,-151,25168,0.0
-6721,-434,25094,0.0
-6652,-709,24784,0.0
-6587,-976,24488,0.0
-6712,-1274,24895,0.0
-6706,-1552,24818,0.0
-6707,-1830,24767,0.0
-6716,-2109,24743,0.0
-6711,-2384,24669,0.0
-6710,-2659,24613,0.0
-6709,-2933,24550,0.0
-6713,-3210,24512,0.0
-6704,-3480,24424,0.0
-6701,-3751,24355,0.0
-6700,-4023,24293,0.0
-6696,-4294,24227,0.0
-6712,-4578,24227,0.0
-6699,-4841,24121,0.0
-6699,-5113,24067,0.0
-6694,-5382,23993,0.0
-6705,-5663,23974,0.0
-6709,-5939,23932,0.0
-6705,-6208,23861,0.0
-6695,-6471,23767,0.0
-6683,-6733,23668,0.0
-6696,-7019,23656,0.0
-6699,-7296,23607,0.0
-6702,-7573,23559,0.0
-6697,-7843,23482,0.0
-6690,-8109,23397,0.0
-6687,-8382,23328,0.0
-6699,-8674,23311,0.0
-6705,-8959,23270,0.0
-6698,-9229,23190,0.0
-6698,-9508,23127,0.0
-6684,-9769,23019,0.0
-6683,-10048,22953,0.0
-6691,-10343,22919,0.0
-6708,-10652,22913,0.0
-6699,-10923,22819,0.0
-6690,-11194,22724,0.0
-6712,-11519,22734,0.0
-6691,-11772,22599,0.0
-6693,-12065,22540,0.0
-6695,-12361,22481,0.0
-6688,-12642,22391,0.0
-6702,-12967,22376,0.0
-6711,-13279,22334,0.0
-6701,-13560,22234,0.0
-6716,-13894,22216,0.0
-6700,-14165,22094,0.0
-6719,-14510,22082,0.0
-6714,-14809,21996,0.0
-6725,-15146,21962,0.0
-6711,-15429,21845,0.0
-6677,-15666,21661,0.0
-6720,-16084,21724,0.0
-6711,-16386,21621,0.0
-6595,-16424,21176,0.0
-6676,-16952,21358,0.0
-6719,-17392,21418,0.0
-6692,-17656,21253,0.0
-6718,-18061,21255,0.0
-6703,-18363,21127,0.0
-6712,-18734,21075,0.0
-6730,-19132,21045,0.0
-6727,-19479,20953,0.0
-6721,-19821,20851,0.0
-6724,-20189,20771,0.0
-6723,-20555,20683,0.0
-6722,-20921,20589,0.0
-6702,-21234,20436,0.0
-6729,-21702,20428,0.0
-6718,-22054,20302,0.0
-23,-80,72,0.0
-23,-81,72,0.0
-31,-108,93,0.0
0,0,0,0.0
0,0,0,0.0
0,0,0,0.0
0,0,0,0.0
-484,-1831,1408,0.0
0,0,0,0.0
0,0,0,0.0
0,0,0,0.0
0,0,0,0.0
0,0,0,0.0
0,0,0,0.0
0,0,0,0.0
0,0,0,0.0
0,0,0,0.0
0,0,0,0.0
0,0,0,0.0
0,0,0,0.0
-437,-2070,1166,0.0
-432,-2084,1144,0.0
0,0,0,0.0
-32,-167,87,0.0
-35,-178,90,0.0
-31,-166,82,0.0
-35,-189,90,0.0
-38,-207,97,0.0
-38,-217,98,0.0
-41,-228,100,0.0
-43,-252,107,0.0
-45,-263,109,0.0
-48,-284,114,0.0
-45,-278,108,0.0
-51,-318,120,0.0
-53,-334,121,0.0
-53,-339,120,0.0
-52,-336,115,0.0
-49,-330,108,0.0
-50,-343,108,0.0
-47,-335,102,0.0
-47,-342,101,0.0
-45,-336,94,0.0
-2439,15810,14892,0.0
-2477,15593,15005,0.0
-5413,33099,32540,0.0
-2972,17655,17730,0.0
-3043,17570,18029,0.0
-3061,17173,18003,0.0
-3059,16690,17876,0.0
-3219,17069,18681,0.0
-3262,16818,18807,0.0
-3036,15221,17396,0.0
-3373,16442,19205,0.0
-3137,14872,17756,0.0
-3176,14646,17874,0.0
-3309,14843,18519,0.0
-3466,15123,19292,0.0
-3538,15013,19583,0.0
-3618,14931,19920,0.0
-3699,14847,20263,0.0
-3768,14707,20534,0.0
-3830,14536,20770,0.0
-3842,14179,20736,0.0
-3862,13853,20740,0.0
-4148,14463,22172,0.0
-4246,14391,22595,0.0
-4337,14282,22972,0.0
-4435,14190,23393,0.0
-4534,14095,23817,0.0
-4639,14003,24264,0.0
-4736,13878,24666,0.0
-4835,13749,25076,0.0
-4952,13667,25587,0.0
-4989,13353,25673,0.0
-4983,12932,25544,0.0
-5316,13372,27148,0.0
-5434,13241,27645,0.0
-5555,13109,28158,0.0
-5677,12964,28669,0.0
-5756,12714,28963,0.0
-5864,12526,29409,0.0
-6009,12399,30025,0.0
