//X,Y,Z,Classification
443.0,-7490.0,21344.0,0.0
466.0,-8010.0,22060.0,0.0
470.0,-8184.0,21801.0,0.0
470.0,-8301.0,21410.0,0.0
468.0,-8361.0,20892.0,0.0
474.0,-8549.0,20714.0,0.0
490.0,-8914.0,20954.0,0.0
495.0,-9073.0,20702.0,0.0
504.0,-9278.0,20566.0,0.0
514.0,-9517.0,20503.0,0.0
525.0,-9766.0,20458.0,0.0
538.0,-10022.0,20426.0,0.0
550.0,-10268.0,20369.0,0.0
562.0,-10509.0,20299.0,0.0
1.0,-35.0,65.0,0.0
1.0,-38.0,71.0,0.0
2.0,-35.0,64.0,0.0
2.0,-40.0,72.0,0.0
1.0,-39.0,69.0,0.0
2.0,-54.0,92.0,0.0
2.0,-52.0,85.0,0.0
2.0,-50.0,80.0,0.0
3.0,-60.0,93.0,0.0
2.0,-64.0,98.0,0.0
2.0,-60.0,90.0,0.0
3.0,-67.0,98.0,0.0
3.0,-74.0,105.0,0.0
4.0,-78.0,109.0,0.0
4.0,-79.0,106.0,0.0
4.0,-87.0,115.0,0.0
4.0,-86.0,111.0,0.0
4.0,-85.0,107.0,0.0
4.0,-90.0,111.0,0.0
5.0,-86.0,104.0,0.0
5.0,-102.0,120.0,0.0
5.0,-99.0,115.0,0.0
5.0,-106.0,120.0,0.0
6.0,-103.0,114.0,0.0
6.0,-101.0,109.0,0.0
6.0,-110.0,116.0,0.0
6.0,-112.0,115.0,0.0
7.0,-114.0,115.0,0.0
8.0,-124.0,123.0,0.0
7.0,-116.0,112.0,0.0
8.0,-128.0,121.0,0.0
7.0,-128.0,119.0,0.0
9.0,-137.0,123.0,0.0
8.0,-133.0,119.0,0.0
9.0,-138.0,120.0,0.0
9.0,-133.0,113.0,0.0
10.0,-150.0,125.0,0.0
9.0,-139.0,114.0,0.0
10.0,-148.0,118.0,0.0
11.0,-150.0,117.0,0.0
11.0,-156.0,119.0,0.0
11.0,-153.0,113.0,0.0
11.0,-155.0,113.0,0.0
11.0,-164.0,116.0,0.0
13.0,-169.0,117.0,0.0
12.0,-163.0,111.0,0.0
12.0,-169.0,112.0,0.0
13.0,-173.0,112.0,0.0
14.0,-186.0,118.0,0.0
14.0,-181.0,111.0,0.0
15.0,-184.0,111.0,0.0
15.0,-187.0,110.0,0.0
16.0,-192.0,110.0,0.0
15.0,-191.0,107.0,0.0
16.0,-196.0,107.0,0.0
16.0,-192.0,102.0,0.0
17.0,-204.0,105.0,0.0
16.0,-190.0,96.0,0.0
18.0,-213.0,104.0,0.0
19.0,-216.0,104.0,0.0
18.0,-201.0,94.0,0.0
19.0,-211.0,96.0,0.0
19.0,-215.0,94.0,0.0
20.0,-210.0,90.0,0.0
19.0,-204.0,85.0,0.0
20.0,-214.0,86.0,0.0
21.0,-220.0,85.0,0.0
24.0,-246.0,93.0,0.0
27.0,-271.0,98.0,0.0
28.0,-281.0,98.0,0.0
29.0,-288.0,98.0,0.0
28.0,-280.0,91.0,0.0
29.0,-283.0,90.0,0.0
2478.0,18750.0,18474.0,0.0
2457.0,18641.0,18759.0,0.0
2621.0,19940.0,20499.0,0.0
2614.0,19938.0,20937.0,0.0
2594.0,19838.0,21282.0,0.0
2589.0,19851.0,21757.0,0.0
2600.0,19980.0,22374.0,0.0
2548.0,19624.0,22454.0,0.0
2413.0,18620.0,21770.0,0.0
2396.0,18531.0,22142.0,0.0
2341.0,18132.0,22143.0,0.0
2324.0,18028.0,22504.0,0.0
2516.0,19544.0,24938.0,0.0
2721.0,21160.0,27604.0,0.0
2653.0,20650.0,27546.0,0.0
2594.0,20204.0,27562.0,0.0
2280.0,17767.0,24791.0,0.0
2444.0,19043.0,27183.0,0.0
2259.0,17609.0,25720.0,0.0
2299.0,17911.0,26773.0,0.0
2246.0,17483.0,26752.0,0.0
2486.0,19344.0,30304.0,0.0
2187.0,16995.0,27267.0,0.0
2160.0,16756.0,27538.0,0.0
2491.0,19291.0,32485.0,0.0
2439.0,18845.0,32526.0,0.0
2425.0,18682.0,33060.0,0.0
2385.0,18322.0,33253.0,0.0
2330.0,17832.0,33205.0,0.0
2272.0,17324.0,33109.0,0.0
1616.0,12268.0,24074.0,0.0
1579.0,11930.0,24046.0,0.0
1538.0,11558.0,23942.0,0.0
1501.0,11213.0,23879.0,0.0
1464.0,10867.0,23807.0,0.0
1430.0,10524.0,23731.0,0.0
1395.0,10195.0,23674.0,0.0
1363.0,9877.0,23633.0,0.0
1329.0,9536.0,23527.0,0.0
1297.0,9214.0,23455.0,0.0
1268.0,8907.0,23412.0,0.0
1238.0,8586.0,23324.0,0.0
1209.0,8284.0,23273.0,0.0
1183.0,7987.0,23229.0,0.0
1155.0,7684.0,23159.0,0.0
1129.0,7386.0,23092.0,0.0
1103.0,7092.0,23027.0,0.0
1076.0,6785.0,22905.0,0.0
1188.0,7342.0,25803.0,0.0
1161.0,7013.0,25695.0,0.0
1120.0,6606.0,25277.0,0.0
1012.0,5820.0,23293.0,0.0
982.0,5485.0,23006.0,0.0
964.0,5226.0,23017.0,0.0
1039.0,5455.0,25283.0,0.0
1018.0,5156.0,25215.0,0.0
996.0,4851.0,25099.0,0.0
977.0,4562.0,25057.0,0.0
891.0,3975.0,23251.0,0.0
878.0,3722.0,23279.0,0.0
848.0,3402.0,22852.0,0.0
841.0,3177.0,23047.0,0.0
830.0,2933.0,23125.0,0.0
816.0,2670.0,23042.0,0.0
804.0,2420.0,23056.0,0.0
788.0,2156.0,22907.0,0.0
777.0,1908.0,22923.0,0.0
765.0,1655.0,22865.0,0.0
753.0,1403.0,22799.0,0.0
742.0,1154.0,22749.0,0.0
733.0,908.0,22740.0,0.0
722.0,661.0,22670.0,0.0
713.0,414.0,22624.0,0.0
704.0,170.0,22583.0,0.0
696.0,-72.0,22548.0,0.0
688.0,-314.0,22482.0,0.0
680.0,-555.0,22419.0,0.0
675.0,-797.0,22419.0,0.0
705.0,-1094.0,23603.0,0.0
697.0,-1340.0,23457.0,0.0
656.0,-1511.0,22227.0,0.0
651.0,-1749.0,22188.0,0.0
648.0,-1988.0,22164.0,0.0
644.0,-2223.0,22102.0,0.0
640.0,-2458.0,22049.0,0.0
638.0,-2696.0,22022.0,0.0
636.0,-2930.0,21970.0,0.0
634.0,-3164.0,21915.0,0.0
632.0,-3398.0,21876.0,0.0
632.0,-3634.0,21835.0,0.0
630.0,-3867.0,21779.0,0.0
630.0,-4096.0,21712.0,0.0
631.0,-4332.0,21677.0,0.0
632.0,-4565.0,21628.0,0.0
634.0,-4799.0,21577.0,0.0
634.0,-5027.0,21508.0,0.0
637.0,-5261.0,21466.0,0.0
640.0,-5497.0,21428.0,0.0
643.0,-5726.0,21361.0,0.0
647.0,-5963.0,21327.0,0.0
651.0,-6193.0,21258.0,0.0
656.0,-6431.0,21223.0,0.0
660.0,-6657.0,21145.0,0.0
677.0,-7008.0,21451.0,0.0
695.0,-7372.0,21766.0,0.0
679.0,-7369.0,21007.0,0.0
686.0,-7602.0,20947.0,0.0
693.0,-7840.0,20898.0,0.0
701.0,-8075.0,20839.0,0.0
710.0,-8323.0,20811.0,0.0
719.0,-8561.0,20755.0,0.0
728.0,-8798.0,20694.0,0.0
738.0,-9027.0,20613.0,0.0
749.0,-9279.0,20581.0,0.0
779.0,-9764.0,21049.0,0.0
792.0,-10027.0,21018.0,0.0
783.0,-10000.0,20394.0,0.0
1.0,-24.0,50.0,0.0
809.0,-10498.0,20292.0,0.0
1.0,-19.0,37.0,0.0
1.0,-28.0,53.0,0.0
2.0,-35.0,64.0,0.0
1.0,-31.0,55.0,0.0
2.0,-36.0,63.0,0.0
2.0,-38.0,65.0,0.0
2.0,-43.0,69.0,0.0
2.0,-48.0,76.0,0.0
3.0,-57.0,88.0,0.0
3.0,-59.0,90.0,0.0
4.0,-62.0,91.0,0.0
5.0,-69.0,99.0,0.0
4.0,-60.0,84.0,0.0
5.0,-74.0,102.0,0.0
4.0,-74.0,100.0,0.0
5.0,-81.0,108.0,0.0
5.0,-80.0,104.0,0.0
6.0,-84.0,105.0,0.0
5.0,-80.0,99.0,0.0
6.0,-88.0,106.0,0.0
6.0,-93.0,109.0,0.0
7.0,-94.0,108.0,0.0
6.0,-96.0,109.0,0.0
7.0,-100.0,111.0,0.0
7.0,-103.0,111.0,0.0
8.0,-106.0,112.0,0.0
7.0,-104.0,108.0,0.0
8.0,-106.0,108.0,0.0
9.0,-116.0,115.0,0.0
8.0,-110.0,107.0,0.0
9.0,-121.0,116.0,0.0
10.0,-123.0,114.0,0.0
9.0,-127.0,115.0,0.0
9.0,-121.0,108.0,0.0
10.0,-127.0,110.0,0.0
11.0,-133.0,113.0,0.0
11.0,-141.0,118.0,0.0
12.0,-142.0,115.0,0.0
12.0,-147.0,117.0,0.0
11.0,-140.0,109.0,0.0
12.0,-145.0,110.0,0.0
12.0,-149.0,111.0,0.0
12.0,-144.0,104.0,0.0
14.0,-161.0,115.0,0.0
14.0,-165.0,114.0,0.0
14.0,-170.0,115.0,0.0
14.0,-161.0,107.0,0.0
16.0,-174.0,114.0,0.0
15.0,-174.0,110.0,0.0
16.0,-179.0,110.0,0.0
17.0,-180.0,108.0,0.0
16.0,-184.0,108.0,0.0
16.0,-182.0,104.0,0.0
19.0,-196.0,110.0,0.0
17.0,-189.0,103.0,0.0
18.0,-188.0,100.0,0.0
19.0,-193.0,100.0,0.0
19.0,-195.0,99.0,0.0
19.0,-197.0,96.0,0.0
20.0,-204.0,98.0,0.0
20.0,-200.0,93.0,0.0
21.0,-211.0,95.0,0.0
21.0,-205.0,90.0,0.0
20.0,-198.0,84.0,0.0
22.0,-209.0,86.0,0.0
23.0,-218.0,87.0,0.0
23.0,-210.0,82.0,0.0
25.0,-235.0,88.0,0.0
28.0,-266.0,97.0,0.0
30.0,-275.0,96.0,0.0
31.0,-278.0,94.0,0.0
31.0,-279.0,91.0,0.0
31.0,-271.0,86.0,0.0
2714.0,18724.0,18455.0,0.0
2695.0,18611.0,18737.0,0.0
2707.0,18716.0,19248.0,0.0
2882.0,19947.0,20955.0,0.0
2863.0,19840.0,21293.0,0.0
2830.0,19623.0,21516.0,0.0
2869.0,19904.0,22298.0,0.0
2823.0,19594.0,22428.0,0.0
2671.0,18544.0,21691.0,0.0
2664.0,18499.0,22113.0,0.0
2612.0,18135.0,22155.0,0.0
2599.0,18039.0,22527.0,0.0
2576.0,17870.0,22812.0,0.0
3061.0,21208.0,27679.0,0.0
2985.0,20655.0,27565.0,0.0
2916.0,20157.0,27511.0,0.0
2573.0,17758.0,24790.0,0.0
2768.0,19066.0,27230.0,0.0
2570.0,17659.0,25805.0,0.0
2565.0,17580.0,26290.0,0.0
2552.0,17444.0,26704.0,0.0
2833.0,19302.0,30254.0,0.0
2505.0,17002.0,27291.0,0.0
2478.0,16754.0,27548.0,0.0
2933.0,19744.0,33266.0,0.0
2813.0,18847.0,32548.0,0.0
2652.0,17680.0,31303.0,0.0
2767.0,18333.0,33292.0,0.0
2709.0,17843.0,33243.0,0.0
2644.0,17297.0,33075.0,0.0
1890.0,12279.0,24106.0,0.0
1850.0,11927.0,24053.0,0.0
1808.0,11558.0,23957.0,0.0
1767.0,11200.0,23865.0,0.0
1730.0,10859.0,23804.0,0.0
1694.0,10525.0,23744.0,0.0
1658.0,10192.0,23680.0,0.0
1622.0,9852.0,23587.0,0.0
1589.0,9533.0,23532.0,0.0
1558.0,9218.0,23480.0,0.0
1524.0,8892.0,23387.0,0.0
1494.0,8587.0,23338.0,0.0
1463.0,8271.0,23250.0,0.0
1435.0,7972.0,23202.0,0.0
1407.0,7675.0,23148.0,0.0
1380.0,7379.0,23083.0,0.0
1354.0,7087.0,23024.0,0.0
1326.0,6787.0,22923.0,0.0
1302.0,6508.0,22886.0,0.0
1279.0,6228.0,22834.0,0.0
1257.0,5954.0,22796.0,0.0
1232.0,5664.0,22683.0,0.0
1211.0,5392.0,22629.0,0.0
1189.0,5123.0,22577.0,0.0
1169.0,4856.0,22524.0,0.0
1150.0,4595.0,22488.0,0.0
1129.0,4322.0,22379.0,0.0
1113.0,4071.0,22372.0,0.0
1097.0,3815.0,22335.0,0.0
1078.0,3553.0,22239.0,0.0
1062.0,3303.0,22212.0,0.0
1048.0,3055.0,22185.0,0.0
1034.0,2809.0,22161.0,0.0
1021.0,2561.0,22111.0,0.0
1009.0,2320.0,22121.0,0.0
1019.0,2121.0,22560.0,0.0
1023.0,1905.0,22906.0,0.0
1011.0,1652.0,22852.0,0.0
1000.0,1403.0,22840.0,0.0
989.0,1155.0,22797.0,0.0
978.0,906.0,22733.0,0.0
968.0,660.0,22693.0,0.0
959.0,415.0,22665.0,0.0
949.0,170.0,22613.0,0.0
941.0,-72.0,22555.0,0.0
934.0,-316.0,22527.0,0.0
924.0,-556.0,22437.0,0.0
917.0,-796.0,22373.0,0.0
911.0,-1037.0,22359.0,0.0
904.0,-1275.0,22300.0,0.0
898.0,-1511.0,22232.0,0.0
893.0,-1747.0,22165.0,0.0
889.0,-1986.0,22148.0,0.0
885.0,-2220.0,22080.0,0.0
882.0,-2456.0,22041.0,0.0
879.0,-2694.0,22017.0,0.0
877.0,-2926.0,21954.0,0.0
873.0,-3158.0,21891.0,0.0
873.0,-3398.0,21881.0,0.0
872.0,-3629.0,21816.0,0.0
872.0,-3865.0,21785.0,0.0
872.0,-4094.0,21711.0,0.0
872.0,-4328.0,21662.0,0.0
872.0,-4554.0,21582.0,0.0
874.0,-4790.0,21549.0,0.0
873.0,-5008.0,21438.0,0.0
878.0,-5256.0,21453.0,0.0
880.0,-5487.0,21401.0,0.0
883.0,-5716.0,21335.0,0.0
887.0,-5953.0,21297.0,0.0
892.0,-6187.0,21248.0,0.0
896.0,-6414.0,21178.0,0.0
900.0,-6645.0,21117.0,0.0
907.0,-6880.0,21068.0,0.0
914.0,-7128.0,21057.0,0.0
920.0,-7353.0,20975.0,0.0
925.0,-7570.0,20871.0,0.0
935.0,-7823.0,20864.0,0.0
942.0,-8052.0,20791.0,0.0
951.0,-8297.0,20758.0,0.0
962.0,-8543.0,20724.0,0.0
971.0,-8774.0,20648.0,0.0
981.0,-9016.0,20601.0,0.0
993.0,-9259.0,20549.0,0.0
1003.0,-9491.0,20473.0,0.0
1016.0,-9740.0,20428.0,0.0
1029.0,-9996.0,20397.0,0.0
1042.0,-10233.0,20325.0,0.0
1056.0,-10486.0,20282.0,0.0
1070.0,-10736.0,20228.0,0.0
2.0,-36.0,65.0,0.0
3.0,-43.0,78.0,0.0
2.0,-37.0,65.0,0.0
4.0,-50.0,85.0,0.0
3.0,-42.0,69.0,0.0
4.0,-51.0,83.0,0.0
5.0,-58.0,92.0,0.0
4.0,-55.0,87.0,0.0
5.0,-61.0,93.0,0.0
5.0,-60.0,89.0,0.0
6.0,-72.0,104.0,0.0
6.0,-71.0,102.0,0.0
7.0,-77.0,106.0,0.0
7.0,-76.0,103.0,0.0
7.0,-85.0,113.0,0.0
7.0,-81.0,105.0,0.0
8.0,-89.0,113.0,0.0
8.0,-93.0,115.0,0.0
8.0,-92.0,111.0,0.0
8.0,-89.0,104.0,0.0
9.0,-99.0,115.0,0.0
9.0,-104.0,119.0,0.0
9.0,-103.0,115.0,0.0
9.0,-104.0,112.0,0.0
9.0,-102.0,109.0,0.0
9.0,-104.0,108.0,0.0
10.0,-107.0,109.0,0.0
11.0,-127.0,125.0,0.0
10.0,-115.0,111.0,0.0
10.0,-118.0,113.0,0.0
11.0,-127.0,119.0,0.0
12.0,-130.0,118.0,0.0
13.0,-140.0,125.0,0.0
12.0,-130.0,113.0,0.0
13.0,-143.0,122.0,0.0
12.0,-137.0,114.0,0.0
12.0,-133.0,108.0,0.0
14.0,-145.0,115.0,0.0
14.0,-152.0,119.0,0.0
14.0,-155.0,118.0,0.0
14.0,-154.0,114.0,0.0
15.0,-155.0,113.0,0.0
15.0,-157.0,111.0,0.0
16.0,-165.0,115.0,0.0
17.0,-172.0,117.0,0.0
17.0,-170.0,113.0,0.0
18.0,-186.0,121.0,0.0
18.0,-177.0,112.0,0.0
19.0,-189.0,117.0,0.0
18.0,-177.0,107.0,0.0
19.0,-194.0,115.0,0.0
20.0,-193.0,111.0,0.0
21.0,-201.0,112.0,0.0
21.0,-203.0,111.0,0.0
21.0,-201.0,107.0,0.0
21.0,-195.0,101.0,0.0
21.0,-197.0,99.0,0.0
22.0,-207.0,102.0,0.0
22.0,-209.0,100.0,0.0
24.0,-217.0,101.0,0.0
23.0,-208.0,94.0,0.0
25.0,-220.0,97.0,0.0
25.0,-222.0,94.0,0.0
24.0,-213.0,88.0,0.0
25.0,-219.0,88.0,0.0
25.0,-215.0,83.0,0.0
28.0,-240.0,90.0,0.0
31.0,-258.0,94.0,0.0
32.0,-273.0,96.0,0.0
32.0,-272.0,93.0,0.0
33.0,-274.0,90.0,0.0
32.0,-269.0,84.0,0.0
3185.0,18665.0,18404.0,0.0
3173.0,18570.0,18704.0,0.0
3184.0,18616.0,19153.0,0.0
3209.0,18734.0,19690.0,0.0
3203.0,18667.0,20042.0,0.0
3226.0,18768.0,20588.0,0.0
3232.0,18770.0,21038.0,0.0
3366.0,19497.0,22328.0,0.0
3284.0,18977.0,22207.0,0.0
3207.0,18482.0,22103.0,0.0
3155.0,18129.0,22158.0,0.0
3135.0,17956.0,22434.0,0.0
3146.0,17959.0,22938.0,0.0
3381.0,19227.0,25107.0,0.0
3637.0,20597.0,27502.0,0.0
3186.0,17965.0,24532.0,0.0
3161.0,17742.0,24782.0,0.0
3389.0,18927.0,27046.0,0.0
3175.0,17636.0,25786.0,0.0
3533.0,19512.0,29198.0,0.0
3185.0,17482.0,26780.0,0.0
3145.0,17151.0,26899.0,0.0
3142.0,17019.0,27335.0,0.0
3117.0,16760.0,27576.0,0.0
3734.0,19920.0,33583.0,0.0
3621.0,19161.0,33110.0,0.0
3583.0,18793.0,33297.0,0.0
3523.0,18317.0,33282.0,0.0
3458.0,17799.0,33183.0,0.0
2714.0,13830.0,26463.0,0.0
2424.0,12223.0,24015.0,0.0
2384.0,11880.0,23977.0,0.0
2341.0,11529.0,23912.0,0.0
2298.0,11174.0,23826.0,0.0
2258.0,10835.0,23768.0,0.0
2220.0,10505.0,23718.0,0.0
2180.0,10165.0,23634.0,0.0
2143.0,9835.0,23563.0,0.0
2108.0,9517.0,23510.0,0.0
2071.0,9189.0,23425.0,0.0
2039.0,8881.0,23375.0,0.0
2005.0,8566.0,23301.0,0.0
1972.0,8257.0,23232.0,0.0
1943.0,7961.0,23186.0,0.0
1913.0,7665.0,23133.0,0.0
1882.0,7365.0,23055.0,0.0
1851.0,7063.0,22962.0,0.0
1824.0,6775.0,22901.0,0.0
1799.0,6496.0,22864.0,0.0
1773.0,6212.0,22795.0,0.0
1746.0,5927.0,22712.0,0.0
1723.0,5657.0,22675.0,0.0
1699.0,5383.0,22610.0,0.0
1676.0,5110.0,22539.0,0.0
1653.0,4842.0,22479.0,0.0
1633.0,4581.0,22440.0,0.0
1613.0,4319.0,22383.0,0.0
1594.0,4060.0,22330.0,0.0
1573.0,3798.0,22251.0,0.0
1556.0,3545.0,22211.0,0.0
1541.0,3296.0,22186.0,0.0
1523.0,3044.0,22125.0,0.0
1502.0,2787.0,22008.0,0.0
1489.0,2544.0,21989.0,0.0
1477.0,2302.0,21970.0,0.0
1491.0,2098.0,22345.0,0.0
1513.0,1897.0,22837.0,0.0
1528.0,1677.0,23219.0,0.0
1571.0,1476.0,24024.0,0.0
1631.0,1270.0,25096.0,0.0
1608.0,990.0,24875.0,0.0
1596.0,721.0,24825.0,0.0
1624.0,464.0,25402.0,1.0
1636.0,192.0,25702.0,1.0
1647.0,-84.0,25993.0,1.0
1648.0,-366.0,26113.0,1.0
1654.0,-651.0,26294.0,1.0
1661.0,-942.0,26486.0,1.0
1661.0,-1231.0,26568.0,1.0
1669.0,-1529.0,26765.0,1.0
1682.0,-1836.0,27027.0,1.0
1686.0,-2138.0,27140.0,1.0
1691.0,-2442.0,27252.0,1.0
1697.0,-2749.0,27365.0,1.0
1705.0,-3063.0,27506.0,1.0
1721.0,-3396.0,27782.0,1.0
1725.0,-3709.0,27844.0,1.0
1732.0,-4029.0,27945.0,1.0
1734.0,-4333.0,27931.0,1.0
1739.0,-4649.0,27969.0,1.0
1744.0,-4966.0,28007.0,1.0
1749.0,-5281.0,28027.0,1.0
1754.0,-5598.0,28045.0,1.0
0.0,0.0,0.0,0.0
1784.0,-6295.0,28351.0,1.0
1795.0,-6631.0,28413.0,1.0
1795.0,-6923.0,28284.0,1.0
1805.0,-7256.0,28326.0,1.0
0.0,0.0,0.0,0.0
1832.0,-7944.0,28448.0,1.0
1847.0,-8296.0,28523.0,1.0
1869.0,-8680.0,28686.0,1.0
1883.0,-9023.0,28704.0,1.0
0.0,0.0,0.0,0.0
1916.0,-9740.0,28802.0,1.0
0.0,0.0,0.0,0.0
1946.0,-10435.0,28798.0,1.0
1971.0,-10839.0,28937.0,1.0
1988.0,-11194.0,28934.0,1.0
146.0,-844.0,2116.0,0.0
2036.0,-11978.0,29084.0,1.0
2046.0,-12286.0,28944.0,1.0
146.0,-896.0,2052.0,0.0
2099.0,-13090.0,29079.0,1.0
150.0,-957.0,2069.0,0.0
2138.0,-13796.0,28968.0,1.0
157.0,-1033.0,2111.0,0.0
152.0,-1020.0,2029.0,0.0
157.0,-1065.0,2065.0,0.0
154.0,-1061.0,2000.0,0.0
3.0,-29.0,55.0,0.0
3.0,-30.0,54.0,0.0
5.0,-38.0,68.0,0.0
3.0,-32.0,57.0,0.0
5.0,-41.0,69.0,0.0
4.0,-36.0,59.0,0.0
6.0,-53.0,84.0,0.0
4.0,-41.0,65.0,0.0
6.0,-56.0,87.0,0.0
7.0,-54.0,81.0,0.0
8.0,-67.0,96.0,0.0
8.0,-68.0,97.0,0.0
8.0,-68.0,94.0,0.0
9.0,-70.0,96.0,0.0
8.0,-70.0,92.0,0.0
9.0,-76.0,98.0,0.0
10.0,-81.0,102.0,0.0
10.0,-83.0,103.0,0.0
10.0,-88.0,106.0,0.0
11.0,-90.0,107.0,0.0
11.0,-91.0,105.0,0.0
11.0,-89.0,101.0,0.0
12.0,-99.0,111.0,0.0
11.0,-89.0,97.0,0.0
12.0,-97.0,103.0,0.0
12.0,-98.0,102.0,0.0
14.0,-112.0,114.0,0.0
13.0,-116.0,115.0,0.0
14.0,-116.0,113.0,0.0
13.0,-110.0,105.0,0.0
15.0,-123.0,116.0,0.0
15.0,-122.0,111.0,0.0
15.0,-129.0,115.0,0.0
14.0,-123.0,108.0,0.0
14.0,-123.0,105.0,0.0
15.0,-129.0,108.0,0.0
16.0,-129.0,106.0,0.0
17.0,-139.0,111.0,0.0
17.0,-145.0,114.0,0.0
16.0,-138.0,105.0,0.0
18.0,-149.0,111.0,0.0
17.0,-144.0,106.0,0.0
17.0,-145.0,103.0,0.0
17.0,-143.0,100.0,0.0
19.0,-157.0,107.0,0.0
19.0,-156.0,104.0,0.0
20.0,-167.0,108.0,0.0
22.0,-172.0,109.0,0.0
21.0,-172.0,107.0,0.0
23.0,-180.0,109.0,0.0
21.0,-170.0,100.0,0.0
23.0,-181.0,104.0,0.0
24.0,-187.0,105.0,0.0
23.0,-176.0,97.0,0.0
25.0,-192.0,103.0,0.0
24.0,-192.0,100.0,0.0
26.0,-195.0,98.0,0.0
27.0,-206.0,102.0,0.0
26.0,-203.0,97.0,0.0
27.0,-204.0,95.0,0.0
27.0,-205.0,93.0,0.0
28.0,-211.0,93.0,0.0
28.0,-205.0,88.0,0.0
27.0,-204.0,85.0,0.0
29.0,-213.0,86.0,0.0
29.0,-214.0,84.0,0.0
30.0,-220.0,82.0,0.0
34.0,-243.0,88.0,0.0
36.0,-256.0,91.0,0.0
34.0,-248.0,85.0,0.0
34.0,-247.0,81.0,0.0
36.0,-260.0,82.0,0.0
1731.0,25264.0,24792.0,0.0
1399.0,20813.0,20863.0,0.0
1366.0,20734.0,21230.0,0.0
1326.0,20542.0,21487.0,0.0
1307.0,20688.0,22107.0,0.0
1270.0,20547.0,22431.0,0.0
1229.0,20336.0,22682.0,0.0
1342.0,22729.0,25903.0,0.0
1296.0,22484.0,26184.0,0.0
1285.0,22856.0,27201.0,0.0
1243.0,22694.0,27601.0,0.0
1199.0,22479.0,27945.0,0.0
1135.0,21892.0,27821.0,0.0
1037.0,20585.0,26745.0,0.0
1004.0,20522.0,27263.0,0.0
960.0,20257.0,27520.0,0.0
873.0,19042.0,26460.0,0.0
840.0,18976.0,26975.0,0.0
842.0,19709.0,28666.0,0.0
804.0,19564.0,29122.0,0.0
763.0,19331.0,29454.0,0.0
730.0,19312.0,30125.0,0.0
684.0,18912.0,30212.0,0.0
697.0,20226.0,33096.0,0.0
657.0,20067.0,33645.0,0.0
581.0,18759.0,32236.0,0.0
553.0,18962.0,33407.0,0.0
504.0,18457.0,33349.0,0.0
455.0,17910.0,33202.0,0.0
409.0,17423.0,33149.0,0.0
364.0,16906.0,33025.0,0.0
265.0,13611.0,27310.0,0.0
231.0,13279.0,27379.0,0.0
196.0,12880.0,27304.0,0.0
163.0,12466.0,27183.0,0.0
130.0,12067.0,27080.0,0.0
99.0,11652.0,26929.0,0.0
68.0,11269.0,26833.0,0.0
38.0,10900.0,26762.0,0.0
10.0,10532.0,26683.0,0.0
-17.0,10151.0,26552.0,0.0
-44.0,9799.0,26485.0,0.0
-69.0,9417.0,26326.0,0.0
-95.0,9078.0,26270.0,0.0
-120.0,8726.0,26162.0,0.0
-144.0,8398.0,26121.0,0.0
-166.0,8044.0,25977.0,0.0
-188.0,7709.0,25886.0,0.0
-209.0,7381.0,25803.0,0.0
-230.0,7061.0,25730.0,0.0
-250.0,6733.0,25620.0,0.0
-269.0,6420.0,25550.0,0.0
-288.0,6111.0,25485.0,0.0
-305.0,5791.0,25356.0,0.0
-323.0,5495.0,25317.0,0.0
-339.0,5193.0,25243.0,0.0
-355.0,4891.0,25149.0,0.0
-371.0,4590.0,25048.0,0.0
-385.0,4300.0,24989.0,0.0
-401.0,4014.0,24938.0,0.0
-413.0,3721.0,24822.0,0.0
-426.0,3435.0,24742.0,0.0
-440.0,3157.0,24694.0,0.0
-451.0,2876.0,24616.0,0.0
-462.0,2596.0,24512.0,0.0
-473.0,2320.0,24438.0,0.0
-484.0,2048.0,24372.0,0.0
-494.0,1776.0,24280.0,0.0
-503.0,1509.0,24224.0,0.0
-513.0,1243.0,24173.0,0.0
-521.0,977.0,24083.0,0.0
-529.0,714.0,24020.0,0.0
-537.0,453.0,23965.0,0.0
-544.0,193.0,23910.0,0.0
-552.0,-65.0,23878.0,0.0
-559.0,-323.0,23817.0,0.0
-564.0,-579.0,23748.0,0.0
-571.0,-836.0,23728.0,0.0
-576.0,-1090.0,23658.0,0.0
-580.0,-1344.0,23607.0,0.0
-585.0,-1596.0,23552.0,0.0
-590.0,-1850.0,23511.0,0.0
-593.0,-2100.0,23443.0,0.0
-595.0,-2349.0,23372.0,0.0
-599.0,-2600.0,23338.0,0.0
-602.0,-2853.0,23300.0,0.0
-603.0,-3100.0,23237.0,0.0
-605.0,-3351.0,23194.0,0.0
-606.0,-3598.0,23135.0,0.0
-608.0,-3851.0,23111.0,0.0
-608.0,-4098.0,23048.0,0.0
-608.0,-4344.0,22991.0,0.0
-607.0,-4590.0,22927.0,0.0
-606.0,-4838.0,22874.0,0.0
-604.0,-5081.0,22797.0,0.0
-602.0,-5326.0,22735.0,0.0
-601.0,-5578.0,22704.0,0.0
-599.0,-5822.0,22640.0,0.0
-596.0,-6071.0,22590.0,0.0
-592.0,-6320.0,22539.0,0.0
-588.0,-6564.0,22472.0,0.0
-585.0,-6818.0,22439.0,0.0
-580.0,-7061.0,22363.0,0.0
-575.0,-7312.0,22313.0,0.0
-570.0,-7567.0,22276.0,0.0
-564.0,-7809.0,22197.0,0.0
-558.0,-8076.0,22184.0,0.0
-551.0,-8322.0,22112.0,0.0
-544.0,-8570.0,22045.0,0.0
-537.0,-8824.0,21990.0,0.0
-524.0,-8996.0,21736.0,0.0
-499.0,-8942.0,20961.0,0.0
-490.0,-9183.0,20895.0,0.0
-460.0,-8999.0,19890.0,0.0
-433.0,-8876.0,19068.0,0.0
-424.0,-9102.0,19013.0,0.0
0.0,-21.0,46.0,0.0
0.0,-18.0,37.0,0.0
-1.0,-17.0,34.0,0.0
-1.0,-25.0,48.0,0.0
-1.0,-26.0,48.0,0.0
-2.0,-40.0,73.0,0.0
-1.0,-32.0,57.0,0.0
-1.0,-30.0,52.0,0.0
-1.0,-43.0,72.0,0.0
-2.0,-51.0,83.0,0.0
-1.0,-46.0,72.0,0.0
-1.0,-47.0,73.0,0.0
-1.0,-51.0,77.0,0.0
-1.0,-57.0,83.0,0.0
-1.0,-62.0,91.0,0.0
-1.0,-62.0,87.0,0.0
-1.0,-66.0,91.0,0.0
-1.0,-63.0,85.0,0.0
-1.0,-71.0,94.0,0.0
0.0,-74.0,94.0,0.0
-1.0,-78.0,98.0,0.0
-1.0,-77.0,95.0,0.0
0.0,-82.0,99.0,0.0
0.0,-87.0,104.0,0.0
-1.0,-88.0,100.0,0.0
0.0,-91.0,104.0,0.0
0.0,-91.0,101.0,0.0
0.0,-95.0,103.0,0.0
0.0,-95.0,100.0,0.0
0.0,-104.0,107.0,0.0
0.0,-97.0,98.0,0.0
0.0,-103.0,102.0,0.0
0.0,-99.0,96.0,0.0
0.0,-102.0,97.0,0.0
0.0,-120.0,112.0,0.0
1.0,-117.0,105.0,0.0
1.0,-119.0,105.0,0.0
1.0,-125.0,108.0,0.0
2.0,-125.0,105.0,0.0
2.0,-131.0,108.0,0.0
2.0,-131.0,107.0,0.0
2.0,-133.0,106.0,0.0
2.0,-143.0,111.0,0.0
3.0,-148.0,113.0,0.0
3.0,-145.0,107.0,0.0
3.0,-144.0,105.0,0.0
3.0,-154.0,109.0,0.0
3.0,-149.0,103.0,0.0
3.0,-155.0,105.0,0.0
4.0,-158.0,104.0,0.0
4.0,-157.0,101.0,0.0
5.0,-166.0,104.0,0.0
5.0,-172.0,106.0,0.0
5.0,-164.0,99.0,0.0
6.0,-165.0,96.0,0.0
6.0,-171.0,98.0,0.0
6.0,-176.0,98.0,0.0
6.0,-169.0,91.0,0.0
7.0,-167.0,89.0,0.0
7.0,-173.0,89.0,0.0
8.0,-187.0,93.0,0.0
8.0,-188.0,92.0,0.0
8.0,-184.0,87.0,0.0
9.0,-185.0,85.0,0.0
9.0,-190.0,86.0,0.0
9.0,-188.0,82.0,0.0
9.0,-185.0,77.0,0.0
10.0,-194.0,79.0,0.0
10.0,-194.0,77.0,0.0
11.0,-196.0,75.0,0.0
14.0,-246.0,92.0,0.0
16.0,-276.0,100.0,0.0
16.0,-280.0,98.0,0.0
18.0,-283.0,96.0,0.0
17.0,-275.0,90.0,0.0
19.0,-287.0,90.0,0.0
2913.0,18459.0,18199.0,0.0
2916.0,18479.0,18609.0,0.0
2921.0,18503.0,19033.0,0.0
2929.0,18556.0,19500.0,0.0
2934.0,18577.0,19943.0,0.0
2942.0,18615.0,20416.0,0.0
2948.0,18641.0,20889.0,0.0
3031.0,19147.0,21923.0,0.0
2995.0,18896.0,22108.0,0.0
2939.0,18516.0,22139.0,0.0
2883.0,18127.0,22153.0,0.0
2863.0,17969.0,22446.0,0.0
2867.0,17956.0,22931.0,0.0
3384.0,21140.0,27600.0,0.0
3308.0,20611.0,27515.0,0.0
2894.0,17972.0,24536.0,0.0
2867.0,17747.0,24783.0,0.0
3097.0,19098.0,27285.0,0.0
2875.0,17659.0,25815.0,0.0
3187.0,19497.0,29168.0,0.0
2870.0,17476.0,26763.0,0.0
3185.0,19294.0,30252.0,0.0
2818.0,16982.0,27270.0,0.0
2796.0,16749.0,27552.0,0.0
3345.0,19910.0,33557.0,0.0
3265.0,19307.0,33354.0,0.0
2986.0,17536.0,31060.0,0.0
3147.0,18337.0,33310.0,0.0
3075.0,17774.0,33128.0,0.0
3019.0,17297.0,33088.0,0.0
2159.0,12262.0,24085.0,0.0
2116.0,11896.0,24002.0,0.0
2072.0,11526.0,23899.0,0.0
2034.0,11194.0,23862.0,0.0
1996.0,10857.0,23810.0,0.0
1957.0,10512.0,23725.0,0.0
1918.0,10169.0,23636.0,0.0
1885.0,9855.0,23603.0,0.0
1847.0,9517.0,23503.0,0.0
1813.0,9198.0,23440.0,0.0
1782.0,8888.0,23386.0,0.0
1748.0,8569.0,23302.0,0.0
1719.0,8273.0,23267.0,0.0
1688.0,7964.0,23186.0,0.0
1659.0,7667.0,23134.0,0.0
1632.0,7371.0,23069.0,0.0
1602.0,7071.0,22981.0,0.0
1573.0,6772.0,22882.0,0.0
1550.0,6500.0,22868.0,0.0
1524.0,6210.0,22778.0,0.0
1501.0,5937.0,22743.0,0.0
1479.0,5665.0,22698.0,0.0
1454.0,5384.0,22606.0,0.0
1431.0,5111.0,22537.0,0.0
1413.0,4853.0,22525.0,0.0
1390.0,4579.0,22421.0,0.0
1371.0,4320.0,22384.0,0.0
1351.0,4056.0,22304.0,0.0
1333.0,3799.0,22252.0,0.0
1316.0,3545.0,22206.0,0.0
1301.0,3299.0,22191.0,0.0
1284.0,3044.0,22116.0,0.0
1269.0,2796.0,22071.0,0.0
1253.0,2547.0,22008.0,0.0
1239.0,2302.0,21954.0,0.0
1251.0,2101.0,22363.0,0.0
1269.0,1902.0,22891.0,0.0
1259.0,1654.0,22892.0,0.0
1243.0,1399.0,22769.0,0.0
1230.0,1149.0,22695.0,0.0
1220.0,904.0,22680.0,0.0
1209.0,657.0,22631.0,0.0
1200.0,413.0,22592.0,0.0
1192.0,169.0,22561.0,0.0
1182.0,-73.0,22506.0,0.0
1172.0,-314.0,22427.0,0.0
1165.0,-555.0,22390.0,0.0
1160.0,-796.0,22379.0,0.0
1150.0,-1032.0,22281.0,0.0
1145.0,-1272.0,22259.0,0.0
1140.0,-1509.0,22204.0,0.0
1135.0,-1747.0,22175.0,0.0
1130.0,-1983.0,22114.0,0.0
1125.0,-2216.0,22055.0,0.0
1123.0,-2454.0,22029.0,0.0
1119.0,-2687.0,21973.0,0.0
1117.0,-2921.0,21923.0,0.0
1114.0,-3154.0,21869.0,0.0
1113.0,-3389.0,21825.0,0.0
1112.0,-3623.0,21786.0,0.0
1112.0,-3856.0,21741.0,0.0
1110.0,-4083.0,21663.0,0.0
1110.0,-4313.0,21603.0,0.0
1111.0,-4544.0,21548.0,0.0
1113.0,-4780.0,21515.0,0.0
1116.0,-5016.0,21482.0,0.0
1117.0,-5242.0,21405.0,0.0
1121.0,-5478.0,21375.0,0.0
1124.0,-5707.0,21311.0,0.0
1129.0,-5946.0,21284.0,0.0
1131.0,-6167.0,21191.0,0.0
1135.0,-6397.0,21130.0,0.0
1142.0,-6638.0,21104.0,0.0
1146.0,-6862.0,21023.0,0.0
1153.0,-7098.0,20980.0,0.0
1161.0,-7339.0,20946.0,0.0
1169.0,-7575.0,20898.0,0.0
1177.0,-7809.0,20839.0,0.0
1185.0,-8045.0,20786.0,0.0
1193.0,-8276.0,20716.0,0.0
1204.0,-8520.0,20679.0,0.0
1214.0,-8761.0,20629.0,0.0
1223.0,-8992.0,20555.0,0.0
1235.0,-9234.0,20503.0,0.0
1246.0,-9472.0,20442.0,0.0
1261.0,-9734.0,20429.0,0.0
126.0,-990.0,2024.0,0.0
130.0,-1036.0,2060.0,0.0
126.0,-1023.0,1979.0,0.0
130.0,-1067.0,2014.0,0.0
2.0,-25.0,47.0,0.0
2.0,-29.0,53.0,0.0
3.0,-33.0,58.0,0.0
3.0,-29.0,50.0,0.0
5.0,-44.0,75.0,0.0
4.0,-43.0,70.0,0.0
5.0,-48.0,77.0,0.0
5.0,-50.0,78.0,0.0
7.0,-63.0,97.0,0.0
6.0,-65.0,97.0,0.0
6.0,-57.0,83.0,0.0
6.0,-60.0,86.0,0.0
7.0,-72.0,99.0,0.0
8.0,-76.0,102.0,0.0
8.0,-72.0,96.0,0.0
9.0,-80.0,103.0,0.0
8.0,-82.0,104.0,0.0
8.0,-86.0,106.0,0.0
8.0,-79.0,96.0,0.0
10.0,-92.0,108.0,0.0
9.0,-94.0,109.0,0.0
10.0,-93.0,104.0,0.0
9.0,-89.0,98.0,0.0
10.0,-104.0,113.0,0.0
10.0,-102.0,108.0,0.0
10.0,-101.0,105.0,0.0
11.0,-108.0,110.0,0.0
12.0,-118.0,117.0,0.0
11.0,-105.0,102.0,0.0
12.0,-116.0,110.0,0.0
12.0,-112.0,105.0,0.0
13.0,-121.0,110.0,0.0
12.0,-117.0,105.0,0.0
12.0,-119.0,104.0,0.0
14.0,-134.0,115.0,0.0
14.0,-130.0,108.0,0.0
15.0,-139.0,113.0,0.0
13.0,-126.0,101.0,0.0
15.0,-139.0,108.0,0.0
15.0,-139.0,106.0,0.0
16.0,-144.0,106.0,0.0
16.0,-148.0,108.0,0.0
15.0,-141.0,101.0,0.0
16.0,-145.0,102.0,0.0
17.0,-153.0,104.0,0.0
18.0,-163.0,109.0,0.0
17.0,-161.0,105.0,0.0
17.0,-160.0,101.0,0.0
19.0,-168.0,104.0,0.0
20.0,-173.0,104.0,0.0
21.0,-178.0,105.0,0.0
21.0,-185.0,106.0,0.0
21.0,-178.0,99.0,0.0
22.0,-188.0,103.0,0.0
22.0,-189.0,101.0,0.0
22.0,-189.0,98.0,0.0
23.0,-196.0,99.0,0.0
23.0,-193.0,95.0,0.0
23.0,-196.0,94.0,0.0
24.0,-198.0,92.0,0.0
24.0,-196.0,88.0,0.0
25.0,-201.0,88.0,0.0
25.0,-208.0,88.0,0.0
25.0,-204.0,84.0,0.0
25.0,-202.0,81.0,0.0
26.0,-206.0,81.0,0.0
28.0,-221.0,83.0,0.0
32.0,-250.0,91.0,0.0
34.0,-260.0,92.0,0.0
34.0,-261.0,89.0,0.0
35.0,-264.0,87.0,0.0
34.0,-257.0,81.0,0.0
409.0,22659.0,22116.0,0.0
358.0,22377.0,22310.0,0.0
307.0,22071.0,22478.0,0.0
244.0,20686.0,21521.0,0.0
198.0,20588.0,21881.0,0.0
152.0,20494.0,22253.0,0.0
106.0,20445.0,22680.0,0.0
66.0,22483.0,25485.0,0.0
14.0,22123.0,25624.0,0.0
-37.0,21974.0,26009.0,0.0
-106.0,26068.0,31532.0,0.0
-166.0,25422.0,31431.0,0.0
-228.0,25384.0,32082.0,0.0
-286.0,24828.0,32081.0,0.0
-295.0,20854.0,27551.0,0.0
-341.0,20332.0,27470.0,0.0
-390.0,20034.0,27684.0,0.0
-441.0,19874.0,28094.0,0.0
-494.0,19722.0,28526.0,0.0
-524.0,18719.0,27707.0,0.0
-575.0,18622.0,28213.0,0.0
-657.0,19361.0,30033.0,0.0
-714.0,19252.0,30580.0,0.0
-806.0,19998.0,32539.0,0.0
-849.0,19458.0,32437.0,0.0
-890.0,18937.0,32354.0,0.0
-939.0,18591.0,32566.0,0.0
-1005.0,18577.0,33372.0,0.0
-1047.0,18102.0,33361.0,0.0
-1084.0,17555.0,33204.0,0.0
-897.0,13653.0,26513.0,0.0
-1156.0,16544.0,33000.0,0.0
-991.0,13366.0,27396.0,0.0
-1021.0,12989.0,27370.0,0.0
-1045.0,12552.0,27206.0,0.0
-1072.0,12166.0,27137.0,0.0
-1095.0,11760.0,27012.0,0.0
-1118.0,11371.0,26912.0,0.0
-1141.0,10982.0,26796.0,0.0
-1165.0,10624.0,26743.0,0.0
-1185.0,10243.0,26623.0,0.0
-1207.0,9883.0,26544.0,0.0
-1227.0,9526.0,26458.0,0.0
-1246.0,9166.0,26351.0,0.0
-1264.0,8814.0,26256.0,0.0
-1283.0,8470.0,26169.0,0.0
-1300.0,8129.0,26074.0,0.0
-1316.0,7784.0,25956.0,0.0
-1333.0,7456.0,25881.0,0.0
-1348.0,7125.0,25780.0,0.0
-1362.0,6799.0,25684.0,0.0
-1377.0,6483.0,25612.0,0.0
-1389.0,6158.0,25485.0,0.0
-1405.0,5857.0,25448.0,0.0
-1416.0,5541.0,25332.0,0.0
-1431.0,5246.0,25296.0,0.0
-1440.0,4932.0,25156.0,0.0
-1451.0,4632.0,25066.0,0.0
-1462.0,4339.0,24999.0,0.0
-1475.0,4055.0,24965.0,0.0
-1482.0,3756.0,24830.0,0.0
-1494.0,3472.0,24772.0,0.0
-1504.0,3193.0,24723.0,0.0
-1514.0,2913.0,24665.0,0.0
-1522.0,2632.0,24581.0,0.0
-1528.0,2352.0,24475.0,0.0
-1537.0,2078.0,24416.0,0.0
-1542.0,1804.0,24306.0,0.0
-1553.0,1537.0,24299.0,0.0
-1556.0,1266.0,24173.0,0.0
-1564.0,1001.0,24134.0,0.0
-1568.0,735.0,24047.0,0.0
-1575.0,473.0,23997.0,0.0
-1580.0,211.0,23929.0,0.0
-1588.0,-48.0,23909.0,0.0
-1594.0,-307.0,23862.0,0.0
-1597.0,-565.0,23789.0,0.0
-1603.0,-822.0,23737.0,0.0
-1605.0,-1078.0,23674.0,0.0
-1610.0,-1333.0,23628.0,0.0
-1613.0,-1587.0,23568.0,0.0
-1618.0,-1843.0,23529.0,0.0
-1618.0,-2093.0,23446.0,0.0
-1622.0,-2346.0,23411.0,0.0
-1622.0,-2595.0,23325.0,0.0
-1612.0,-2825.0,23109.0,0.0
-1614.0,-3073.0,23055.0,0.0
-1615.0,-3322.0,23001.0,0.0
-1616.0,-3568.0,22940.0,0.0
-1617.0,-3818.0,22905.0,0.0
-1614.0,-4059.0,22816.0,0.0
-1628.0,-4342.0,22960.0,0.0
-1618.0,-4563.0,22768.0,0.0
-1623.0,-4827.0,22790.0,0.0
-1621.0,-5073.0,22728.0,0.0
-1616.0,-5307.0,22617.0,0.0
-1611.0,-5546.0,22529.0,0.0
-1612.0,-5801.0,22514.0,0.0
-1618.0,-6080.0,22575.0,0.0
-1605.0,-6288.0,22378.0,0.0
-1605.0,-6552.0,22376.0,0.0
-1606.0,-6816.0,22374.0,0.0
-1604.0,-7077.0,22355.0,0.0
-1600.0,-7327.0,22298.0,0.0
-1595.0,-7572.0,22228.0,0.0
-4.0,-22.0,65.0,0.0
-6.0,-28.0,79.0,0.0
-4.0,-21.0,56.0,0.0
-5.0,-24.0,63.0,0.0
-1568.0,-8841.0,21963.0,0.0
-1562.0,-9099.0,21914.0,0.0
-1557.0,-9361.0,21868.0,0.0
-3.0,-15.0,35.0,0.0
-3.0,-18.0,41.0,0.0
-1537.0,-10160.0,21746.0,0.0
-3.0,-23.0,49.0,0.0
-4.0,-24.0,50.0,0.0
-3.0,-21.0,42.0,0.0
-4.0,-28.0,55.0,0.0
-4.0,-31.0,59.0,0.0
-5.0,-32.0,60.0,0.0
-3.0,-31.0,55.0,0.0
-4.0,-38.0,66.0,0.0
-4.0,-31.0,53.0,0.0
-6.0,-47.0,78.0,0.0
-4.0,-41.0,66.0,0.0
-5.0,-53.0,84.0,0.0
-7.0,-60.0,93.0,0.0
-5.0,-53.0,80.0,0.0
-5.0,-60.0,88.0,0.0
-5.0,-64.0,91.0,0.0
-5.0,-60.0,84.0,0.0
-6.0,-75.0,102.0,0.0
-5.0,-68.0,90.0,0.0
-6.0,-76.0,99.0,0.0
-6.0,-75.0,97.0,0.0
-6.0,-82.0,102.0,0.0
-6.0,-81.0,98.0,0.0
-5.0,-80.0,97.0,0.0
-6.0,-90.0,106.0,0.0
-6.0,-88.0,100.0,0.0
-6.0,-94.0,106.0,0.0
-6.0,-95.0,103.0,0.0
-6.0,-101.0,107.0,0.0
-5.0,-100.0,104.0,0.0
-5.0,-102.0,104.0,0.0
-6.0,-106.0,107.0,0.0
-5.0,-102.0,101.0,0.0
-5.0,-115.0,110.0,0.0
-6.0,-118.0,111.0,0.0
-6.0,-116.0,107.0,0.0
-5.0,-115.0,103.0,0.0
-5.0,-127.0,112.0,0.0
-5.0,-120.0,104.0,0.0
-5.0,-136.0,115.0,0.0
-4.0,-129.0,107.0,0.0
-5.0,-138.0,111.0,0.0
-4.0,-142.0,112.0,0.0
-4.0,-143.0,110.0,0.0
-4.0,-148.0,112.0,0.0
-4.0,-159.0,117.0,0.0
-3.0,-154.0,110.0,0.0
-3.0,-155.0,108.0,0.0
-3.0,-159.0,109.0,0.0
-3.0,-165.0,111.0,0.0
-2.0,-155.0,102.0,0.0
-2.0,-171.0,110.0,0.0
-2.0,-166.0,103.0,0.0
-2.0,-172.0,105.0,0.0
-1.0,-179.0,106.0,0.0
-1.0,-178.0,103.0,0.0
-1.0,-188.0,107.0,0.0
0.0,-172.0,94.0,0.0
0.0,-177.0,96.0,0.0
0.0,-175.0,92.0,0.0
0.0,-172.0,88.0,0.0
0.0,-186.0,93.0,0.0
0.0,-179.0,86.0,0.0
1.0,-180.0,85.0,0.0
1.0,-184.0,84.0,0.0
1.0,-190.0,85.0,0.0
2.0,-196.0,84.0,0.0
2.0,-182.0,76.0,0.0
2.0,-196.0,79.0,0.0
3.0,-202.0,80.0,0.0
3.0,-218.0,83.0,0.0
5.0,-282.0,105.0,0.0
5.0,-288.0,103.0,0.0
7.0,-301.0,104.0,0.0
7.0,-296.0,99.0,0.0
7.0,-299.0,96.0,0.0
8.0,-300.0,94.0,0.0
2137.0,20033.0,19713.0,0.0
2121.0,20025.0,20129.0,0.0
2104.0,20016.0,20552.0,0.0
2081.0,19929.0,20903.0,0.0
2057.0,19847.0,21266.0,0.0
1894.0,18405.0,20148.0,0.0
1873.0,18336.0,20507.0,0.0
1852.0,18258.0,20865.0,0.0
1830.0,18170.0,21218.0,0.0
1809.0,18089.0,21587.0,0.0
1787.0,17999.0,21954.0,0.0
1766.0,17915.0,22334.0,0.0
1743.0,17810.0,22697.0,0.0
1725.0,17745.0,23119.0,0.0
1703.0,17644.0,23506.0,0.0
1683.0,17559.0,23923.0,0.0
1663.0,17459.0,24332.0,0.0
1644.0,17376.0,24771.0,0.0
1624.0,17277.0,25202.0,0.0
1603.0,17169.0,25630.0,0.0
1584.0,17081.0,26100.0,0.0
1563.0,16963.0,26540.0,0.0
1761.0,19228.0,30807.0,0.0
1705.0,18729.0,30739.0,0.0
1679.0,18556.0,31206.0,0.0
1651.0,18357.0,31641.0,0.0
1602.0,17910.0,31650.0,0.0
1636.0,18396.0,33340.0,0.0
1581.0,17877.0,33240.0,0.0
1527.0,17360.0,33130.0,0.0
1198.0,13688.0,26820.0,0.0
1065.0,12229.0,24616.0,0.0
1145.0,13206.0,27315.0,0.0
1108.0,12837.0,27298.0,0.0
1068.0,12428.0,27187.0,0.0
1028.0,12010.0,27040.0,0.0
992.0,11623.0,26950.0,0.0
956.0,11240.0,26853.0,0.0
845.0,9954.0,24520.0,0.0
806.0,9515.0,24184.0,0.0
775.0,9165.0,24056.0,0.0
730.0,8646.0,23449.0,0.0
708.0,8396.0,23549.0,0.0
704.0,8337.0,24207.0,0.0
677.0,8023.0,24142.0,0.0
652.0,7708.0,24058.0,0.0
628.0,7405.0,24000.0,0.0
654.0,7695.0,25930.0,0.0
630.0,7363.0,25833.0,0.0
604.0,7033.0,25725.0,0.0
550.0,6352.0,24260.0,0.0
537.0,6149.0,24569.0,0.0
536.0,6085.0,25474.0,0.0
472.0,5303.0,23310.0,0.0
494.0,5468.0,25295.0,0.0
474.0,5166.0,25217.0,0.0
456.0,4870.0,25155.0,0.0
437.0,4574.0,25066.0,0.0
420.0,4281.0,24988.0,0.0
402.0,3990.0,24903.0,0.0
387.0,3704.0,24832.0,0.0
371.0,3421.0,24770.0,0.0
356.0,3140.0,24692.0,0.0
341.0,2856.0,24577.0,0.0
328.0,2582.0,24526.0,0.0
314.0,2306.0,24431.0,0.0
302.0,2035.0,24376.0,0.0
289.0,1764.0,24306.0,0.0
277.0,1496.0,24220.0,0.0
267.0,1231.0,24167.0,0.0
257.0,967.0,24109.0,0.0
247.0,702.0,23992.0,0.0
237.0,444.0,23959.0,0.0
228.0,184.0,23884.0,0.0
220.0,-73.0,23835.0,0.0
213.0,-329.0,23789.0,0.0
206.0,-585.0,23752.0,0.0
199.0,-841.0,23708.0,0.0
193.0,-1095.0,23656.0,0.0
188.0,-1346.0,23574.0,0.0
182.0,-1599.0,23529.0,0.0
178.0,-1848.0,23449.0,0.0
174.0,-2104.0,23465.0,0.0
170.0,-2351.0,23385.0,0.0
166.0,-2602.0,23345.0,0.0
164.0,-2851.0,23284.0,0.0
161.0,-3098.0,23225.0,0.0
159.0,-3346.0,23169.0,0.0
150.0,-3394.0,21836.0,0.0
148.0,-3634.0,21827.0,0.0
148.0,-3857.0,21710.0,0.0
157.0,-4334.0,22955.0,0.0
157.0,-4586.0,22932.0,0.0
158.0,-4837.0,22893.0,0.0
159.0,-5042.0,22657.0,0.0
152.0,-5036.0,21529.0,0.0
154.0,-5270.0,21481.0,0.0
166.0,-5814.0,22641.0,0.0
170.0,-6067.0,22612.0,0.0
173.0,-6314.0,22558.0,0.0
177.0,-6558.0,22488.0,0.0
181.0,-6785.0,22369.0,0.0
180.0,-6812.0,21615.0,0.0
182.0,-6928.0,21183.0,0.0
187.0,-7155.0,21102.0,0.0
204.0,-7775.0,22142.0,0.0
211.0,-8047.0,22147.0,0.0
219.0,-8288.0,22068.0,0.0
224.0,-8442.0,21759.0,0.0
234.0,-8797.0,21970.0,0.0
244.0,-9058.0,21932.0,0.0
253.0,-9298.0,21843.0,0.0
261.0,-9474.0,21606.0,0.0
274.0,-9824.0,21762.0,0.0
284.0,-10073.0,21686.0,0.0
292.0,-10190.0,21331.0,0.0
307.0,-10571.0,21530.0,0.0
320.0,-10856.0,21520.0,0.0
334.0,-11126.0,21475.0,0.0
0.0,-33.0,63.0,0.0
0.0,-34.0,62.0,0.0
1.0,-37.0,68.0,0.0
1.0,-40.0,71.0,0.0
0.0,-44.0,76.0,0.0
0.0,-49.0,83.0,0.0
1.0,-46.0,74.0,0.0
2.0,-54.0,86.0,0.0
1.0,-48.0,76.0,0.0
1.0,-59.0,91.0,0.0
1.0,-63.0,94.0,0.0
1.0,-67.0,97.0,0.0
2.0,-76.0,106.0,0.0
1.0,-69.0,96.0,0.0
2.0,-79.0,107.0,0.0
2.0,-78.0,104.0,0.0
2.0,-77.0,100.0,0.0
3.0,-86.0,108.0,0.0
3.0,-86.0,105.0,0.0
3.0,-92.0,111.0,0.0
3.0,-89.0,105.0,0.0
4.0,-93.0,108.0,0.0
3.0,-96.0,108.0,0.0
3.0,-91.0,101.0,0.0
4.0,-95.0,103.0,0.0
4.0,-103.0,108.0,0.0
5.0,-109.0,113.0,0.0
4.0,-101.0,103.0,0.0
5.0,-113.0,112.0,0.0
5.0,-111.0,108.0,0.0
5.0,-111.0,106.0,0.0
5.0,-121.0,113.0,0.0
6.0,-117.0,105.0,0.0
7.0,-137.0,123.0,0.0
7.0,-144.0,125.0,0.0
6.0,-137.0,116.0,0.0
7.0,-126.0,104.0,0.0
7.0,-138.0,112.0,0.0
8.0,-149.0,118.0,0.0
8.0,-140.0,109.0,0.0
8.0,-151.0,114.0,0.0
9.0,-147.0,109.0,0.0
9.0,-161.0,116.0,0.0
10.0,-164.0,117.0,0.0
9.0,-158.0,110.0,0.0
10.0,-162.0,110.0,0.0
10.0,-165.0,109.0,0.0
10.0,-170.0,110.0,0.0
11.0,-170.0,107.0,0.0
11.0,-172.0,107.0,0.0
12.0,-181.0,109.0,0.0
12.0,-178.0,105.0,0.0
13.0,-186.0,107.0,0.0
13.0,-182.0,101.0,0.0
12.0,-178.0,97.0,0.0
14.0,-193.0,102.0,0.0
14.0,-196.0,101.0,0.0
14.0,-188.0,95.0,0.0
14.0,-192.0,94.0,0.0
15.0,-195.0,93.0,0.0
15.0,-194.0,90.0,0.0
15.0,-197.0,89.0,0.0
16.0,-208.0,90.0,0.0
17.0,-209.0,88.0,0.0
17.0,-211.0,87.0,0.0
17.0,-207.0,82.0,0.0
18.0,-202.0,78.0,0.0
21.0,-245.0,92.0,0.0
23.0,-268.0,97.0,0.0
25.0,-279.0,98.0,0.0
26.0,-283.0,96.0,0.0
26.0,-284.0,93.0,0.0
26.0,-278.0,88.0,0.0
-670.0,34528.0,33518.0,0.0
-475.0,21575.0,21393.0,0.0
-519.0,21000.0,21272.0,0.0
-587.0,21426.0,22170.0,0.0
-628.0,20862.0,22052.0,0.0
-685.0,20776.0,22437.0,0.0
-735.0,20512.0,22632.0,0.0
0.0,0.0,0.0,0.0
-1135.0,27208.0,31343.0,0.0
0.0,0.0,0.0,0.0
-1261.0,26327.0,31675.0,0.0
-1314.0,25750.0,31665.0,0.0
-1371.0,25247.0,31736.0,0.0
-1438.0,24978.0,32100.0,0.0
-1290.0,21151.0,27793.0,0.0
-1671.0,25916.0,34824.0,0.0
-1426.0,20964.0,28812.0,0.0
-1474.0,20554.0,28897.0,0.0
-1508.0,19990.0,28754.0,0.0
-1550.0,19552.0,28782.0,0.0
-1599.0,19198.0,28925.0,0.0
-1611.0,18437.0,28440.0,0.0
-1628.0,17780.0,28086.0,0.0
-1678.0,17498.0,28311.0,0.0
-1909.0,19021.0,31532.0,0.0
-1970.0,18764.0,31879.0,0.0
-2042.0,18612.0,32419.0,0.0
-2123.0,18525.0,33091.0,0.0
-2179.0,18198.0,33347.0,0.0
-2213.0,17698.0,33283.0,0.0
-1790.0,13714.0,26479.0,0.0
-1852.0,13592.0,26954.0,0.0
-1916.0,13478.0,27465.0,0.0
-1940.0,13072.0,27386.0,0.0
-1959.0,12655.0,27268.0,0.0
-1977.0,12240.0,27140.0,0.0
-1997.0,11847.0,27051.0,0.0
-2013.0,11444.0,26922.0,0.0
-2031.0,11057.0,26818.0,0.0
-2048.0,10681.0,26724.0,0.0
-2067.0,10318.0,26655.0,0.0
-2084.0,9954.0,26569.0,0.0
-2097.0,9582.0,26446.0,0.0
-2113.0,9225.0,26355.0,0.0
-2125.0,8865.0,26237.0,0.0
-2138.0,8517.0,26140.0,0.0
-2154.0,8183.0,26077.0,0.0
-2166.0,7842.0,25976.0,0.0
-2175.0,7499.0,25855.0,0.0
-2189.0,7173.0,25780.0,0.0
-2201.0,6854.0,25710.0,0.0
-2214.0,6536.0,25639.0,0.0
-2226.0,6224.0,25576.0,0.0
-2228.0,5888.0,25398.0,0.0
-2244.0,5595.0,25384.0,0.0
-2252.0,5285.0,25287.0,0.0
-2259.0,4977.0,25185.0,0.0
-2271.0,4685.0,25141.0,0.0
-2275.0,4380.0,25014.0,0.0
-2285.0,4090.0,24958.0,0.0
-2295.0,3803.0,24910.0,0.0
-2295.0,3505.0,24761.0,0.0
-2308.0,3227.0,24748.0,0.0
-2312.0,2941.0,24637.0,0.0
-2319.0,2660.0,24570.0,0.0
-2323.0,2382.0,24488.0,0.0
-2331.0,2108.0,24435.0,0.0
-2335.0,1833.0,24356.0,0.0
-2338.0,1560.0,24266.0,0.0
-2345.0,1292.0,24215.0,0.0
-2348.0,1023.0,24133.0,0.0
-2352.0,757.0,24061.0,0.0
-2359.0,494.0,24020.0,0.0
-2359.0,230.0,23919.0,0.0
-2368.0,-30.0,23904.0,0.0
-2371.0,-290.0,23840.0,0.0
-2372.0,-549.0,23760.0,0.0
-2379.0,-808.0,23743.0,0.0
-2381.0,-1065.0,23663.0,0.0
-2388.0,-1323.0,23652.0,0.0
-2389.0,-1577.0,23578.0,0.0
-2390.0,-1831.0,23513.0,0.0
-2393.0,-2085.0,23464.0,0.0
-2004.0,-1957.0,19588.0,0.0
-2110.0,-2282.0,20569.0,0.0
-2115.0,-2509.0,20561.0,0.0
-2118.0,-2732.0,20520.0,0.0
-2113.0,-2946.0,20421.0,0.0
-2117.0,-3173.0,20411.0,0.0
-2118.0,-3395.0,20369.0,0.0
-2116.0,-3611.0,20298.0,0.0
-2115.0,-3832.0,20249.0,0.0
-2117.0,-4056.0,20223.0,0.0
-2115.0,-4274.0,20166.0,0.0
-2113.0,-4492.0,20106.0,0.0
-2112.0,-4711.0,20054.0,0.0
-2110.0,-4930.0,20001.0,0.0
-2109.0,-5150.0,19960.0,0.0
-2111.0,-5382.0,19952.0,0.0
-2108.0,-5601.0,19893.0,0.0
-2100.0,-5807.0,19794.0,0.0
-2102.0,-6040.0,19786.0,0.0
-2098.0,-6257.0,19724.0,0.0
-2097.0,-6487.0,19698.0,0.0
-2091.0,-6703.0,19631.0,0.0
-2089.0,-6931.0,19594.0,0.0
-2086.0,-7158.0,19554.0,0.0
-2084.0,-7386.0,19514.0,0.0
-2.0,-9.0,26.0,0.0
-2069.0,-7816.0,19364.0,0.0
-4.0,-13.0,31.0,0.0
-3.0,-12.0,29.0,0.0
-2056.0,-8506.0,19232.0,0.0
-4.0,-18.0,39.0,0.0
-3.0,-15.0,33.0,0.0
-3.0,-15.0,32.0,0.0
-4.0,-19.0,41.0,0.0
-4.0,-19.0,38.0,0.0
-3.0,-17.0,33.0,0.0
-4.0,-18.0,35.0,0.0
-5.0,-26.0,48.0,0.0
-4.0,-24.0,43.0,0.0
-7.0,-36.0,64.0,0.0
-5.0,-30.0,52.0,0.0
-7.0,-40.0,68.0,0.0
-6.0,-35.0,57.0,0.0
-6.0,-37.0,58.0,0.0
-6.0,-43.0,65.0,0.0
-8.0,-51.0,76.0,0.0
-7.0,-45.0,67.0,0.0
-9.0,-57.0,81.0,0.0
-9.0,-60.0,85.0,0.0
-10.0,-68.0,93.0,0.0
-9.0,-63.0,85.0,0.0
-9.0,-69.0,90.0,0.0
-9.0,-69.0,88.0,0.0
-9.0,-66.0,82.0,0.0
-9.0,-72.0,88.0,0.0
-9.0,-70.0,82.0,0.0
-9.0,-75.0,87.0,0.0
-8.0,-73.0,83.0,0.0
-10.0,-87.0,96.0,0.0
-9.0,-85.0,92.0,0.0
-9.0,-82.0,88.0,0.0
-8.0,-79.0,82.0,0.0
-8.0,-84.0,85.0,0.0
-9.0,-95.0,95.0,0.0
-9.0,-98.0,95.0,0.0
-9.0,-96.0,92.0,0.0
-9.0,-98.0,91.0,0.0
-9.0,-104.0,95.0,0.0
-9.0,-114.0,102.0,0.0
-9.0,-109.0,95.0,0.0
-9.0,-111.0,95.0,0.0
-9.0,-114.0,96.0,0.0
-9.0,-125.0,102.0,0.0
-10.0,-129.0,103.0,0.0
-9.0,-133.0,105.0,0.0
-9.0,-135.0,103.0,0.0
-9.0,-136.0,102.0,0.0
-8.0,-137.0,101.0,0.0
-8.0,-133.0,95.0,0.0
-9.0,-144.0,101.0,0.0
-8.0,-149.0,102.0,0.0
-8.0,-147.0,98.0,0.0
-8.0,-160.0,104.0,0.0
-8.0,-155.0,99.0,0.0
-8.0,-157.0,98.0,0.0
-7.0,-160.0,96.0,0.0
-7.0,-168.0,99.0,0.0
-7.0,-156.0,90.0,0.0
-6.0,-170.0,95.0,0.0
-6.0,-157.0,87.0,0.0
-6.0,-167.0,89.0,0.0
-5.0,-153.0,80.0,0.0
-5.0,-155.0,79.0,0.0
-4.0,-154.0,76.0,0.0
-4.0,-158.0,76.0,0.0
-4.0,-159.0,74.0,0.0
-4.0,-160.0,73.0,0.0
-4.0,-163.0,72.0,0.0
-3.0,-167.0,71.0,0.0
-3.0,-171.0,70.0,0.0
-3.0,-176.0,71.0,0.0
-2.0,-178.0,70.0,0.0
-3.0,-217.0,82.0,0.0
-2.0,-278.0,102.0,0.0
-2.0,-289.0,102.0,0.0
-2.0,-293.0,100.0,0.0
-1.0,-286.0,95.0,0.0
-1.0,-291.0,92.0,0.0
0.0,-302.0,93.0,0.0
108.0,-285.0,57.0,0.0
109.0,-282.0,60.0,0.0
102.0,-263.0,58.0,0.0
103.0,-262.0,61.0,0.0
103.0,-257.0,62.0,0.0
102.0,-253.0,65.0,0.0
100.0,-245.0,66.0,0.0
103.0,-248.0,70.0,0.0
102.0,-241.0,70.0,0.0
106.0,-250.0,76.0,0.0
101.0,-234.0,74.0,0.0
103.0,-237.0,77.0,0.0
103.0,-232.0,79.0,0.0
106.0,-235.0,82.0,0.0
107.0,-236.0,86.0,0.0
109.0,-237.0,90.0,0.0
109.0,-232.0,91.0,0.0
109.0,-230.0,92.0,0.0
113.0,-235.0,98.0,0.0
114.0,-234.0,101.0,0.0
112.0,-228.0,101.0,0.0
114.0,-227.0,104.0,0.0
120.0,-236.0,111.0,0.0
115.0,-225.0,110.0,0.0
117.0,-225.0,112.0,0.0
116.0,-219.0,113.0,0.0
121.0,-227.0,120.0,0.0
125.0,-231.0,126.0,0.0
130.0,-237.0,132.0,0.0
131.0,-234.0,135.0,0.0
134.0,-236.0,139.0,0.0
130.0,-225.0,136.0,0.0
125.0,-213.0,133.0,0.0
120.0,-202.0,129.0,0.0
119.0,-199.0,130.0,0.0
110.0,-180.0,121.0,0.0
113.0,-182.0,125.0,0.0
114.0,-182.0,128.0,0.0
100.0,-157.0,113.0,0.0
92.0,-143.0,106.0,0.0
95.0,-145.0,111.0,0.0
92.0,-138.0,108.0,0.0
93.0,-138.0,110.0,0.0
78.0,-114.0,94.0,0.0
74.0,-105.0,89.0,0.0
76.0,-107.0,92.0,0.0
62.0,-87.0,77.0,0.0
62.0,-85.0,78.0,0.0
62.0,-83.0,77.0,0.0
54.0,-72.0,68.0,0.0
51.0,-67.0,65.0,0.0
49.0,-63.0,63.0,0.0
56.0,-70.0,71.0,0.0
15147.0,-18651.0,19430.0,0.0
15502.0,-18757.0,20023.0,0.0
43.0,-51.0,57.0,0.0
1135.0,-1327.0,1487.0,0.0
1148.0,-1317.0,1513.0,0.0
1146.0,-1290.0,1520.0,0.0
1153.0,-1273.0,1538.0,0.0
1146.0,-1243.0,1540.0,0.0
1153.0,-1226.0,1557.0,0.0
1151.0,-1199.0,1562.0,0.0
1154.0,-1179.0,1576.0,0.0
1179.0,-1180.0,1619.0,0.0
1159.0,-1136.0,1600.0,0.0
1146.0,-1101.0,1591.0,0.0
1164.0,-1095.0,1626.0,0.0
1149.0,-1056.0,1611.0,0.0
1170.0,-1052.0,1650.0,0.0
19091.0,-16781.0,27032.0,1.0
5629.0,-4835.0,8010.0,0.0
1188.0,-996.0,1698.0,0.0
18811.0,-15400.0,27014.0,1.0
1170.0,-934.0,1688.0,0.0
6819.0,-5310.0,9881.0,0.0
1158.0,-878.0,1686.0,0.0
1163.0,-858.0,1700.0,0.0
1160.0,-834.0,1705.0,0.0
1166.0,-815.0,1720.0,0.0
1169.0,-793.0,1729.0,0.0
1161.0,-765.0,1726.0,0.0
17762.0,-11356.0,26482.0,1.0
1160.0,-718.0,1738.0,0.0
1182.0,-708.0,1775.0,0.0
1190.0,-690.0,1795.0,0.0
17444.0,-9772.0,26392.0,1.0
1160.0,-626.0,1762.0,0.0
1191.0,-620.0,1815.0,0.0
1192.0,-597.0,1823.0,0.0
17202.0,-8276.0,26380.0,1.0
1184.0,-546.0,1823.0,0.0
17005.0,-7509.0,26244.0,1.0
1153.0,-486.0,1787.0,0.0
1151.0,-462.0,1788.0,0.0
16830.0,-6433.0,26211.0,1.0
1175.0,-426.0,1835.0,0.0
1155.0,-396.0,1809.0,0.0
1177.0,-381.0,1850.0,0.0
1172.0,-355.0,1847.0,0.0
1170.0,-331.0,1848.0,0.0
1175.0,-309.0,1860.0,0.0
1174.0,-285.0,1864.0,0.0
1163.0,-260.0,1851.0,0.0
1159.0,-235.0,1851.0,0.0
1172.0,-215.0,1874.0,0.0
1193.0,-195.0,1914.0,0.0
1169.0,-167.0,1877.0,0.0
1168.0,-144.0,1881.0,0.0
1172.0,-121.0,1892.0,0.0
1170.0,-96.0,1893.0,0.0
8.0,-1.0,14.0,0.0
4.0,0.0,8.0,0.0
5.0,0.0,10.0,0.0
16.0,0.0,28.0,0.0
13.0,0.0,22.0,0.0
16.0,0.0,26.0,0.0
18.0,1.0,32.0,0.0
14.0,0.0,23.0,0.0
27.0,2.0,45.0,0.0
20.0,2.0,34.0,0.0
22.0,2.0,37.0,0.0
16.0,2.0,26.0,0.0
29.0,5.0,49.0,0.0
24.0,5.0,41.0,0.0
34.0,6.0,56.0,0.0
28.0,6.0,48.0,0.0
29.0,7.0,49.0,0.0
37.0,10.0,62.0,0.0
36.0,11.0,62.0,0.0
42.0,14.0,72.0,0.0
37.0,13.0,64.0,0.0
35.0,13.0,60.0,0.0
41.0,16.0,69.0,0.0
40.0,16.0,67.0,0.0
35.0,16.0,61.0,0.0
49.0,23.0,84.0,0.0
53.0,26.0,89.0,0.0
47.0,24.0,81.0,0.0
44.0,24.0,76.0,0.0
44.0,24.0,76.0,0.0
45.0,26.0,76.0,0.0
52.0,32.0,90.0,0.0
45.0,29.0,78.0,0.0
45.0,30.0,78.0,0.0
49.0,33.0,84.0,0.0
47.0,32.0,80.0,0.0
50.0,37.0,86.0,0.0
52.0,38.0,88.0,0.0
48.0,37.0,81.0,0.0
50.0,40.0,85.0,0.0
52.0,43.0,89.0,0.0
53.0,45.0,90.0,0.0
51.0,46.0,88.0,0.0
51.0,46.0,87.0,0.0
56.0,53.0,96.0,0.0
54.0,51.0,91.0,0.0
54.0,53.0,92.0,0.0
55.0,55.0,94.0,0.0
57.0,59.0,97.0,0.0
58.0,62.0,99.0,0.0
60.0,66.0,102.0,0.0
58.0,65.0,100.0,0.0
61.0,71.0,104.0,0.0
63.0,74.0,108.0,0.0
59.0,71.0,101.0,0.0
61.0,75.0,103.0,0.0
65.0,82.0,110.0,0.0
62.0,80.0,105.0,0.0
65.0,86.0,111.0,0.0
66.0,89.0,112.0,0.0
68.0,93.0,114.0,0.0
67.0,94.0,112.0,0.0
67.0,97.0,114.0,0.0
69.0,102.0,116.0,0.0
70.0,106.0,119.0,0.0
69.0,106.0,115.0,0.0
73.0,115.0,122.0,0.0
71.0,115.0,119.0,0.0
74.0,122.0,124.0,0.0
76.0,126.0,125.0,0.0
74.0,127.0,123.0,0.0
75.0,131.0,124.0,0.0
76.0,134.0,126.0,0.0
76.0,139.0,126.0,0.0
78.0,143.0,127.0,0.0
77.0,145.0,127.0,0.0
78.0,150.0,128.0,0.0
78.0,153.0,127.0,0.0
81.0,162.0,132.0,0.0
79.0,160.0,128.0,0.0
80.0,165.0,128.0,0.0
109.0,-294.0,60.0,0.0
102.0,-273.0,58.0,0.0
102.0,-269.0,61.0,0.0
101.0,-262.0,62.0,0.0
100.0,-256.0,63.0,0.0
101.0,-256.0,67.0,0.0
104.0,-259.0,70.0,0.0
105.0,-258.0,74.0,0.0
103.0,-251.0,75.0,0.0
104.0,-250.0,77.0,0.0
105.0,-247.0,79.0,0.0
101.0,-236.0,78.0,0.0
106.0,-242.0,84.0,0.0
103.0,-233.0,84.0,0.0
108.0,-244.0,90.0,0.0
106.0,-235.0,90.0,0.0
109.0,-237.0,94.0,0.0
113.0,-243.0,99.0,0.0
110.0,-233.0,99.0,0.0
112.0,-235.0,102.0,0.0
116.0,-239.0,107.0,0.0
116.0,-237.0,109.0,0.0
117.0,-236.0,112.0,0.0
115.0,-229.0,113.0,0.0
116.0,-228.0,115.0,0.0
118.0,-229.0,119.0,0.0
123.0,-234.0,125.0,0.0
124.0,-233.0,128.0,0.0
131.0,-242.0,136.0,0.0
130.0,-237.0,138.0,0.0
128.0,-232.0,137.0,0.0
131.0,-233.0,142.0,0.0
129.0,-228.0,142.0,0.0
128.0,-221.0,142.0,0.0
122.0,-208.0,137.0,0.0
110.0,-185.0,125.0,0.0
105.0,-174.0,121.0,0.0
103.0,-167.0,118.0,0.0
105.0,-168.0,123.0,0.0
97.0,-153.0,115.0,0.0
89.0,-139.0,106.0,0.0
85.0,-132.0,103.0,0.0
84.0,-127.0,102.0,0.0
77.0,-115.0,96.0,0.0
74.0,-108.0,91.0,0.0
67.0,-97.0,84.0,0.0
58.0,-84.0,74.0,0.0
60.0,-83.0,76.0,0.0
58.0,-79.0,74.0,0.0
13776.0,-18543.0,17639.0,0.0
53.0,-70.0,69.0,0.0
14188.0,-18467.0,18434.0,0.0
14503.0,-18557.0,18978.0,0.0
14820.0,-18639.0,19528.0,0.0
50.0,-63.0,68.0,0.0
45.0,-54.0,60.0,0.0
1131.0,-1348.0,1521.0,0.0
17779.0,-20819.0,24047.0,1.0
1127.0,-1295.0,1534.0,0.0
1115.0,-1258.0,1527.0,0.0
1133.0,-1254.0,1560.0,0.0
1100.0,-1195.0,1526.0,0.0
1118.0,-1191.0,1559.0,0.0
1147.0,-1197.0,1608.0,0.0
1151.0,-1177.0,1623.0,0.0
1163.0,-1166.0,1649.0,0.0
1148.0,-1126.0,1634.0,0.0
1119.0,-1075.0,1602.0,0.0
1156.0,-1086.0,1665.0,0.0
1143.0,-1050.0,1654.0,0.0
1118.0,-1004.0,1625.0,0.0
1124.0,-986.0,1642.0,0.0
1115.0,-955.0,1635.0,0.0
1160.0,-970.0,1709.0,0.0
1143.0,-933.0,1693.0,0.0
6800.0,-5411.0,10105.0,0.0
7089.0,-5495.0,10579.0,0.0
1145.0,-864.0,1717.0,0.0
1151.0,-845.0,1732.0,0.0
1143.0,-816.0,1727.0,0.0
5772.0,-4005.0,8754.0,0.0
1150.0,-775.0,1752.0,0.0
1156.0,-754.0,1767.0,0.0
1147.0,-727.0,1762.0,0.0
1139.0,-697.0,1755.0,0.0
17204.0,-10202.0,26587.0,1.0
17180.0,-9842.0,26642.0,1.0
1131.0,-625.0,1761.0,0.0
17077.0,-9094.0,26665.0,1.0
1152.0,-590.0,1805.0,0.0
1163.0,-572.0,1829.0,0.0
1156.0,-546.0,1825.0,0.0
16706.0,-7551.0,26424.0,1.0
1172.0,-506.0,1861.0,0.0
1141.0,-469.0,1816.0,0.0
1159.0,-453.0,1851.0,0.0
16514.0,-6132.0,26432.0,1.0
1153.0,-405.0,1850.0,0.0
16377.0,-5420.0,26361.0,1.0
16344.0,-5077.0,26377.0,1.0
1182.0,-344.0,1914.0,0.0
1177.0,-318.0,1911.0,0.0
16038.0,-4007.0,26087.0,1.0
1165.0,-268.0,1901.0,0.0
1159.0,-242.0,1894.0,0.0
15679.0,-2957.0,25690.0,1.0
1149.0,-193.0,1888.0,0.0
1135.0,-168.0,1868.0,0.0
1176.0,-150.0,1940.0,0.0
15329.0,-1634.0,25345.0,1.0
4.0,0.0,7.0,0.0
1141.0,-74.0,1895.0,0.0
5.0,-1.0,9.0,0.0
19.0,-1.0,32.0,0.0
14.0,0.0,24.0,0.0
16.0,0.0,28.0,0.0
13.0,0.0,23.0,0.0
20.0,0.0,34.0,0.0
25.0,1.0,43.0,0.0
20.0,1.0,34.0,0.0
29.0,3.0,49.0,0.0
24.0,3.0,41.0,0.0
33.0,4.0,56.0,0.0
26.0,5.0,45.0,0.0
35.0,7.0,59.0,0.0
27.0,6.0,46.0,0.0
42.0,10.0,74.0,0.0
37.0,10.0,64.0,0.0
36.0,10.0,63.0,0.0
36.0,11.0,62.0,0.0
40.0,13.0,71.0,0.0
38.0,14.0,65.0,0.0
44.0,16.0,76.0,0.0
45.0,17.0,77.0,0.0
44.0,18.0,76.0,0.0
43.0,19.0,74.0,0.0
56.0,27.0,98.0,0.0
47.0,23.0,82.0,0.0
52.0,27.0,91.0,0.0
48.0,26.0,83.0,0.0
48.0,27.0,83.0,0.0
50.0,29.0,87.0,0.0
50.0,31.0,89.0,0.0
48.0,31.0,85.0,0.0
55.0,36.0,95.0,0.0
46.0,33.0,82.0,0.0
49.0,35.0,86.0,0.0
49.0,36.0,86.0,0.0
47.0,36.0,81.0,0.0
49.0,38.0,86.0,0.0
49.0,40.0,86.0,0.0
52.0,43.0,90.0,0.0
52.0,45.0,91.0,0.0
52.0,47.0,92.0,0.0
52.0,49.0,92.0,0.0
52.0,49.0,90.0,0.0
53.0,51.0,94.0,0.0
53.0,53.0,94.0,0.0
55.0,56.0,96.0,0.0
55.0,58.0,96.0,0.0
54.0,59.0,95.0,0.0
56.0,63.0,99.0,0.0
59.0,69.0,104.0,0.0
59.0,68.0,102.0,0.0
57.0,69.0,101.0,0.0
60.0,73.0,104.0,0.0
61.0,77.0,107.0,0.0
63.0,81.0,109.0,0.0
63.0,82.0,108.0,0.0
63.0,86.0,110.0,0.0
60.0,83.0,104.0,0.0
64.0,90.0,110.0,0.0
65.0,93.0,112.0,0.0
68.0,101.0,119.0,0.0
68.0,102.0,117.0,0.0
69.0,106.0,118.0,0.0
71.0,112.0,123.0,0.0
71.0,113.0,122.0,0.0
72.0,117.0,122.0,0.0
70.0,117.0,121.0,0.0
76.0,129.0,129.0,0.0
74.0,130.0,128.0,0.0
71.0,126.0,121.0,0.0
75.0,135.0,126.0,0.0
74.0,137.0,126.0,0.0
77.0,146.0,131.0,0.0
76.0,146.0,129.0,0.0
76.0,149.0,128.0,0.0
81.0,161.0,136.0,0.0
79.0,161.0,132.0,0.0
77.0,160.0,129.0,0.0
77.0,163.0,129.0,0.0
109.0,-303.0,63.0,0.0
103.0,-283.0,62.0,0.0
102.0,-275.0,63.0,0.0
103.0,-273.0,66.0,0.0
99.0,-261.0,67.0,0.0
99.0,-256.0,68.0,0.0
100.0,-257.0,71.0,0.0
100.0,-253.0,74.0,0.0
101.0,-252.0,76.0,0.0
101.0,-249.0,78.0,0.0
102.0,-248.0,81.0,0.0
104.0,-250.0,84.0,0.0
104.0,-247.0,87.0,0.0
105.0,-244.0,88.0,0.0
108.0,-250.0,93.0,0.0
108.0,-245.0,96.0,0.0
