//X,Y,Z,Classification
-4071.0,-2032.0,10147.0,0.0
-4070.0,-2149.0,10117.0,0.0
-4076.0,-2270.0,10107.0,0.0
-4069.0,-2385.0,10064.0,0.0
-4070.0,-2504.0,10040.0,0.0
-4064.0,-2617.0,10000.0,0.0
-4066.0,-2736.0,9978.0,0.0
-4069.0,-2857.0,9959.0,0.0
-4069.0,-2975.0,9931.0,0.0
-4065.0,-3090.0,9895.0,0.0
-4065.0,-3208.0,9866.0,0.0
-4069.0,-3330.0,9848.0,0.0
-4066.0,-3446.0,9811.0,0.0
-4071.0,-3569.0,9795.0,0.0
-4071.0,-3688.0,9767.0,0.0
-4069.0,-3805.0,9730.0,0.0
-4067.0,-3923.0,9697.0,0.0
-4065.0,-4040.0,9660.0,0.0
-4069.0,-4163.0,9638.0,0.0
-4073.0,-4286.0,9616.0,0.0
-4077.0,-4412.0,9594.0,0.0
-4078.0,-4534.0,9566.0,0.0
-4079.0,-4656.0,9536.0,0.0
-4077.0,-4775.0,9497.0,0.0
-4077.0,-4897.0,9464.0,0.0
-4081.0,-5025.0,9441.0,0.0
-4084.0,-5151.0,9411.0,0.0
-4090.0,-5282.0,9391.0,0.0
-4092.0,-5408.0,9359.0,0.0
-4098.0,-5541.0,9338.0,0.0
-4102.0,-5671.0,9311.0,0.0
-4094.0,-5785.0,9255.0,0.0
-4106.0,-5929.0,9245.0,0.0
-4108.0,-6057.0,9209.0,0.0
-4117.0,-6198.0,9191.0,0.0
-4117.0,-6328.0,9153.0,0.0
-4084.0,-6404.0,9038.0,0.0
-4052.0,-6481.0,8929.0,0.0
-3989.0,-6507.0,8750.0,0.0
-3946.0,-6564.0,8617.0,0.0
-3844.0,-6517.0,8355.0,0.0
-3944.0,-6814.0,8532.0,0.0
-4144.0,-7293.0,8920.0,0.0
-4152.0,-7445.0,8894.0,0.0
-4159.0,-7592.0,8862.0,0.0
-4158.0,-7728.0,8814.0,0.0
-4169.0,-7887.0,8791.0,0.0
-4178.0,-8043.0,8761.0,0.0
-4179.0,-8187.0,8715.0,0.0
-4189.0,-8350.0,8688.0,0.0
-4197.0,-8509.0,8655.0,0.0
-4205.0,-8670.0,8620.0,0.0
-4209.0,-8826.0,8577.0,0.0
-4215.0,-8987.0,8536.0,0.0
-4224.0,-9155.0,8500.0,0.0
-4233.0,-9325.0,8464.0,0.0
-4240.0,-9493.0,8421.0,0.0
-4251.0,-9672.0,8387.0,0.0
-4258.0,-9846.0,8344.0,0.0
-4271.0,-10033.0,8309.0,0.0
-4280.0,-10215.0,8267.0,0.0
-4284.0,-10389.0,8216.0,0.0
-4295.0,-10577.0,8173.0,0.0
-4310.0,-10781.0,8138.0,0.0
-4313.0,-10957.0,8080.0,0.0
-50.0,-131.0,94.0,0.0
-48.0,-126.0,89.0,0.0
-47.0,-127.0,87.0,0.0
-4315.0,-11654.0,7813.0,0.0
-49.0,-137.0,89.0,0.0
-55.0,-155.0,99.0,0.0
-4093.0,-11570.0,7206.0,0.0
-4079.0,-11703.0,7111.0,0.0
-52.0,-151.0,89.0,0.0
-52.0,-154.0,89.0,0.0
-56.0,-169.0,95.0,0.0
-58.0,-177.0,97.0,0.0
-58.0,-181.0,97.0,0.0
-56.0,-178.0,92.0,0.0
-60.0,-195.0,98.0,0.0
-62.0,-203.0,100.0,0.0
-61.0,-203.0,97.0,0.0
-61.0,-208.0,97.0,0.0
-65.0,-225.0,101.0,0.0
-65.0,-226.0,99.0,0.0
-65.0,-229.0,97.0,0.0
-64.0,-231.0,95.0,0.0
-68.0,-244.0,98.0,0.0
-69.0,-253.0,97.0,0.0
-80.0,-298.0,112.0,0.0
-87.0,-330.0,119.0,0.0
-85.0,-328.0,115.0,0.0
-82.0,-323.0,109.0,0.0
-82.0,-328.0,107.0,0.0
-79.0,-321.0,101.0,0.0
-80.0,-327.0,98.0,0.0
-80.0,-331.0,96.0,0.0
-77.0,-325.0,90.0,0.0
-77.0,-329.0,88.0,0.0
-76.0,-333.0,85.0,0.0
-4706.0,15331.0,13640.0,0.0
-4794.0,15280.0,13890.0,0.0
-4861.0,15161.0,14082.0,0.0
-5129.0,15650.0,14853.0,0.0
-5152.0,15379.0,14915.0,0.0
-5612.0,16391.0,16243.0,0.0
-5175.0,14782.0,14970.0,0.0
-5548.0,15503.0,16044.0,0.0
-5154.0,14089.0,14900.0,0.0
-5293.0,14149.0,15294.0,0.0
-5486.0,14339.0,15842.0,0.0
-5447.0,13921.0,15722.0,0.0
-6531.0,16321.0,18842.0,0.0
-6517.0,15922.0,18793.0,0.0
-6492.0,15501.0,18708.0,0.0
-6454.0,15060.0,18586.0,0.0
-6325.0,14421.0,18203.0,0.0
-6418.0,14296.0,18459.0,0.0
-6198.0,13484.0,17814.0,0.0
-6315.0,13420.0,18141.0,0.0
-6389.0,13257.0,18341.0,0.0
-4534.0,9183.0,13004.0,0.0
-4534.0,8961.0,12994.0,0.0
-4518.0,8714.0,12941.0,0.0
-4511.0,8487.0,12909.0,0.0
-4501.0,8257.0,12870.0,0.0
-4489.0,8028.0,12826.0,0.0
-4463.0,7777.0,12737.0,0.0
-4451.0,7557.0,12693.0,0.0
-4445.0,7349.0,12664.0,0.0
-4443.0,7152.0,12647.0,0.0
-4506.0,7057.0,12815.0,0.0
-5394.0,8217.0,15324.0,0.0
-5370.0,7955.0,15244.0,0.0
-5357.0,7711.0,15190.0,0.0
-5346.0,7472.0,15142.0,0.0
-5334.0,7237.0,15092.0,0.0
-5323.0,7007.0,15044.0,0.0
-5316.0,6785.0,15007.0,0.0
-5298.0,6553.0,14942.0,0.0
-4678.0,5602.0,13179.0,0.0
-4714.0,5461.0,13264.0,0.0
-4798.0,5374.0,13485.0,0.0
-5071.0,5487.0,14235.0,0.0
-5144.0,5372.0,14422.0,0.0
-5132.0,5166.0,14369.0,0.0
-5126.0,4970.0,14335.0,0.0
-5192.0,4844.0,14501.0,0.0
-5215.0,4676.0,14546.0,0.0
-5202.0,4476.0,14492.0,0.0
-5201.0,4289.0,14472.0,0.0
-5187.0,4092.0,14411.0,0.0
-5186.0,3908.0,14387.0,0.0
-5177.0,3721.0,14345.0,0.0
-5163.0,3531.0,14284.0,0.0
-5165.0,3354.0,14268.0,0.0
-5156.0,3172.0,14225.0,0.0
-5151.0,2992.0,14186.0,0.0
-5143.0,2814.0,14144.0,0.0
-5130.0,2635.0,14086.0,0.0
-5139.0,2468.0,14090.0,0.0
-5127.0,2292.0,14034.0,0.0
-5113.0,2117.0,13974.0,0.0
-5107.0,1947.0,13935.0,0.0
-5106.0,1780.0,13911.0,0.0
-3594.0,1136.0,9775.0,0.0
-3726.0,1057.0,10117.0,0.0
-3888.0,979.0,10540.0,0.0
-3983.0,876.0,10779.0,0.0
-3980.0,748.0,10751.0,0.0
-3976.0,621.0,10721.0,0.0
-3967.0,494.0,10676.0,0.0
-3978.0,372.0,10685.0,0.0
-3969.0,247.0,10641.0,0.0
-3971.0,123.0,10627.0,0.0
-3968.0,0.0,10600.0,0.0
-3964.0,-122.0,10568.0,0.0
-3965.0,-245.0,10548.0,0.0
-3960.0,-366.0,10517.0,0.0
-3959.0,-487.0,10491.0,0.0
-3956.0,-608.0,10464.0,0.0
-3947.0,-727.0,10416.0,0.0
-3951.0,-847.0,10403.0,0.0
-3941.0,-965.0,10358.0,0.0
-3907.0,-1075.0,10245.0,0.0
-3787.0,-1156.0,9908.0,0.0
-3803.0,-1276.0,9926.0,0.0
-3920.0,-1433.0,10211.0,0.0
-3941.0,-1559.0,10240.0,0.0
-3946.0,-1680.0,10230.0,0.0
-3946.0,-1798.0,10205.0,0.0
-3941.0,-1915.0,10170.0,0.0
-3939.0,-2031.0,10140.0,0.0
-3947.0,-2153.0,10136.0,0.0
-3946.0,-2270.0,10108.0,0.0
-3944.0,-2387.0,10076.0,0.0
-3947.0,-2507.0,10059.0,0.0
-3943.0,-2621.0,10024.0,0.0
-3939.0,-2737.0,9987.0,0.0
-3943.0,-2858.0,9971.0,0.0
-3944.0,-2976.0,9945.0,0.0
-3941.0,-3092.0,9911.0,0.0
-3941.0,-3209.0,9882.0,0.0
-3943.0,-3330.0,9861.0,0.0
-3943.0,-3447.0,9832.0,0.0
-3943.0,-3566.0,9804.0,0.0
-3945.0,-3686.0,9778.0,0.0
-3941.0,-3801.0,9739.0,0.0
-3944.0,-3924.0,9718.0,0.0
-3943.0,-4043.0,9685.0,0.0
-3944.0,-4162.0,9655.0,0.0
-3949.0,-4287.0,9636.0,0.0
-3945.0,-4404.0,9597.0,0.0
-3947.0,-4526.0,9569.0,0.0
-3943.0,-4642.0,9528.0,0.0
-3948.0,-4769.0,9507.0,0.0
-3954.0,-4899.0,9488.0,0.0
-3946.0,-5010.0,9437.0,0.0
-3954.0,-5143.0,9422.0,0.0
-3960.0,-5274.0,9401.0,0.0
-3962.0,-5402.0,9373.0,0.0
-3960.0,-5521.0,9330.0,0.0
-3964.0,-5652.0,9304.0,0.0
-3969.0,-5785.0,9281.0,0.0
-3973.0,-5916.0,9251.0,0.0
-3975.0,-6047.0,9220.0,0.0
-3981.0,-6183.0,9195.0,0.0
-3980.0,-6310.0,9155.0,0.0
-3987.0,-6450.0,9131.0,0.0
-3948.0,-6515.0,9003.0,0.0
-3934.0,-6621.0,8932.0,0.0
-3947.0,-6774.0,8922.0,0.0
-3977.0,-6957.0,8947.0,0.0
-4006.0,-7139.0,8969.0,0.0
-4008.0,-7280.0,8933.0,0.0
-4022.0,-7439.0,8918.0,0.0
-4023.0,-7578.0,8878.0,0.0
-4024.0,-7718.0,8835.0,0.0
-4029.0,-7867.0,8801.0,0.0
-4036.0,-8020.0,8769.0,0.0
-4039.0,-8169.0,8730.0,0.0
-4043.0,-8319.0,8690.0,0.0
-4058.0,-8492.0,8670.0,0.0
-4064.0,-8652.0,8634.0,0.0
-4066.0,-8803.0,8589.0,0.0
-4074.0,-8970.0,8555.0,0.0
-4074.0,-9121.0,8504.0,0.0
-4087.0,-9300.0,8476.0,0.0
-4097.0,-9476.0,8442.0,0.0
-4098.0,-9634.0,8389.0,0.0
-4113.0,-9825.0,8363.0,0.0
-4124.0,-10011.0,8328.0,0.0
-4129.0,-10184.0,8280.0,0.0
-4134.0,-10359.0,8230.0,0.0
-4145.0,-10551.0,8190.0,0.0
-37.0,-97.0,73.0,0.0
-42.0,-110.0,82.0,0.0
-39.0,-106.0,76.0,0.0
-44.0,-120.0,85.0,0.0
-46.0,-127.0,87.0,0.0
-47.0,-134.0,90.0,0.0
-43.0,-123.0,80.0,0.0
-3990.0,-11493.0,7378.0,0.0
-4009.0,-11725.0,7344.0,0.0
-48.0,-147.0,90.0,0.0
-49.0,-149.0,89.0,0.0
-52.0,-162.0,94.0,0.0
-49.0,-153.0,86.0,0.0
-54.0,-175.0,96.0,0.0
-51.0,-164.0,88.0,0.0
-52.0,-172.0,90.0,0.0
-56.0,-188.0,96.0,0.0
-55.0,-184.0,91.0,0.0
-55.0,-191.0,92.0,0.0
-60.0,-210.0,98.0,0.0
-59.0,-210.0,95.0,0.0
-61.0,-218.0,97.0,0.0
-58.0,-215.0,92.0,0.0
-62.0,-228.0,95.0,0.0
-63.0,-239.0,96.0,0.0
-63.0,-241.0,94.0,0.0
-72.0,-278.0,105.0,0.0
-83.0,-328.0,120.0,0.0
-82.0,-327.0,116.0,0.0
-82.0,-331.0,113.0,0.0
-79.0,-327.0,108.0,0.0
-77.0,-323.0,102.0,0.0
-77.0,-328.0,100.0,0.0
-77.0,-331.0,97.0,0.0
-76.0,-334.0,94.0,0.0
-74.0,-328.0,89.0,0.0
-73.0,-331.0,85.0,0.0
-4525.0,15313.0,13695.0,0.0
-4613.0,15266.0,13951.0,0.0
-4696.0,15204.0,14197.0,0.0
-4788.0,15162.0,14465.0,0.0
-4877.0,15105.0,14726.0,0.0
-4967.0,15048.0,14989.0,0.0
-5011.0,14845.0,15112.0,0.0
-5320.0,15414.0,16034.0,0.0
-5174.0,14658.0,15583.0,0.0
-5261.0,14574.0,15833.0,0.0
-5179.0,14024.0,15573.0,0.0
-5237.0,13867.0,15741.0,0.0
-6266.0,16213.0,18813.0,0.0
-6250.0,15807.0,18753.0,0.0
-6213.0,15355.0,18627.0,0.0
-5884.0,14209.0,17625.0,0.0
-6116.0,14428.0,18305.0,0.0
-5934.0,13673.0,17746.0,0.0
-6108.0,13746.0,18251.0,0.0
-6137.0,13484.0,18320.0,0.0
-6158.0,13207.0,18364.0,0.0
-4366.0,9139.0,13009.0,0.0
-4358.0,8902.0,12975.0,0.0
-4346.0,8660.0,12924.0,0.0
-4336.0,8426.0,12883.0,0.0
-4323.0,8191.0,12833.0,0.0
-4320.0,7977.0,12808.0,0.0
-4296.0,7731.0,12727.0,0.0
-4284.0,7508.0,12678.0,0.0
-4278.0,7299.0,12645.0,0.0
-4284.0,7116.0,12651.0,0.0
-4349.0,7028.0,12828.0,0.0
-5185.0,8148.0,15277.0,0.0
-5178.0,7911.0,15241.0,0.0
-5165.0,7665.0,15181.0,0.0
-5159.0,7436.0,15149.0,0.0
-5142.0,7194.0,15081.0,0.0
-5131.0,6963.0,15030.0,0.0
-5132.0,6751.0,15015.0,0.0
-5117.0,6522.0,14953.0,0.0
-5107.0,6301.0,14905.0,0.0
-4627.0,5523.0,13487.0,0.0
-4707.0,5431.0,13703.0,0.0
-4775.0,5320.0,13882.0,0.0
-4881.0,5249.0,14174.0,0.0
-4953.0,5135.0,14362.0,0.0
-4950.0,4941.0,14333.0,0.0
-4998.0,4799.0,14453.0,0.0
-5031.0,4641.0,14530.0,0.0
-5022.0,4445.0,14482.0,0.0
-5020.0,4259.0,14457.0,0.0
-5016.0,4071.0,14425.0,0.0
-5005.0,3879.0,14372.0,0.0
-4993.0,3689.0,14316.0,0.0
-4998.0,3513.0,14309.0,0.0
-4987.0,3329.0,14257.0,0.0
-4975.0,3144.0,14200.0,0.0
-4974.0,2969.0,14176.0,0.0
-4964.0,2789.0,14124.0,0.0
-4967.0,2619.0,14110.0,0.0
-4954.0,2441.0,14051.0,0.0
-4952.0,2271.0,14021.0,0.0
-4948.0,2101.0,13987.0,0.0
-4953.0,1935.0,13977.0,0.0
-4939.0,1764.0,13913.0,0.0
-3477.0,1125.0,9779.0,0.0
-3621.0,1052.0,10168.0,0.0
-3756.0,967.0,10528.0,0.0
-3850.0,864.0,10772.0,0.0
-3849.0,737.0,10748.0,0.0
-3842.0,610.0,10710.0,0.0
-3834.0,485.0,10670.0,0.0
-3847.0,361.0,10686.0,0.0
-3845.0,237.0,10658.0,0.0
-3837.0,114.0,10616.0,0.0
-3839.0,-8.0,10601.0,0.0
-3832.0,-130.0,10561.0,0.0
-3833.0,-252.0,10541.0,0.0
-3831.0,-372.0,10516.0,0.0
-3829.0,-494.0,10490.0,0.0
-3823.0,-613.0,10452.0,0.0
-3826.0,-734.0,10438.0,0.0
-3805.0,-849.0,10358.0,0.0
-3601.0,-916.0,9782.0,0.0
-3588.0,-1024.0,9724.0,0.0
-3696.0,-1170.0,9997.0,0.0
-3757.0,-1306.0,10141.0,0.0
-3742.0,-1416.0,10074.0,0.0
-3803.0,-1558.0,10217.0,0.0
-3818.0,-1683.0,10233.0,0.0
-3818.0,-1801.0,10210.0,0.0
-3811.0,-1914.0,10166.0,0.0
-3809.0,-2031.0,10138.0,0.0
-3809.0,-2148.0,10112.0,0.0
-3808.0,-2264.0,10082.0,0.0
-3809.0,-2382.0,10059.0,0.0
-3808.0,-2499.0,10033.0,0.0
-3799.0,-2610.0,9985.0,0.0
-3804.0,-2731.0,9972.0,0.0
-3807.0,-2849.0,9950.0,0.0
-3800.0,-2962.0,9907.0,0.0
-3795.0,-3075.0,9869.0,0.0
-3805.0,-3200.0,9867.0,0.0
-3805.0,-3318.0,9838.0,0.0
-3802.0,-3432.0,9802.0,0.0
-3801.0,-3549.0,9771.0,0.0
-3806.0,-3672.0,9754.0,0.0
-3808.0,-3792.0,9732.0,0.0
-3807.0,-3910.0,9700.0,0.0
-3811.0,-4033.0,9680.0,0.0
-3808.0,-4148.0,9643.0,0.0
-3811.0,-4271.0,9619.0,0.0
-3806.0,-4385.0,9577.0,0.0
-3808.0,-4507.0,9550.0,0.0
-3810.0,-4629.0,9523.0,0.0
-3813.0,-4755.0,9500.0,0.0
-3812.0,-4875.0,9466.0,0.0
-3816.0,-5002.0,9443.0,0.0
-3816.0,-5123.0,9407.0,0.0
-3826.0,-5261.0,9401.0,0.0
-3819.0,-5373.0,9347.0,0.0
-3824.0,-5505.0,9327.0,0.0
-3829.0,-5635.0,9301.0,0.0
-3831.0,-5764.0,9272.0,0.0
-3835.0,-5897.0,9246.0,0.0
-3832.0,-6017.0,9202.0,0.0
-3836.0,-6150.0,9173.0,0.0
-3837.0,-6280.0,9137.0,0.0
-3848.0,-6428.0,9127.0,0.0
-3847.0,-6556.0,9086.0,0.0
-3846.0,-6684.0,9045.0,0.0
-3849.0,-6822.0,9012.0,0.0
-3856.0,-6965.0,8986.0,0.0
-3863.0,-7112.0,8963.0,0.0
-3864.0,-7248.0,8924.0,0.0
-3870.0,-7396.0,8896.0,0.0
-3873.0,-7537.0,8859.0,0.0
-3878.0,-7685.0,8826.0,0.0
-3884.0,-7834.0,8794.0,0.0
-3890.0,-7986.0,8762.0,0.0
-3893.0,-8133.0,8722.0,0.0
-3891.0,-8274.0,8674.0,0.0
-3901.0,-8438.0,8646.0,0.0
-3912.0,-8607.0,8623.0,0.0
-3913.0,-8756.0,8574.0,0.0
-3917.0,-8914.0,8534.0,0.0
-3924.0,-9082.0,8501.0,0.0
-3933.0,-9255.0,8468.0,0.0
-3938.0,-9419.0,8425.0,0.0
-3942.0,-9584.0,8381.0,0.0
-3949.0,-9759.0,8341.0,0.0
-3961.0,-9946.0,8309.0,0.0
-3969.0,-10125.0,8268.0,0.0
-3980.0,-10319.0,8235.0,0.0
-3984.0,-10494.0,8183.0,0.0
-3992.0,-10683.0,8140.0,0.0
-40.0,-112.0,83.0,0.0
-41.0,-115.0,84.0,0.0
-47.0,-133.0,94.0,0.0
-44.0,-130.0,89.0,0.0
-43.0,-127.0,86.0,0.0
-48.0,-144.0,95.0,0.0
-3887.0,-11599.0,7484.0,0.0
-46.0,-142.0,90.0,0.0
-51.0,-160.0,98.0,0.0
-55.0,-172.0,103.0,0.0
-50.0,-162.0,94.0,0.0
-55.0,-179.0,102.0,0.0
-57.0,-187.0,103.0,0.0
-55.0,-186.0,101.0,0.0
-54.0,-186.0,98.0,0.0
-57.0,-200.0,102.0,0.0
-57.0,-200.0,100.0,0.0
-55.0,-197.0,96.0,0.0
-58.0,-214.0,100.0,0.0
-58.0,-216.0,99.0,0.0
-57.0,-215.0,96.0,0.0
-59.0,-223.0,96.0,0.0
-61.0,-233.0,97.0,0.0
-60.0,-235.0,95.0,0.0
-61.0,-244.0,96.0,0.0
-67.0,-272.0,104.0,0.0
-78.0,-318.0,118.0,0.0
-78.0,-323.0,115.0,0.0
-77.0,-326.0,112.0,0.0
-75.0,-323.0,107.0,0.0
-73.0,-317.0,101.0,0.0
-72.0,-320.0,99.0,0.0
-72.0,-325.0,96.0,0.0
-72.0,-329.0,93.0,0.0
-69.0,-321.0,88.0,0.0
-69.0,-326.0,85.0,0.0
-4346.0,15301.0,13755.0,0.0
-4422.0,15225.0,13984.0,0.0
-4510.0,15186.0,14252.0,0.0
-4598.0,15136.0,14514.0,0.0
-4685.0,15081.0,14776.0,0.0
-4772.0,15020.0,15038.0,0.0
-4837.0,14882.0,15225.0,0.0
-4948.0,14883.0,15560.0,0.0
-4838.0,14228.0,15201.0,0.0
-5072.0,14580.0,15920.0,0.0
-5119.0,14383.0,16052.0,0.0
-5073.0,13933.0,15894.0,0.0
-5869.0,15748.0,18364.0,0.0
-5958.0,15623.0,18627.0,0.0
-5941.0,15220.0,18554.0,0.0
-5906.0,14781.0,18426.0,0.0
-5884.0,14381.0,18336.0,0.0
-5823.0,13899.0,18127.0,0.0
-5949.0,13863.0,18499.0,0.0
-5953.0,13542.0,18491.0,0.0
-5987.0,13293.0,18576.0,0.0
-4180.0,9059.0,12959.0,0.0
-4172.0,8819.0,12917.0,0.0
-4169.0,8594.0,12891.0,0.0
-4160.0,8363.0,12850.0,0.0
-4155.0,8142.0,12820.0,0.0
-4137.0,7900.0,12750.0,0.0
-4122.0,7667.0,12685.0,0.0
-4113.0,7452.0,12645.0,0.0
-4110.0,7248.0,12618.0,0.0
-4129.0,7086.0,12662.0,0.0
-4986.0,8324.0,15271.0,0.0
-4987.0,8095.0,15254.0,0.0
-4978.0,7852.0,15206.0,0.0
-4961.0,7603.0,15137.0,0.0
-4961.0,7382.0,15116.0,0.0
-4946.0,7143.0,15054.0,0.0
-4934.0,6909.0,14995.0,0.0
-4936.0,6701.0,14982.0,0.0
-4918.0,6467.0,14908.0,0.0
-4915.0,6256.0,14879.0,0.0
-4811.0,5923.0,14543.0,0.0
-4793.0,5703.0,14469.0,0.0
-4683.0,5380.0,14116.0,0.0
-4736.0,5250.0,14256.0,0.0
-4775.0,5102.0,14351.0,0.0
-4771.0,4908.0,14319.0,0.0
-4827.0,4777.0,14468.0,0.0
-4849.0,4608.0,14510.0,0.0
-4840.0,4413.0,14463.0,0.0
-4837.0,4226.0,14432.0,0.0
-4834.0,4039.0,14400.0,0.0
-4831.0,3854.0,14369.0,0.0
-4808.0,3655.0,14277.0,0.0
-4806.0,3476.0,14251.0,0.0
-4802.0,3297.0,14218.0,0.0
-4803.0,3123.0,14198.0,0.0
-4806.0,2950.0,14184.0,0.0
-4791.0,2767.0,14115.0,0.0
-4785.0,2593.0,14075.0,0.0
-4783.0,2422.0,14045.0,0.0
-4785.0,2253.0,14027.0,0.0
-4769.0,2078.0,13958.0,0.0
-4775.0,1914.0,13948.0,0.0
-4760.0,1743.0,13881.0,0.0
-3352.0,1112.0,9758.0,0.0
-3485.0,1036.0,10129.0,0.0
-3635.0,957.0,10544.0,0.0
-3714.0,852.0,10755.0,0.0
-3713.0,725.0,10733.0,0.0
-3714.0,601.0,10715.0,0.0
-3710.0,476.0,10684.0,0.0
-3698.0,351.0,10628.0,0.0
-3712.0,228.0,10646.0,0.0
-3693.0,106.0,10574.0,0.0
-3702.0,-16.0,10576.0,0.0
-3699.0,-137.0,10550.0,0.0
-3696.0,-258.0,10520.0,0.0
-3694.0,-378.0,10489.0,0.0
-3693.0,-499.0,10468.0,0.0
-3696.0,-619.0,10453.0,0.0
-3691.0,-737.0,10419.0,0.0
-3686.0,-855.0,10379.0,0.0
-3444.0,-910.0,9678.0,0.0
-3446.0,-1022.0,9663.0,0.0
-3562.0,-1170.0,9966.0,0.0
-3688.0,-1330.0,10295.0,0.0
-3685.0,-1446.0,10265.0,0.0
-3683.0,-1564.0,10237.0,0.0
-3684.0,-1681.0,10216.0,0.0
-3687.0,-1799.0,10198.0,0.0
-3676.0,-1912.0,10145.0,0.0
-3685.0,-2034.0,10147.0,0.0
-3685.0,-2150.0,10121.0,0.0
-3680.0,-2264.0,10081.0,0.0
-3682.0,-2383.0,10062.0,0.0
-3678.0,-2497.0,10027.0,0.0
-3680.0,-2614.0,10005.0,0.0
-3675.0,-2727.0,9968.0,0.0
-3677.0,-2845.0,9945.0,0.0
-3678.0,-2963.0,9922.0,0.0
-3676.0,-3077.0,9889.0,0.0
-3683.0,-3201.0,9881.0,0.0
-3681.0,-3316.0,9847.0,0.0
-3678.0,-3431.0,9812.0,0.0
-3678.0,-3550.0,9786.0,0.0
-3678.0,-3667.0,9757.0,0.0
-3682.0,-3788.0,9739.0,0.0
-3678.0,-3903.0,9700.0,0.0
-3678.0,-4020.0,9669.0,0.0
-3678.0,-4140.0,9642.0,0.0
-3678.0,-4260.0,9612.0,0.0
-3687.0,-4390.0,9605.0,0.0
-3684.0,-4506.0,9566.0,0.0
-3680.0,-4620.0,9524.0,0.0
-3678.0,-4739.0,9489.0,0.0
-3683.0,-4867.0,9471.0,0.0
-3689.0,-4995.0,9452.0,0.0
-3685.0,-5112.0,9409.0,0.0
-3692.0,-5244.0,9394.0,0.0
-3688.0,-5363.0,9352.0,0.0
-3695.0,-5494.0,9333.0,0.0
-3694.0,-5618.0,9297.0,0.0
-3695.0,-5746.0,9267.0,0.0
-3701.0,-5881.0,9247.0,0.0
-3705.0,-6013.0,9220.0,0.0
-3705.0,-6142.0,9185.0,0.0
-3707.0,-6271.0,9151.0,0.0
-3714.0,-6411.0,9129.0,0.0
-3718.0,-6549.0,9103.0,0.0
-3717.0,-6679.0,9064.0,0.0
-3721.0,-6818.0,9035.0,0.0
-3723.0,-6953.0,8998.0,0.0
-3728.0,-7097.0,8972.0,0.0
-3730.0,-7234.0,8934.0,0.0
-3738.0,-7385.0,8912.0,0.0
-3738.0,-7522.0,8869.0,0.0
-3743.0,-7670.0,8840.0,0.0
-3743.0,-7810.0,8797.0,0.0
-3744.0,-7952.0,8754.0,0.0
-3750.0,-8105.0,8722.0,0.0
-3755.0,-8261.0,8691.0,0.0
-3764.0,-8424.0,8664.0,0.0
-3762.0,-8565.0,8611.0,0.0
-3772.0,-8735.0,8587.0,0.0
-3781.0,-8904.0,8558.0,0.0
-3784.0,-9062.0,8515.0,0.0
-3786.0,-9221.0,8471.0,0.0
-3793.0,-9392.0,8434.0,0.0
-3810.0,-9589.0,8419.0,0.0
-3806.0,-9737.0,8357.0,0.0
-3815.0,-9921.0,8323.0,0.0
-3824.0,-10104.0,8286.0,0.0
-33.0,-88.0,71.0,0.0
-3838.0,-10473.0,8203.0,0.0
-31.0,-88.0,68.0,0.0
-3850.0,-10846.0,8111.0,0.0
-37.0,-108.0,79.0,0.0
-40.0,-118.0,85.0,0.0
-41.0,-121.0,85.0,0.0
-39.0,-119.0,81.0,0.0
-3799.0,-11575.0,7690.0,0.0
-40.0,-126.0,82.0,0.0
-47.0,-151.0,96.0,0.0
-46.0,-147.0,91.0,0.0
-45.0,-148.0,89.0,0.0
-47.0,-157.0,92.0,0.0
-48.0,-165.0,95.0,0.0
-45.0,-156.0,88.0,0.0
-48.0,-167.0,91.0,0.0
-49.0,-175.0,92.0,0.0
-47.0,-173.0,89.0,0.0
-55.0,-201.0,100.0,0.0
-52.0,-197.0,96.0,0.0
-49.0,-187.0,89.0,0.0
-54.0,-209.0,95.0,0.0
-55.0,-216.0,96.0,0.0
-55.0,-216.0,94.0,0.0
-55.0,-224.0,94.0,0.0
-55.0,-227.0,92.0,0.0
-57.0,-236.0,94.0,0.0
-59.0,-250.0,96.0,0.0
-71.0,-304.0,113.0,0.0
-74.0,-322.0,115.0,0.0
-73.0,-325.0,113.0,0.0
-72.0,-321.0,108.0,0.0
-71.0,-326.0,105.0,0.0
-69.0,-320.0,100.0,0.0
-68.0,-325.0,97.0,0.0
-67.0,-326.0,93.0,0.0
-66.0,-320.0,88.0,0.0
-65.0,-324.0,86.0,0.0
-4165.0,15287.0,13811.0,0.0
-4245.0,15230.0,14058.0,0.0
-4329.0,15181.0,14318.0,0.0
-4411.0,15120.0,14570.0,0.0
-4498.0,15072.0,14840.0,0.0
-4584.0,15015.0,15107.0,0.0
-4669.0,14947.0,15366.0,0.0
-4760.0,14894.0,15646.0,0.0
-4824.0,14752.0,15837.0,0.0
-4912.0,14679.0,16105.0,0.0
-4867.0,14211.0,15936.0,0.0
-4909.0,14004.0,16053.0,0.0
-5100.0,14214.0,16656.0,0.0
-5313.0,14464.0,17328.0,0.0
-5798.0,15419.0,18887.0,0.0
-5933.0,15409.0,19303.0,0.0
-9575.0,24281.0,31108.0,0.0
-5728.0,14184.0,18588.0,0.0
-5770.0,13946.0,18699.0,0.0
-5774.0,13620.0,18685.0,0.0
-5763.0,13266.0,18628.0,0.0
-4011.0,9006.0,12945.0,0.0
-4007.0,8776.0,12917.0,0.0
-3999.0,8542.0,12875.0,0.0
-3991.0,8309.0,12830.0,0.0
-3986.0,8088.0,12797.0,0.0
-3975.0,7858.0,12743.0,0.0
-3956.0,7618.0,12666.0,0.0
-3952.0,7410.0,12636.0,0.0
-3946.0,7202.0,12601.0,0.0
-3987.0,7081.0,12715.0,0.0
-4797.0,8284.0,15272.0,0.0
-4801.0,8061.0,15265.0,0.0
-4789.0,7813.0,15206.0,0.0
-4777.0,7568.0,15143.0,0.0
-4764.0,7329.0,15084.0,0.0
-4759.0,7103.0,15045.0,0.0
-4744.0,6866.0,14975.0,0.0
-4742.0,6651.0,14947.0,0.0
-4735.0,6432.0,14904.0,0.0
-4721.0,6206.0,14836.0,0.0
-4634.0,5891.0,14540.0,0.0
-4620.0,5675.0,14474.0,0.0
-4614.0,5473.0,14434.0,0.0
-4609.0,5274.0,14398.0,0.0
-4598.0,5070.0,14342.0,0.0
-4594.0,4877.0,14307.0,0.0
-4670.0,4768.0,14522.0,0.0
-4677.0,4585.0,14519.0,0.0
-4666.0,4388.0,14463.0,0.0
-4657.0,4195.0,14414.0,0.0
-4661.0,4015.0,14400.0,0.0
-4654.0,3827.0,14356.0,0.0
-4643.0,3638.0,14298.0,0.0
-4641.0,3458.0,14268.0,0.0
-4639.0,3281.0,14240.0,0.0
-4631.0,3100.0,14191.0,0.0
-4627.0,2923.0,14154.0,0.0
-4621.0,2747.0,14112.0,0.0
-4613.0,2572.0,14064.0,0.0
-4612.0,2401.0,14036.0,0.0
-4611.0,2233.0,14009.0,0.0
-4601.0,2061.0,13952.0,0.0
-3063.0,1261.0,9272.0,0.0
-3094.0,1163.0,9351.0,0.0
-4594.0,1563.0,13857.0,0.0
-4591.0,1400.0,13822.0,0.0
-3547.0,956.0,10662.0,0.0
-3596.0,844.0,10788.0,0.0
-3588.0,716.0,10741.0,0.0
-3588.0,591.0,10722.0,0.0
-3032.0,394.0,9042.0,0.0
-3066.0,293.0,9131.0,0.0
-3353.0,206.0,9961.0,0.0
-3550.0,97.0,10528.0,0.0
-3566.0,-23.0,10554.0,0.0
-3569.0,-144.0,10543.0,0.0
-3572.0,-265.0,10528.0,0.0
-3568.0,-385.0,10496.0,0.0
-3568.0,-505.0,10472.0,0.0
-3564.0,-624.0,10441.0,0.0
-3565.0,-743.0,10419.0,0.0
-3498.0,-846.0,10201.0,0.0
-3376.0,-928.0,9826.0,0.0
-3386.0,-1043.0,9832.0,0.0
-3420.0,-1167.0,9909.0,0.0
-3556.0,-1330.0,10283.0,0.0
-3552.0,-1446.0,10247.0,0.0
-3560.0,-1567.0,10246.0,0.0
-3556.0,-1683.0,10211.0,0.0
-3552.0,-1797.0,10174.0,0.0
-3553.0,-1914.0,10155.0,0.0
-3554.0,-2031.0,10132.0,0.0
-3553.0,-2147.0,10106.0,0.0
-3546.0,-2260.0,10062.0,0.0
-3548.0,-2377.0,10041.0,0.0
-3548.0,-2493.0,10017.0,0.0
-3543.0,-2605.0,9978.0,0.0
-3543.0,-2721.0,9953.0,0.0
-3546.0,-2839.0,9933.0,0.0
-3546.0,-2956.0,9908.0,0.0
-3546.0,-3072.0,9881.0,0.0
-3547.0,-3189.0,9856.0,0.0
-3540.0,-3299.0,9809.0,0.0
-3549.0,-3426.0,9811.0,0.0
-3549.0,-3543.0,9782.0,0.0
-3548.0,-3659.0,9751.0,0.0
-3547.0,-3775.0,9719.0,0.0
-3547.0,-3893.0,9691.0,0.0
-3547.0,-4012.0,9664.0,0.0
-3546.0,-4128.0,9630.0,0.0
-3545.0,-4246.0,9600.0,0.0
-3549.0,-4369.0,9579.0,0.0
-3548.0,-4487.0,9547.0,0.0
-3547.0,-4606.0,9516.0,0.0
-3546.0,-4726.0,9484.0,0.0
-3544.0,-4844.0,9446.0,0.0
-3552.0,-4974.0,9433.0,0.0
-3554.0,-5099.0,9407.0,0.0
-3555.0,-5224.0,9379.0,0.0
-3557.0,-5349.0,9352.0,0.0
-3558.0,-5474.0,9321.0,0.0
-3559.0,-5599.0,9290.0,0.0
-3557.0,-5720.0,9250.0,0.0
-3561.0,-5854.0,9228.0,0.0
-3567.0,-5989.0,9208.0,0.0
-3570.0,-6122.0,9180.0,0.0
-3570.0,-6248.0,9142.0,0.0
-3572.0,-6381.0,9112.0,0.0
-3578.0,-6522.0,9091.0,0.0
-3579.0,-6654.0,9057.0,0.0
-3577.0,-6780.0,9011.0,0.0
-3585.0,-6929.0,8995.0,0.0
-3587.0,-7065.0,8959.0,0.0
-3588.0,-7203.0,8923.0,0.0
-3592.0,-7347.0,8893.0,0.0
-3595.0,-7488.0,8859.0,0.0
-3602.0,-7641.0,8834.0,0.0
-3604.0,-7785.0,8798.0,0.0
-3604.0,-7927.0,8756.0,0.0
-3610.0,-8080.0,8726.0,0.0
-3615.0,-8235.0,8694.0,0.0
-3615.0,-8378.0,8647.0,0.0
-3623.0,-8544.0,8621.0,0.0
-3629.0,-8706.0,8589.0,0.0
-3628.0,-8852.0,8539.0,0.0
-3634.0,-9020.0,8507.0,0.0
-3644.0,-9197.0,8481.0,0.0
-3646.0,-9358.0,8436.0,0.0
-3653.0,-9531.0,8400.0,0.0
-3658.0,-9702.0,8360.0,0.0
-3664.0,-9879.0,8321.0,0.0
-3669.0,-10055.0,8279.0,0.0
-3671.0,-10225.0,8229.0,0.0
-3681.0,-10420.0,8196.0,0.0
-31.0,-92.0,70.0,0.0
-36.0,-107.0,80.0,0.0
-37.0,-112.0,83.0,0.0
-42.0,-128.0,91.0,0.0
-42.0,-130.0,92.0,0.0
-38.0,-122.0,83.0,0.0
-3676.0,-11633.0,7766.0,0.0
-39.0,-128.0,84.0,0.0
-41.0,-139.0,89.0,0.0
-44.0,-150.0,93.0,0.0
-45.0,-154.0,93.0,0.0
-48.0,-166.0,98.0,0.0
-49.0,-171.0,99.0,0.0
-49.0,-176.0,98.0,0.0
-48.0,-173.0,95.0,0.0
-48.0,-180.0,96.0,0.0
-48.0,-182.0,94.0,0.0
-48.0,-185.0,94.0,0.0
-52.0,-200.0,98.0,0.0
-52.0,-206.0,98.0,0.0
-55.0,-219.0,102.0,0.0
-54.0,-220.0,99.0,0.0
-52.0,-216.0,94.0,0.0
-53.0,-224.0,95.0,0.0
-56.0,-241.0,99.0,0.0
-55.0,-240.0,96.0,0.0
-58.0,-254.0,98.0,0.0
-66.0,-293.0,109.0,0.0
-70.0,-316.0,114.0,0.0
-70.0,-320.0,112.0,0.0
-67.0,-317.0,106.0,0.0
-65.0,-310.0,101.0,0.0
-65.0,-317.0,99.0,0.0
-65.0,-320.0,96.0,0.0
-65.0,-324.0,94.0,0.0
-62.0,-319.0,89.0,0.0
-63.0,-324.0,86.0,0.0
-3980.0,15260.0,13853.0,0.0
-4060.0,15209.0,14106.0,0.0
-4142.0,15162.0,14369.0,0.0
-4223.0,15107.0,14627.0,0.0
-4308.0,15055.0,14893.0,0.0
-4390.0,14992.0,15155.0,0.0
-4477.0,14938.0,15430.0,0.0
-4556.0,14852.0,15677.0,0.0
-4651.0,14811.0,15976.0,0.0
-4723.0,14696.0,16200.0,0.0
-4725.0,14363.0,16183.0,0.0
-4736.0,14061.0,16194.0,0.0
-4768.0,13828.0,16279.0,0.0
-5114.0,14481.0,17429.0,0.0
-5216.0,14423.0,17750.0,0.0
-5316.0,14351.0,18060.0,0.0
-5356.0,14116.0,18169.0,0.0
-5497.0,14139.0,18617.0,0.0
-5312.0,13336.0,17963.0,0.0
-5530.0,13547.0,18673.0,0.0
-3840.0,9178.0,12946.0,0.0
-3843.0,8957.0,12935.0,0.0
-3838.0,8724.0,12899.0,0.0
-3832.0,8491.0,12859.0,0.0
-3829.0,8269.0,12829.0,0.0
-3810.0,8019.0,12746.0,0.0
-3800.0,7788.0,12690.0,0.0
-3794.0,7575.0,12654.0,0.0
-3785.0,7355.0,12602.0,0.0
-3787.0,7162.0,12590.0,0.0
-3845.0,7074.0,12764.0,0.0
-4609.0,8245.0,15274.0,0.0
-4600.0,7997.0,15219.0,0.0
-4592.0,7758.0,15170.0,0.0
-4584.0,7519.0,15118.0,0.0
-4584.0,7299.0,15095.0,0.0
-4570.0,7061.0,15028.0,0.0
-4566.0,6838.0,14988.0,0.0
-4555.0,6609.0,14929.0,0.0
-4546.0,6386.0,14871.0,0.0
-4538.0,6169.0,14825.0,0.0
-4508.0,5926.0,14701.0,0.0
-4441.0,5641.0,14463.0,0.0
-4439.0,5442.0,14429.0,0.0
-4428.0,5235.0,14370.0,0.0
-4426.0,5043.0,14342.0,0.0
-4481.0,4914.0,14495.0,0.0
-4504.0,4748.0,14544.0,0.0
-4496.0,4553.0,14495.0,0.0
-4485.0,4354.0,14435.0,0.0
-4489.0,4174.0,14423.0,0.0
-4481.0,3985.0,14376.0,0.0
-4477.0,3800.0,14337.0,0.0
-4466.0,3611.0,14277.0,0.0
-4456.0,3425.0,14220.0,0.0
-4462.0,3254.0,14211.0,0.0
-4462.0,3079.0,14188.0,0.0
-4452.0,2899.0,14134.0,0.0
-4448.0,2725.0,14093.0,0.0
-4447.0,2554.0,14067.0,0.0
-4439.0,2381.0,14016.0,0.0
-4442.0,2214.0,14000.0,0.0
-4433.0,2043.0,13946.0,0.0
-4424.0,1874.0,13891.0,0.0
-3014.0,1164.0,9446.0,0.0
-4419.0,1545.0,13825.0,0.0
-4423.0,1385.0,13811.0,0.0
-3445.0,952.0,10736.0,0.0
-3459.0,831.0,10761.0,0.0
-3458.0,706.0,10734.0,0.0
-3452.0,581.0,10700.0,0.0
-3447.0,456.0,10658.0,0.0
-3010.0,291.0,9293.0,0.0
-3123.0,192.0,9621.0,0.0
-3250.0,85.0,9991.0,0.0
-3418.0,-30.0,10488.0,0.0
-3400.0,-150.0,10410.0,0.0
-3384.0,-267.0,10341.0,0.0
-3301.0,-375.0,10066.0,0.0
-3196.0,-474.0,9726.0,0.0
-3167.0,-580.0,9616.0,0.0
-3144.0,-684.0,9527.0,0.0
-3124.0,-787.0,9446.0,0.0
-3101.0,-887.0,9358.0,0.0
-3081.0,-987.0,9275.0,0.0
-3070.0,-1089.0,9221.0,0.0
-3064.0,-1192.0,9182.0,0.0
-3064.0,-1296.0,9161.0,0.0
-3237.0,-1480.0,9659.0,0.0
-3427.0,-1682.0,10201.0,0.0
-3429.0,-1800.0,10183.0,0.0
-3424.0,-1914.0,10147.0,0.0
-3429.0,-2032.0,10135.0,0.0
-3427.0,-2147.0,10104.0,0.0
-3423.0,-2261.0,10067.0,0.0
-3423.0,-2377.0,10044.0,0.0
-3425.0,-2495.0,10026.0,0.0
-3423.0,-2607.0,9992.0,0.0
-3422.0,-2723.0,9967.0,0.0
-3421.0,-2837.0,9936.0,0.0
-3423.0,-2956.0,9916.0,0.0
-3423.0,-3070.0,9888.0,0.0
-3417.0,-3182.0,9845.0,0.0
-3426.0,-3307.0,9846.0,0.0
-3417.0,-3416.0,9795.0,0.0
-3421.0,-3535.0,9777.0,0.0
-3423.0,-3655.0,9755.0,0.0
-3422.0,-3771.0,9725.0,0.0
-3422.0,-3889.0,9697.0,0.0
-3421.0,-4006.0,9666.0,0.0
-3421.0,-4125.0,9640.0,0.0
-3420.0,-4241.0,9605.0,0.0
-3421.0,-4361.0,9580.0,0.0
-3426.0,-4486.0,9564.0,0.0
-3425.0,-4605.0,9533.0,0.0
-3425.0,-4726.0,9503.0,0.0
-3424.0,-4844.0,9467.0,0.0
-3425.0,-4966.0,9439.0,0.0
-3422.0,-5085.0,9402.0,0.0
-3429.0,-5217.0,9389.0,0.0
-3429.0,-5341.0,9358.0,0.0
-3429.0,-5462.0,9324.0,0.0
-3436.0,-5599.0,9312.0,0.0
-3431.0,-5715.0,9263.0,0.0
-3437.0,-5852.0,9249.0,0.0
-3437.0,-5975.0,9211.0,0.0
-3446.0,-6119.0,9201.0,0.0
-3441.0,-6239.0,9154.0,0.0
-3441.0,-6369.0,9120.0,0.0
-3447.0,-6508.0,9097.0,0.0
-3448.0,-6641.0,9064.0,0.0
-3452.0,-6780.0,9038.0,0.0
-3455.0,-6919.0,9009.0,0.0
-3449.0,-7041.0,8955.0,0.0
-3456.0,-7188.0,8933.0,0.0
-3460.0,-7332.0,8903.0,0.0
-3460.0,-7470.0,8865.0,0.0
-3469.0,-7628.0,8846.0,0.0
-3468.0,-7765.0,8804.0,0.0
-3474.0,-7921.0,8779.0,0.0
-3477.0,-8070.0,8744.0,0.0
-3481.0,-8222.0,8710.0,0.0
-3483.0,-8371.0,8670.0,0.0
-3485.0,-8525.0,8632.0,0.0
-3488.0,-8680.0,8594.0,0.0
-3491.0,-8839.0,8556.0,0.0
-3500.0,-9013.0,8531.0,0.0
-3503.0,-9174.0,8491.0,0.0
-3504.0,-9330.0,8444.0,0.0
-3510.0,-9505.0,8410.0,0.0
-3518.0,-9684.0,8377.0,0.0
-3518.0,-9848.0,8328.0,0.0
-3527.0,-10035.0,8296.0,0.0
-3529.0,-10209.0,8249.0,0.0
-3537.0,-10399.0,8213.0,0.0
-34.0,-104.0,80.0,0.0
-31.0,-96.0,72.0,0.0
-39.0,-124.0,91.0,0.0
-37.0,-119.0,86.0,0.0
-37.0,-120.0,85.0,0.0
-35.0,-114.0,78.0,0.0
-41.0,-139.0,93.0,0.0
-42.0,-143.0,93.0,0.0
-41.0,-141.0,90.0,0.0
-44.0,-155.0,97.0,0.0
-42.0,-150.0,91.0,0.0
-43.0,-155.0,92.0,0.0
-46.0,-167.0,96.0,0.0
-41.0,-156.0,88.0,0.0
-49.0,-184.0,101.0,0.0
-45.0,-173.0,92.0,0.0
-46.0,-179.0,93.0,0.0
-46.0,-183.0,93.0,0.0
-47.0,-191.0,94.0,0.0
-47.0,-191.0,92.0,0.0
-48.0,-202.0,94.0,0.0
-50.0,-210.0,95.0,0.0
-50.0,-213.0,94.0,0.0
-50.0,-219.0,94.0,0.0
-50.0,-222.0,92.0,0.0
-50.0,-228.0,92.0,0.0
-52.0,-242.0,95.0,0.0
-60.0,-284.0,107.0,0.0
-66.0,-312.0,114.0,0.0
-66.0,-319.0,112.0,0.0
-66.0,-325.0,111.0,0.0
-64.0,-319.0,104.0,0.0
-61.0,-314.0,99.0,0.0
-62.0,-317.0,97.0,0.0
-61.0,-322.0,94.0,0.0
-61.0,-325.0,91.0,0.0
-60.0,-329.0,89.0,0.0
-3802.0,15260.0,13918.0,0.0
-3879.0,15203.0,14167.0,0.0
-3962.0,15168.0,14441.0,0.0
-4039.0,15101.0,14689.0,0.0
-4119.0,15047.0,14956.0,0.0
-4202.0,14990.0,15223.0,0.0
-4284.0,14929.0,15492.0,0.0
-4346.0,14790.0,15683.0,0.0
-4425.0,14708.0,15937.0,0.0
-4363.0,14164.0,15686.0,0.0
-4421.0,14017.0,15865.0,0.0
-4579.0,14174.0,16398.0,0.0
-4579.0,13838.0,16366.0,0.0
-4896.0,14448.0,17469.0,0.0
-5000.0,14402.0,17804.0,0.0
-5101.0,14341.0,18130.0,0.0
-5194.0,14252.0,18428.0,0.0
-5288.0,14159.0,18728.0,0.0
-5277.0,13786.0,18654.0,0.0
-5411.0,13790.0,19095.0,0.0
-3676.0,9137.0,12948.0,0.0
-3675.0,8906.0,12920.0,0.0
-3666.0,8661.0,12866.0,0.0
-3663.0,8435.0,12833.0,0.0
-3658.0,8209.0,12793.0,0.0
-3646.0,7969.0,12726.0,0.0
-3642.0,7753.0,12689.0,0.0
-3638.0,7541.0,12655.0,0.0
-3633.0,7329.0,12615.0,0.0
-3636.0,7137.0,12604.0,0.0
-3698.0,7060.0,12796.0,0.0
-4424.0,8210.0,15280.0,0.0
-4412.0,7958.0,15214.0,0.0
-4407.0,7721.0,15171.0,0.0
-4400.0,7483.0,15118.0,0.0
-4393.0,7251.0,15067.0,0.0
-4384.0,7018.0,15012.0,0.0
-4381.0,6799.0,14974.0,0.0
-4384.0,6589.0,14956.0,0.0
-4369.0,6358.0,14881.0,0.0
-4367.0,6149.0,14849.0,0.0
-4361.0,5936.0,14801.0,0.0
-4337.0,5704.0,14697.0,0.0
-4267.0,5415.0,14432.0,0.0
-4287.0,5247.0,14473.0,0.0
-4334.0,5109.0,14606.0,0.0
-4334.0,4917.0,14582.0,0.0
-4327.0,4720.0,14534.0,0.0
-4322.0,4525.0,14488.0,0.0
-4322.0,4338.0,14460.0,0.0
-4321.0,4153.0,14431.0,0.0
-4310.0,3961.0,14371.0,0.0
-4310.0,3779.0,14343.0,0.0
-4306.0,3596.0,14303.0,0.0
-4297.0,3411.0,14248.0,0.0
-4291.0,3232.0,14206.0,0.0
-4288.0,3055.0,14168.0,0.0
-4287.0,2881.0,14138.0,0.0
-4281.0,2707.0,14094.0,0.0
-4281.0,2536.0,14068.0,0.0
-4280.0,2367.0,14036.0,0.0
-4271.0,2195.0,13981.0,0.0
-4269.0,2027.0,13947.0,0.0
-4270.0,1864.0,13926.0,0.0
-2991.0,1190.0,9734.0,0.0
-3016.0,1085.0,9798.0,0.0
-3016.0,970.0,9778.0,0.0
-2998.0,851.0,9703.0,0.0
-3069.0,756.0,9913.0,0.0
-3158.0,660.0,10180.0,0.0
-3293.0,566.0,10593.0,0.0
-3325.0,448.0,10675.0,0.0
-3324.0,326.0,10649.0,0.0
-3034.0,186.0,9703.0,0.0
-3153.0,78.0,10064.0,0.0
-3237.0,-37.0,10308.0,0.0
-3237.0,-154.0,10287.0,0.0
-3169.0,-266.0,10051.0,0.0
-3166.0,-379.0,10019.0,0.0
-3156.0,-491.0,9966.0,0.0
-3185.0,-609.0,10037.0,0.0
-3304.0,-751.0,10391.0,0.0
-3303.0,-867.0,10362.0,0.0
-3288.0,-980.0,10295.0,0.0
-3271.0,-1091.0,10219.0,0.0
-3135.0,-1157.0,9772.0,0.0
-3242.0,-1311.0,10082.0,0.0
-3231.0,-1420.0,10025.0,0.0
-3277.0,-1556.0,10145.0,0.0
-2942.0,-1500.0,9087.0,0.0
-3091.0,-1684.0,9523.0,0.0
-3303.0,-1917.0,10157.0,0.0
-3302.0,-2032.0,10129.0,0.0
-3302.0,-2147.0,10104.0,0.0
-3301.0,-2261.0,10074.0,0.0
-3301.0,-2377.0,10051.0,0.0
-3295.0,-2489.0,10010.0,0.0
-3296.0,-2604.0,9986.0,0.0
-3298.0,-2721.0,9968.0,0.0
-3295.0,-2834.0,9933.0,0.0
-3297.0,-2951.0,9912.0,0.0
-3297.0,-3068.0,9889.0,0.0
-3297.0,-3184.0,9862.0,0.0
-3298.0,-3301.0,9838.0,0.0
-3296.0,-3416.0,9806.0,0.0
-3291.0,-3527.0,9765.0,0.0
-3295.0,-3647.0,9748.0,0.0
-3300.0,-3770.0,9736.0,0.0
-3293.0,-3879.0,9688.0,0.0
-3290.0,-3994.0,9653.0,0.0
-3296.0,-4119.0,9644.0,0.0
-3296.0,-4237.0,9614.0,0.0
-3294.0,-4352.0,9579.0,0.0
-3296.0,-4475.0,9558.0,0.0
-3295.0,-4593.0,9525.0,0.0
-3298.0,-4716.0,9502.0,0.0
-3300.0,-4840.0,9480.0,0.0
-3296.0,-4955.0,9438.0,0.0
-3296.0,-5077.0,9407.0,0.0
-3299.0,-5203.0,9386.0,0.0
-3303.0,-5332.0,9364.0,0.0
-3301.0,-5453.0,9328.0,0.0
-3305.0,-5582.0,9305.0,0.0
-3305.0,-5708.0,9275.0,0.0
-3305.0,-5834.0,9243.0,0.0
-3311.0,-5969.0,9225.0,0.0
-3309.0,-6093.0,9185.0,0.0
-3310.0,-6224.0,9155.0,0.0
-3317.0,-6364.0,9137.0,0.0
-3314.0,-6488.0,9095.0,0.0
-3317.0,-6626.0,9068.0,0.0
-3318.0,-6760.0,9037.0,0.0
-3316.0,-6889.0,8994.0,0.0
-3314.0,-7020.0,8954.0,0.0
-3320.0,-7167.0,8932.0,0.0
-3322.0,-7306.0,8899.0,0.0
-3325.0,-7451.0,8869.0,0.0
-3327.0,-7593.0,8833.0,0.0
-3333.0,-7747.0,8811.0,0.0
-3336.0,-7897.0,8779.0,0.0
-3336.0,-8037.0,8736.0,0.0
-3340.0,-8192.0,8706.0,0.0
-3345.0,-8350.0,8676.0,0.0
-3342.0,-8491.0,8627.0,0.0
-3347.0,-8652.0,8595.0,0.0
-3353.0,-8817.0,8565.0,0.0
-3358.0,-8983.0,8533.0,0.0
-3359.0,-9139.0,8488.0,0.0
-3362.0,-9303.0,8449.0,0.0
-3360.0,-9459.0,8400.0,0.0
-3370.0,-9647.0,8376.0,0.0
-3368.0,-9804.0,8322.0,0.0
-3376.0,-9991.0,8291.0,0.0
-3380.0,-10168.0,8249.0,0.0
-3387.0,-10357.0,8213.0,0.0
-3388.0,-10533.0,8163.0,0.0
-36.0,-116.0,87.0,0.0
-40.0,-132.0,97.0,0.0
-39.0,-130.0,94.0,0.0
-40.0,-134.0,94.0,0.0
-41.0,-142.0,98.0,0.0
-40.0,-141.0,96.0,0.0
-42.0,-148.0,97.0,0.0
-43.0,-157.0,100.0,0.0
-47.0,-171.0,108.0,0.0
-42.0,-159.0,97.0,0.0
-45.0,-168.0,100.0,0.0
-48.0,-182.0,106.0,0.0
-48.0,-186.0,106.0,0.0
-45.0,-180.0,100.0,0.0
-51.0,-204.0,109.0,0.0
-49.0,-201.0,105.0,0.0
-48.0,-200.0,102.0,0.0
-46.0,-197.0,97.0,0.0
-48.0,-206.0,100.0,0.0
-51.0,-222.0,104.0,0.0
-49.0,-219.0,99.0,0.0
-48.0,-217.0,96.0,0.0
-51.0,-236.0,101.0,0.0
-52.0,-245.0,102.0,0.0
-51.0,-243.0,98.0,0.0
-51.0,-249.0,97.0,0.0
-54.0,-268.0,102.0,0.0
-63.0,-318.0,116.0,0.0
-66.0,-333.0,118.0,0.0
-64.0,-330.0,113.0,0.0
-61.0,-324.0,107.0,0.0
-61.0,-327.0,105.0,0.0
-61.0,-331.0,102.0,0.0
-60.0,-336.0,100.0,0.0
-59.0,-331.0,94.0,0.0
-58.0,-333.0,91.0,0.0
-3618.0,15236.0,13959.0,0.0
-3693.0,15183.0,14213.0,0.0
-3773.0,15144.0,14484.0,0.0
-3850.0,15086.0,14741.0,0.0
-3927.0,15023.0,14999.0,0.0
-4008.0,14970.0,15271.0,0.0
-4088.0,14908.0,15539.0,0.0
-4168.0,14841.0,15807.0,0.0
-4248.0,14766.0,16072.0,0.0
-4316.0,14643.0,16288.0,0.0
-4391.0,14547.0,16538.0,0.0
-4373.0,14142.0,16434.0,0.0
-4378.0,13818.0,16414.0,0.0
-4549.0,14015.0,17019.0,0.0
-4788.0,14395.0,17875.0,0.0
-4881.0,14318.0,18181.0,0.0
-4979.0,14250.0,18507.0,0.0
-5079.0,14180.0,18837.0,0.0
-5170.0,14078.0,19134.0,0.0
-5217.0,13854.0,19268.0,0.0
-3506.0,9079.0,12924.0,0.0
-3507.0,8854.0,12901.0,0.0
-3504.0,8620.0,12860.0,0.0
-3495.0,8380.0,12805.0,0.0
-3491.0,8153.0,12763.0,0.0
-3483.0,7923.0,12709.0,0.0
-3481.0,7710.0,12677.0,0.0
-3476.0,7493.0,12631.0,0.0
-3474.0,7286.0,12597.0,0.0
-3484.0,7110.0,12614.0,0.0
-4222.0,8378.0,15254.0,0.0
-4228.0,8153.0,15244.0,0.0
-4225.0,7915.0,15201.0,0.0
-4220.0,7678.0,15155.0,0.0
-4216.0,7447.0,15113.0,0.0
-4206.0,7207.0,15047.0,0.0
-4200.0,6979.0,14997.0,0.0
-4199.0,6762.0,14964.0,0.0
-4198.0,6549.0,14934.0,0.0
-4190.0,6325.0,14874.0,0.0
-4192.0,6122.0,14854.0,0.0
-4179.0,5900.0,14782.0,0.0
-4179.0,5697.0,14754.0,0.0
-4175.0,5492.0,14709.0,0.0
-4158.0,5273.0,14621.0,0.0
-4168.0,5092.0,14630.0,0.0
-4162.0,4892.0,14581.0,0.0
-4151.0,4690.0,14514.0,0.0
-4152.0,4502.0,14490.0,0.0
-4142.0,4306.0,14429.0,0.0
-4145.0,4124.0,14410.0,0.0
-4141.0,3938.0,14368.0,0.0
-4134.0,3751.0,14318.0,0.0
-4134.0,3572.0,14291.0,0.0
-4129.0,3391.0,14243.0,0.0
-4114.0,3203.0,14165.0,0.0
-4126.0,3039.0,14182.0,0.0
-4117.0,2861.0,14124.0,0.0
-4113.0,2687.0,14079.0,0.0
-4115.0,2518.0,14061.0,0.0
-4104.0,2344.0,13997.0,0.0
-4102.0,2176.0,13963.0,0.0
-4103.0,2011.0,13938.0,0.0
-4095.0,1842.0,13882.0,0.0
-4094.0,1679.0,13855.0,0.0
-2952.0,1094.0,9970.0,0.0
-3007.0,996.0,10136.0,0.0
-3018.0,881.0,10151.0,0.0
-3027.0,766.0,10159.0,0.0
-3027.0,649.0,10139.0,0.0
-3030.0,533.0,10129.0,0.0
-3034.0,417.0,10121.0,0.0
-3049.0,303.0,10153.0,0.0
-3029.0,186.0,10066.0,0.0
-3040.0,72.0,10081.0,0.0
-3110.0,-44.0,10291.0,0.0
-3117.0,-161.0,10294.0,0.0
-3154.0,-280.0,10390.0,0.0
-3162.0,-399.0,10395.0,0.0
-3118.0,-509.0,10232.0,0.0
-3144.0,-630.0,10294.0,0.0
-3182.0,-756.0,10395.0,0.0
-3186.0,-874.0,10385.0,0.0
-3184.0,-991.0,10358.0,0.0
-3176.0,-1104.0,10310.0,0.0
-3091.0,-1188.0,10010.0,0.0
-3150.0,-1325.0,10176.0,0.0
-3178.0,-1453.0,10245.0,0.0
-3159.0,-1560.0,10163.0,0.0
-3014.0,-1598.0,9672.0,0.0
-2884.0,-1634.0,9233.0,0.0
-2857.0,-1722.0,9124.0,0.0
-3125.0,-1996.0,9955.0,0.0
-3178.0,-2146.0,10101.0,0.0
-3180.0,-2264.0,10087.0,0.0
-3171.0,-2371.0,10030.0,0.0
-3175.0,-2490.0,10019.0,0.0
-3171.0,-2602.0,9983.0,0.0
-3175.0,-2721.0,9972.0,0.0
-3172.0,-2832.0,9935.0,0.0
-3174.0,-2950.0,9914.0,0.0
-3170.0,-3061.0,9878.0,0.0
-3172.0,-3180.0,9862.0,0.0
-3172.0,-3295.0,9832.0,0.0
-3173.0,-3413.0,9813.0,0.0
-3175.0,-3532.0,9793.0,0.0
-3169.0,-3640.0,9746.0,0.0
-3166.0,-3754.0,9710.0,0.0
-3165.0,-3869.0,9679.0,0.0
-3175.0,-3999.0,9683.0,0.0
-3176.0,-4119.0,9658.0,0.0
-3178.0,-4239.0,9636.0,0.0
-3177.0,-4357.0,9605.0,0.0
-3175.0,-4473.0,9572.0,0.0
-3174.0,-4591.0,9541.0,0.0
-3175.0,-4712.0,9514.0,0.0
-3175.0,-4833.0,9486.0,0.0
-3170.0,-4947.0,9442.0,0.0
-3173.0,-5072.0,9418.0,0.0
-3173.0,-5195.0,9391.0,0.0
-3173.0,-5317.0,9360.0,0.0
-3176.0,-5445.0,9336.0,0.0
-3179.0,-5575.0,9316.0,0.0
-3178.0,-5699.0,9282.0,0.0
-3180.0,-5826.0,9253.0,0.0
-3181.0,-5955.0,9225.0,0.0
-3185.0,-6091.0,9205.0,0.0
-3183.0,-6215.0,9166.0,0.0
-3186.0,-6350.0,9140.0,0.0
-3181.0,-6470.0,9093.0,0.0
-3186.0,-6611.0,9072.0,0.0
-3185.0,-6740.0,9034.0,0.0
-3190.0,-6885.0,9015.0,0.0
-3191.0,-7021.0,8981.0,0.0
-3190.0,-7153.0,8941.0,0.0
-3194.0,-7298.0,8915.0,0.0
-3194.0,-7437.0,8878.0,0.0
-3201.0,-7593.0,8861.0,0.0
-3198.0,-7726.0,8813.0,0.0
-3202.0,-7877.0,8785.0,0.0
-3199.0,-8012.0,8736.0,0.0
-3202.0,-8167.0,8707.0,0.0
-3204.0,-8318.0,8671.0,0.0
-3203.0,-8464.0,8627.0,0.0
-3210.0,-8634.0,8606.0,0.0
-3214.0,-8792.0,8570.0,0.0
-3213.0,-8943.0,8525.0,0.0
-3216.0,-9108.0,8489.0,0.0
-3222.0,-9282.0,8460.0,0.0
-3226.0,-9452.0,8424.0,0.0
-3230.0,-9626.0,8389.0,0.0
-3229.0,-9785.0,8338.0,0.0
-3236.0,-9971.0,8306.0,0.0
-3234.0,-10137.0,8254.0,0.0
-3241.0,-10326.0,8220.0,0.0
-3240.0,-10500.0,8171.0,0.0
-32.0,-107.0,81.0,0.0
-32.0,-110.0,81.0,0.0
-35.0,-122.0,88.0,0.0
-40.0,-138.0,98.0,0.0
-36.0,-130.0,90.0,0.0
-32.0,-118.0,80.0,0.0
-36.0,-132.0,87.0,0.0
-41.0,-156.0,101.0,0.0
-3016.0,-11334.0,7134.0,0.0
-40.0,-157.0,96.0,0.0
-41.0,-164.0,98.0,0.0
-40.0,-163.0,95.0,0.0
-44.0,-182.0,104.0,0.0
-3170.0,-12932.0,7182.0,0.0
-42.0,-178.0,97.0,0.0
-43.0,-184.0,97.0,0.0
-43.0,-189.0,98.0,0.0
-42.0,-190.0,95.0,0.0
-43.0,-195.0,94.0,0.0
-44.0,-203.0,96.0,0.0
-46.0,-217.0,100.0,0.0
-44.0,-208.0,93.0,0.0
-45.0,-219.0,95.0,0.0
-46.0,-226.0,94.0,0.0
-47.0,-238.0,97.0,0.0
-47.0,-238.0,94.0,0.0
-47.0,-243.0,93.0,0.0
-60.0,-311.0,115.0,0.0
-60.0,-323.0,116.0,0.0
-60.0,-326.0,113.0,0.0
-58.0,-321.0,107.0,0.0
-58.0,-329.0,105.0,0.0
-58.0,-332.0,103.0,0.0
-56.0,-324.0,96.0,0.0
-55.0,-329.0,94.0,0.0
-55.0,-332.0,91.0,0.0
-3439.0,15233.0,14018.0,0.0
-3510.0,15173.0,14265.0,0.0
-3585.0,15126.0,14530.0,0.0
-3661.0,15071.0,14790.0,0.0
-3735.0,15004.0,15044.0,0.0
-3817.0,14966.0,15332.0,0.0
-3896.0,14904.0,15601.0,0.0
-3974.0,14838.0,15872.0,0.0
-4036.0,14705.0,16074.0,0.0
-4138.0,14714.0,16437.0,0.0
-4200.0,14571.0,16636.0,0.0
-4229.0,14316.0,16707.0,0.0
-4250.0,14039.0,16748.0,0.0
-4264.0,13740.0,16757.0,0.0
-4571.0,14369.0,17918.0,0.0
-4667.0,14316.0,18255.0,0.0
-4759.0,14237.0,18568.0,0.0
-4822.0,14067.0,18767.0,0.0
-4938.0,14046.0,19172.0,0.0
-4993.0,13848.0,19341.0,0.0
-3374.0,9121.0,13038.0,0.0
-3385.0,8916.0,13047.0,0.0
-3391.0,8705.0,13042.0,0.0
-3386.0,8468.0,12996.0,0.0
-3390.0,8255.0,12977.0,0.0
-3389.0,8038.0,12948.0,0.0
-3392.0,7829.0,12927.0,0.0
-3387.0,7607.0,12879.0,0.0
-3382.0,7390.0,12833.0,0.0
-3378.0,7178.0,12789.0,0.0
-3407.0,7037.0,12869.0,0.0
-4042.0,8113.0,15236.0,0.0
-4039.0,7875.0,15191.0,0.0
-4032.0,7634.0,15134.0,0.0
-4025.0,7394.0,15074.0,0.0
-4022.0,7169.0,15034.0,0.0
-4019.0,6945.0,14990.0,0.0
-4018.0,6727.0,14955.0,0.0
-4011.0,6502.0,14895.0,0.0
-4011.0,6294.0,14867.0,0.0
-4006.0,6079.0,14819.0,0.0
-4007.0,5875.0,14789.0,0.0
-4000.0,5663.0,14733.0,0.0
-3992.0,5453.0,14675.0,0.0
-3992.0,5256.0,14646.0,0.0
-3993.0,5062.0,14618.0,0.0
-3984.0,4860.0,14555.0,0.0
-3982.0,4666.0,14516.0,0.0
-3978.0,4475.0,14474.0,0.0
-3980.0,4291.0,14455.0,0.0
-3975.0,4101.0,14406.0,0.0
-3966.0,3910.0,14344.0,0.0
-3969.0,3733.0,14326.0,0.0
-3960.0,3546.0,14263.0,0.0
-3963.0,3372.0,14244.0,0.0
-3958.0,3192.0,14199.0,0.0
-3954.0,3016.0,14156.0,0.0
-3952.0,2843.0,14121.0,0.0
-3951.0,2671.0,14088.0,0.0
-3949.0,2501.0,14055.0,0.0
-3942.0,2328.0,13996.0,0.0
-3946.0,2164.0,13984.0,0.0
-3940.0,1995.0,13932.0,0.0
-3933.0,1829.0,13885.0,0.0
-3938.0,1668.0,13869.0,0.0
-3928.0,1502.0,13808.0,0.0
-2961.0,1011.0,10390.0,0.0
-3018.0,908.0,10565.0,0.0
-3029.0,788.0,10580.0,0.0
-3025.0,666.0,10550.0,0.0
-3015.0,543.0,10492.0,0.0
-3020.0,424.0,10486.0,0.0
-3019.0,304.0,10463.0,0.0
-3025.0,185.0,10456.0,0.0
-2995.0,66.0,10336.0,0.0
-3020.0,-50.0,10397.0,0.0
-3027.0,-168.0,10401.0,0.0
-3032.0,-286.0,10392.0,0.0
-3032.0,-403.0,10372.0,0.0
-3037.0,-521.0,10364.0,0.0
-3027.0,-636.0,10309.0,0.0
-3041.0,-755.0,10332.0,0.0
-3042.0,-871.0,10315.0,0.0
-3051.0,-991.0,10322.0,0.0
-3047.0,-1106.0,10288.0,0.0
-3056.0,-1225.0,10293.0,0.0
-3054.0,-1339.0,10264.0,0.0
-3052.0,-1454.0,10234.0,0.0
-3050.0,-1568.0,10203.0,0.0
-3013.0,-1663.0,10058.0,0.0
-2893.0,-1706.0,9636.0,0.0
-2915.0,-1829.0,9686.0,0.0
-2800.0,-1862.0,9280.0,0.0
-2755.0,-1937.0,9112.0,0.0
-3043.0,-2252.0,10036.0,0.0
-3048.0,-2371.0,10030.0,0.0
-3047.0,-2484.0,10001.0,0.0
-3037.0,-2591.0,9948.0,0.0
-3038.0,-2705.0,9923.0,0.0
-3044.0,-2826.0,9919.0,0.0
-3048.0,-2945.0,9908.0,0.0
-3042.0,-3054.0,9863.0,0.0
-3051.0,-3179.0,9866.0,0.0
-3041.0,-3283.0,9809.0,0.0
-3046.0,-3404.0,9800.0,0.0
-3045.0,-3520.0,9772.0,0.0
-3045.0,-3634.0,9743.0,0.0
-3045.0,-3752.0,9719.0,0.0
-3041.0,-3863.0,9679.0,0.0
-3043.0,-3983.0,9660.0,0.0
-3044.0,-4102.0,9636.0,0.0
-3041.0,-4216.0,9599.0,0.0
-3041.0,-4333.0,9570.0,0.0
-3045.0,-4458.0,9556.0,0.0
-3045.0,-4578.0,9530.0,0.0
-3044.0,-4695.0,9498.0,0.0
-3042.0,-4811.0,9462.0,0.0
-3040.0,-4929.0,9428.0,0.0
-3041.0,-5051.0,9400.0,0.0
-3041.0,-5175.0,9373.0,0.0
-3047.0,-5307.0,9363.0,0.0
-3043.0,-5423.0,9319.0,0.0
-3044.0,-5550.0,9294.0,0.0
-3043.0,-5672.0,9260.0,0.0
-3050.0,-5811.0,9249.0,0.0
-3046.0,-5929.0,9207.0,0.0
-3045.0,-6055.0,9173.0,0.0
-3053.0,-6197.0,9162.0,0.0
-3050.0,-6320.0,9120.0,0.0
-3049.0,-6449.0,9087.0,0.0
-3049.0,-6582.0,9057.0,0.0
-3054.0,-6723.0,9035.0,0.0
-3053.0,-6855.0,8999.0,0.0
-3052.0,-6987.0,8962.0,0.0
-3056.0,-7132.0,8939.0,0.0
-3054.0,-7264.0,8897.0,0.0
-3056.0,-7408.0,8869.0,0.0
-3058.0,-7552.0,8838.0,0.0
-3059.0,-7695.0,8805.0,0.0
-3059.0,-7837.0,8767.0,0.0
-3063.0,-7989.0,8737.0,0.0
-3063.0,-8135.0,8700.0,0.0
-3065.0,-8290.0,8669.0,0.0
-3067.0,-8441.0,8632.0,0.0
-3068.0,-8596.0,8596.0,0.0
-3070.0,-8751.0,8558.0,0.0
-3066.0,-8895.0,8507.0,0.0
-3076.0,-9080.0,8493.0,0.0
-3076.0,-9238.0,8449.0,0.0
-3084.0,-9422.0,8426.0,0.0
-3081.0,-9576.0,8374.0,0.0
-3083.0,-9747.0,8335.0,0.0
-3085.0,-9923.0,8296.0,0.0
-3086.0,-10094.0,8251.0,0.0
-3087.0,-10269.0,8206.0,0.0
-32.0,-110.0,86.0,0.0
-32.0,-111.0,84.0,0.0
-30.0,-109.0,81.0,0.0
-38.0,-136.0,99.0,0.0
-35.0,-133.0,95.0,0.0
-34.0,-129.0,90.0,0.0
-36.0,-138.0,93.0,0.0
-3010.0,-11444.0,7594.0,0.0
-2956.0,-11432.0,7405.0,0.0
-38.0,-154.0,97.0,0.0
-39.0,-160.0,99.0,0.0
-38.0,-159.0,96.0,0.0
-41.0,-172.0,101.0,0.0
-41.0,-176.0,101.0,0.0
-39.0,-171.0,95.0,0.0
-40.0,-179.0,97.0,0.0
-41.0,-186.0,98.0,0.0
-44.0,-201.0,104.0,0.0
-45.0,-210.0,105.0,0.0
-43.0,-202.0,99.0,0.0
-42.0,-204.0,96.0,0.0
-44.0,-220.0,101.0,0.0
-43.0,-214.0,96.0,0.0
-44.0,-223.0,97.0,0.0
-44.0,-229.0,97.0,0.0
-43.0,-231.0,95.0,0.0
-45.0,-240.0,95.0,0.0
-45.0,-245.0,95.0,0.0
-55.0,-303.0,113.0,0.0
-58.0,-324.0,117.0,0.0
-54.0,-314.0,109.0,0.0
-55.0,-320.0,107.0,0.0
-54.0,-322.0,104.0,0.0
-53.0,-324.0,101.0,0.0
-54.0,-330.0,99.0,0.0
-51.0,-325.0,93.0,0.0
-50.0,-328.0,91.0,0.0
-3256.0,15220.0,14066.0,0.0
-3326.0,15164.0,14317.0,0.0
-3399.0,15113.0,14577.0,0.0
-3472.0,15054.0,14836.0,0.0
-3546.0,14999.0,15103.0,0.0
-3623.0,14948.0,15378.0,0.0
-3694.0,14870.0,15630.0,0.0
-3776.0,14821.0,15920.0,0.0
-3842.0,14709.0,16145.0,0.0
-3926.0,14666.0,16450.0,0.0
-3863.0,14072.0,16134.0,0.0
-4067.0,14451.0,16934.0,0.0
-4086.0,14159.0,16961.0,0.0
-4060.0,13722.0,16805.0,0.0
-4343.0,14317.0,17927.0,0.0
-4444.0,14280.0,18285.0,0.0
-4536.0,14213.0,18612.0,0.0
-4625.0,14127.0,18924.0,0.0
-4723.0,14063.0,19274.0,0.0
-4752.0,13791.0,19341.0,0.0
-4840.0,13684.0,19642.0,0.0
-4842.0,13341.0,19603.0,0.0
-3371.0,9046.0,13611.0,0.0
-5231.0,13670.0,21065.0,0.0
-5336.0,13577.0,21433.0,0.0
-3579.0,8866.0,14342.0,0.0
-3690.0,8894.0,14748.0,0.0
-3623.0,8495.0,14442.0,0.0
-3603.0,8217.0,14328.0,0.0
-3598.0,7978.0,14276.0,0.0
-3595.0,7748.0,14229.0,0.0
-3571.0,7475.0,14098.0,0.0
-3409.0,6931.0,13429.0,0.0
-3580.0,7065.0,14069.0,0.0
-3592.0,6879.0,14084.0,0.0
-3676.0,6827.0,14377.0,0.0
-3831.0,6895.0,14948.0,0.0
-3826.0,6671.0,14895.0,0.0
-3829.0,6465.0,14874.0,0.0
-3806.0,6218.0,14754.0,0.0
-3806.0,6010.0,14718.0,0.0
-3505.0,5347.0,13523.0,0.0
-3539.0,5212.0,13623.0,0.0
-3488.0,4956.0,13399.0,0.0
-3499.0,4791.0,13411.0,0.0
-3493.0,4606.0,13361.0,0.0
-3491.0,4427.0,13322.0,0.0
-3494.0,4257.0,13305.0,0.0
-3491.0,4081.0,13266.0,0.0
-3490.0,3909.0,13234.0,0.0
-3486.0,3736.0,13190.0,0.0
-3485.0,3568.0,13157.0,0.0
-3491.0,3408.0,13152.0,0.0
-3483.0,3236.0,13090.0,0.0
-3485.0,3076.0,13070.0,0.0
-3481.0,2913.0,13028.0,0.0
-3492.0,2762.0,13044.0,0.0
-3485.0,2599.0,12990.0,0.0
-3482.0,2440.0,12951.0,0.0
-3478.0,2282.0,12908.0,0.0
-3476.0,2126.0,12871.0,0.0
-3476.0,1974.0,12845.0,0.0
-3475.0,1821.0,12813.0,0.0
-3474.0,1670.0,12782.0,0.0
-3477.0,1523.0,12769.0,0.0
-3472.0,1372.0,12723.0,0.0
-3480.0,1227.0,12723.0,0.0
-2945.0,914.0,10747.0,0.0
-2950.0,791.0,10741.0,0.0
-2941.0,667.0,10687.0,0.0
-2937.0,543.0,10648.0,0.0
-2936.0,421.0,10624.0,0.0
-2934.0,301.0,10592.0,0.0
-2933.0,180.0,10566.0,0.0
-2927.0,61.0,10520.0,0.0
-2928.0,-57.0,10505.0,0.0
-2926.0,-175.0,10472.0,0.0
-2920.0,-293.0,10428.0,0.0
-2918.0,-409.0,10398.0,0.0
-2916.0,-526.0,10369.0,0.0
-2916.0,-642.0,10345.0,0.0
-2915.0,-758.0,10320.0,0.0
-2916.0,-875.0,10301.0,0.0
-2913.0,-989.0,10268.0,0.0
-2914.0,-1104.0,10250.0,0.0
-2911.0,-1217.0,10212.0,0.0
-2913.0,-1333.0,10197.0,0.0
-2904.0,-1443.0,10143.0,0.0
-2907.0,-1559.0,10131.0,0.0
-2925.0,-1683.0,10171.0,0.0
-2892.0,-1777.0,10030.0,0.0
-2895.0,-1893.0,10020.0,0.0
-2795.0,-1936.0,9650.0,0.0
-2811.0,-2057.0,9684.0,0.0
-2680.0,-2066.0,9210.0,0.0
-2715.0,-2200.0,9310.0,0.0
-2924.0,-2483.0,10002.0,0.0
-2924.0,-2597.0,9978.0,0.0
-2459.0,-2279.0,8367.0,0.0
-2462.0,-2380.0,8362.0,0.0
-2919.0,-2936.0,9887.0,0.0
-2923.0,-3054.0,9873.0,0.0
-2923.0,-3171.0,9852.0,0.0
-2921.0,-3283.0,9818.0,0.0
-2924.0,-3401.0,9802.0,0.0
-2922.0,-3514.0,9770.0,0.0
-2923.0,-3631.0,9748.0,0.0
-2921.0,-3745.0,9715.0,0.0
-2921.0,-3862.0,9691.0,0.0
-2924.0,-3983.0,9673.0,0.0
-2922.0,-4099.0,9643.0,0.0
-2922.0,-4215.0,9614.0,0.0
-2923.0,-4335.0,9591.0,0.0
-2921.0,-4450.0,9558.0,0.0
-2920.0,-4569.0,9528.0,0.0
-2921.0,-4689.0,9502.0,0.0
-2919.0,-4805.0,9468.0,0.0
-2920.0,-4930.0,9447.0,0.0
-2924.0,-5056.0,9428.0,0.0
-2923.0,-5178.0,9398.0,0.0
-2921.0,-5297.0,9363.0,0.0
-2922.0,-5421.0,9336.0,0.0
-2925.0,-5551.0,9315.0,0.0
-2920.0,-5666.0,9271.0,0.0
-2925.0,-5801.0,9255.0,0.0
-2922.0,-5923.0,9219.0,0.0
-2920.0,-6046.0,9181.0,0.0
-2925.0,-6184.0,9166.0,0.0
-2922.0,-6308.0,9126.0,0.0
-2927.0,-6449.0,9109.0,0.0
-2926.0,-6579.0,9074.0,0.0
-2925.0,-6709.0,9039.0,0.0
-2924.0,-6842.0,9006.0,0.0
-2926.0,-6979.0,8976.0,0.0
-2925.0,-7113.0,8939.0,0.0
-2924.0,-7251.0,8905.0,0.0
-2927.0,-7395.0,8878.0,0.0
-2928.0,-7537.0,8847.0,0.0
-2930.0,-7684.0,8817.0,0.0
-2927.0,-7820.0,8772.0,0.0
-2932.0,-7979.0,8752.0,0.0
-2930.0,-8116.0,8705.0,0.0
-2928.0,-8262.0,8667.0,0.0
-2931.0,-8420.0,8637.0,0.0
-2933.0,-8577.0,8604.0,0.0
-2936.0,-8739.0,8574.0,0.0
-2937.0,-8897.0,8536.0,0.0
-2936.0,-9052.0,8494.0,0.0
-2939.0,-9220.0,8461.0,0.0
-2939.0,-9381.0,8419.0,0.0
-2944.0,-9559.0,8389.0,0.0
-2942.0,-9722.0,8342.0,0.0
-2943.0,-9894.0,8302.0,0.0
-2947.0,-10077.0,8267.0,0.0
-30.0,-106.0,85.0,0.0
-29.0,-104.0,82.0,0.0
-2952.0,-10624.0,8142.0,0.0
-30.0,-114.0,86.0,0.0
-31.0,-120.0,88.0,0.0
-31.0,-119.0,86.0,0.0
-2839.0,-10936.0,7639.0,0.0
-2871.0,-11248.0,7674.0,0.0
-34.0,-138.0,92.0,0.0
-36.0,-150.0,98.0,0.0
-35.0,-147.0,93.0,0.0
-3481.0,-14600.0,9049.0,0.0
-37.0,-163.0,99.0,0.0
-38.0,-168.0,99.0,0.0
-38.0,-170.0,98.0,0.0
-38.0,-171.0,96.0,0.0
-40.0,-184.0,101.0,0.0
-38.0,-178.0,94.0,0.0
-39.0,-188.0,98.0,0.0
-38.0,-185.0,93.0,0.0
-39.0,-194.0,95.0,0.0
-40.0,-204.0,97.0,0.0
-39.0,-202.0,94.0,0.0
-38.0,-204.0,92.0,0.0
-41.0,-221.0,96.0,0.0
-41.0,-222.0,94.0,0.0
-40.0,-223.0,92.0,0.0
-42.0,-236.0,95.0,0.0
-40.0,-234.0,90.0,0.0
-48.0,-282.0,106.0,0.0
-55.0,-323.0,117.0,0.0
-52.0,-320.0,112.0,0.0
-51.0,-317.0,107.0,0.0
-50.0,-320.0,104.0,0.0
-50.0,-325.0,102.0,0.0
-49.0,-328.0,99.0,0.0
-48.0,-321.0,93.0,0.0
-47.0,-326.0,91.0,0.0
-3072.0,15199.0,14104.0,0.0
-3140.0,15142.0,14355.0,0.0
