//X,Y,Z,Classification
81,-261,77,0.0
84,-266,82,0.0
84,-264,84,0.0
85,-261,87,0.0
87,-265,92,0.0
88,-263,94,0.0
90,-265,98,0.0
87,-255,97,0.0
89,-257,101,0.0
94,-267,109,0.0
92,-258,109,0.0
95,-260,113,0.0
93,-254,114,0.0
96,-257,118,0.0
96,-255,120,0.0
96,-251,122,0.0
97,-248,124,0.0
101,-255,131,0.0
100,-251,133,0.0
106,-261,142,0.0
111,-269,151,0.0
118,-281,161,0.0
112,-263,155,0.0
106,-247,149,0.0
105,-239,149,0.0
94,-213,135,0.0
89,-198,129,0.0
884,-1922,1283,0.0
0,0,0,0.0
0,0,0,0.0
877,-1823,1309,0.0
0,0,0,0.0
0,0,0,0.0
0,0,0,0.0
0,0,0,0.0
0,0,0,0.0
0,0,0,0.0
13410,-25004,21192,0.0
13302,-24411,21179,0.0
13330,-24074,21379,0.0
13296,-23629,21477,0.0
13211,-23101,21491,0.0
13187,-22682,21598,0.0
13156,-22256,21690,0.0
13105,-21803,21749,0.0
13048,-21342,21791,0.0
13039,-20967,21913,0.0
12968,-20494,21926,0.0
12947,-20107,22023,0.0
12910,-19699,22089,0.0
12902,-19338,22203,0.0
12877,-18953,22282,0.0
12824,-18533,22315,0.0
11517,-16338,20150,0.0
12775,-17784,22468,0.0
12752,-17415,22544,0.0
12521,-16773,22250,0.0
11894,-15623,21241,0.0
12457,-16039,22356,0.0
12302,-15521,22182,0.0
12290,-15188,22264,0.0
12418,-15029,22602,0.0
12422,-14717,22712,0.0
12404,-14380,22780,0.0
12420,-14083,22909,0.0
12457,-13810,23075,0.0
12471,-13511,23198,0.0
12451,-13176,23257,0.0
12441,-12854,23333,0.0
12436,-12540,23418,0.0
12414,-12208,23468,0.0
12405,-11891,23541,0.0
12385,-11565,23592,0.0
12347,-11224,23608,0.0
12326,-10901,23654,0.0
12331,-10601,23748,0.0
11674,-9749,22562,0.0
12308,-9976,23870,0.0
11589,-9110,22554,0.0
11593,-8829,22637,0.0
11548,-8511,22621,0.0
11648,-8301,22893,0.0
12304,-8468,24259,0.0
12283,-8154,24294,0.0
12282,-7854,24368,0.0
11641,-7160,23165,0.0
11644,-6878,23240,0.0
11624,-6583,23269,0.0
12304,-6669,24700,0.0
12291,-6362,24743,0.0
12302,-6068,24837,0.0
12309,-5770,24917,0.0
12284,-5460,24935,0.0
12320,-5175,25074,0.0
12318,-4873,25136,0.0
11626,-4314,23784,0.0
11624,-4029,23840,0.0
11639,-3749,23930,0.0
12349,-3673,25453,0.0
12357,-3372,25529,0.0
12057,-2993,24968,0.0
11835,-2645,24568,0.0
11848,-2355,24650,0.0
12374,-2153,25803,0.0
12379,-1846,25870,0.0
12436,-1544,26046,0.0
11177,-1109,23458,0.0
11137,-825,23424,0.0
11141,-546,23481,0.0
11161,-266,23570,0.0
11161,16,23618,0.0
11190,299,23725,0.0
11182,584,23756,0.0
11196,871,23828,0.0
11205,1159,23892,0.0
11222,1450,23971,0.0
11228,1741,24026,0.0
11240,2034,24094,0.0
11246,2329,24149,0.0
11264,2628,24230,0.0
11248,2921,24235,0.0
11276,3226,24333,0.0
11269,3524,24358,0.0
11292,3833,24443,0.0
11320,4147,24542,0.0
11309,4449,24556,0.0
12750,5362,27726,0.0
12805,5735,27882,0.0
12796,6083,27902,0.0
3660,1841,7992,0.0
3615,1919,7905,0.0
3554,1986,7782,0.0
21,12,48,0.0
25,15,58,0.0
20,12,44,0.0
27,18,63,0.0
26,18,59,0.0
25,19,57,0.0
31,23,68,0.0
32,25,73,0.0
42,35,95,0.0
37,31,83,0.0
37,32,83,0.0
37,34,84,0.0
39,37,87,0.0
39,37,87,0.0
53,53,119,0.0
44,46,99,0.0
47,51,106,0.0
54,59,121,0.0
54,61,120,0.0
52,62,120,0.0
47,56,105,0.0
53,66,119,0.0
53,67,119,0.0
56,73,126,0.0
47,64,108,0.0
53,73,120,0.0
52,75,118,0.0
51,74,115,0.0
48,72,110,0.0
51,78,116,0.0
48,76,110,0.0
49,78,110,0.0
51,84,114,0.0
43,73,98,0.0
46,81,105,0.0
44,79,101,0.0
44,81,102,0.0
48,88,108,0.0
46,87,105,0.0
47,91,107,0.0
48,96,110,0.0
49,99,111,0.0
49,103,113,0.0
49,103,111,0.0
48,103,108,0.0
50,111,114,0.0
49,112,111,0.0
51,119,117,0.0
53,123,118,0.0
51,123,116,0.0
50,123,113,0.0
52,130,117,0.0
52,133,118,0.0
51,136,116,0.0
51,136,114,0.0
78,-279,68,0.0
80,-283,72,0.0
77,-266,71,0.0
79,-270,75,0.0
79,-269,77,0.0
84,-277,83,0.0
86,-283,89,0.0
85,-274,89,0.0
84,-268,91,0.0
84,-267,93,0.0
87,-269,97,0.0
89,-270,101,0.0
90,-271,104,0.0
88,-262,105,0.0
93,-272,112,0.0
93,-268,114,0.0
94,-266,116,0.0
96,-270,122,0.0
97,-269,124,0.0
97,-264,126,0.0
97,-260,128,0.0
100,-265,134,0.0
103,-268,140,0.0
101,-258,138,0.0
110,-279,153,0.0
118,-294,166,0.0
113,-277,159,0.0
112,-270,160,0.0
106,-255,154,0.0
91,-215,134,0.0
92,-213,136,0.0
92,-210,137,0.0
85,-191,128,0.0
884,-1946,1340,0.0
0,0,0,0.0
0,0,0,0.0
0,0,0,0.0
0,0,0,0.0
0,0,0,0.0
0,0,0,0.0
12576,-24855,20209,0.0
0,0,0,0.0
0,0,0,0.0
12966,-24438,21310,0.0
12920,-23964,21388,0.0
12893,-23528,21491,0.0
12837,-23046,21545,0.0
12794,-22593,21616,0.0
12780,-22196,21734,0.0
12723,-21732,21777,0.0
12677,-21287,21834,0.0
12647,-20877,21917,0.0
12604,-20449,21974,0.0
11212,-17874,19662,0.0
12587,-19713,22199,0.0
12479,-19199,22135,0.0
12445,-18802,22197,0.0
11149,-16537,19992,0.0
11163,-16253,20125,0.0
12385,-17696,22444,0.0
12389,-17365,22564,0.0
12365,-16998,22634,0.0
11587,-15619,21315,0.0
12089,-15973,22345,0.0
11755,-15220,21832,0.0
11908,-15103,22217,0.0
12250,-15215,22961,0.0
11506,-13990,21663,0.0
11489,-13669,21725,0.0
11479,-13359,21801,0.0
12166,-13842,23203,0.0
12133,-13490,23236,0.0
12147,-13194,23357,0.0
11389,-12078,21987,0.0
11411,-11810,22117,0.0
11423,-11529,22226,0.0
11399,-11215,22265,0.0
11386,-10912,22322,0.0
11367,-10606,22365,0.0
11373,-10324,22458,0.0
11364,-10029,22520,0.0
11347,-9728,22565,0.0
11316,-9418,22582,0.0
11325,-9140,22675,0.0
11336,-8865,22772,0.0
11348,-8590,22873,0.0
11295,-8267,22837,0.0
11323,-8003,22967,0.0
11313,-7714,23019,0.0
11314,-7431,23090,0.0
11326,-7157,23184,0.0
11308,-6863,23215,0.0
11310,-6582,23288,0.0
11308,-6299,23351,0.0
11314,-6019,23430,0.0
11301,-5731,23468,0.0
11289,-5443,23507,0.0
11326,-5178,23647,0.0
11308,-4887,23672,0.0
11309,-4605,23735,0.0
11292,-4314,23758,0.0
11307,-4037,23853,0.0
11292,-3748,23878,0.0
11306,-3468,23968,0.0
11305,-3182,24022,0.0
11312,-2899,24093,0.0
11295,-2609,24115,0.0
11309,-2326,24200,0.0
11325,-2042,24288,0.0
11323,-1753,24338,0.0
11342,-1466,24432,0.0
10942,-1135,23622,0.0
10798,-842,23360,0.0
10845,-567,23509,0.0
10839,-287,23546,0.0
10838,-6,23591,0.0
10836,274,23633,0.0
10854,558,23717,0.0
10867,843,23793,0.0
10894,1131,23896,0.0
10910,1421,23974,0.0
10894,1707,23981,0.0
10910,2000,24059,0.0
10926,2295,24138,0.0
10948,2593,24229,0.0
10935,2885,24241,0.0
10957,3188,24329,0.0
10956,3487,24367,0.0
10980,3795,24460,0.0
11000,4105,24540,0.0
11020,4417,24623,0.0
11044,4735,24714,0.0
11024,5036,24708,0.0
11045,5356,24788,0.0
3549,1821,7976,0.0
3513,1903,7908,0.0
3457,1972,7792,0.0
19,12,47,0.0
26,16,62,0.0
23,15,55,0.0
24,17,57,0.0
30,21,69,0.0
27,20,63,0.0
28,22,65,0.0
35,29,83,0.0
35,30,81,0.0
37,32,88,0.0
39,36,91,0.0
41,39,96,0.0
43,42,100,0.0
44,44,102,0.0
45,47,105,0.0
43,46,100,0.0
47,51,108,0.0
49,55,114,0.0
51,60,119,0.0
51,61,119,0.0
49,60,114,0.0
48,62,112,0.0
51,66,119,0.0
53,72,125,0.0
52,73,122,0.0
54,77,127,0.0
52,74,119,0.0
54,79,124,0.0
54,81,125,0.0
52,82,122,0.0
54,86,126,0.0
51,84,119,0.0
49,83,116,0.0
48,83,113,0.0
48,84,111,0.0
46,86,111,0.0
48,90,113,0.0
46,87,108,0.0
45,88,107,0.0
49,97,115,0.0
49,101,116,0.0
47,98,111,0.0
50,106,117,0.0
48,105,113,0.0
48,107,113,0.0
49,111,114,0.0
47,110,111,0.0
51,123,122,0.0
51,123,119,0.0
50,123,116,0.0
50,126,117,0.0
50,129,117,0.0
50,133,118,0.0
51,136,118,0.0
49,136,115,0.0
71,-265,65,0.0
74,-271,69,0.0
75,-271,72,0.0
76,-268,75,0.0
75,-262,77,0.0
75,-262,80,0.0
76,-258,81,0.0
78,-262,86,0.0
77,-253,86,0.0
83,-269,95,0.0
82,-261,95,0.0
84,-264,99,0.0
84,-261,101,0.0
86,-264,106,0.0
88,-266,110,0.0
89,-265,113,0.0
89,-263,116,0.0
91,-261,119,0.0
89,-253,118,0.0
92,-259,124,0.0
93,-255,126,0.0
95,-259,131,0.0
96,-258,135,0.0
92,-242,130,0.0
105,-274,151,0.0
106,-272,155,0.0
100,-255,149,0.0
101,-252,150,0.0
98,-242,148,0.0
93,-225,141,0.0
81,-192,123,0.0
84,-195,129,0.0
832,-1913,1293,0.0
0,0,0,0.0
0,0,0,0.0
0,0,0,0.0
0,0,0,0.0
0,0,0,0.0
0,0,0,0.0
0,0,0,0.0
0,0,0,0.0
0,0,0,0.0
12519,-24641,21098,0.0
12544,-24296,21291,0.0
12523,-23869,21406,0.0
11056,-20734,19030,0.0
11066,-20414,19173,0.0
11049,-20048,19269,0.0
11024,-19671,19349,0.0
11003,-19306,19434,0.0
10962,-18910,19482,0.0
10961,-18585,19597,0.0
10944,-18239,19683,0.0
10866,-17792,19654,0.0
10894,-17525,19817,0.0
10851,-17147,19850,0.0
10826,-16798,19911,0.0
10795,-16444,19959,0.0
10869,-16252,20201,0.0
11109,-16300,20754,0.0
11268,-16220,21157,0.0
11243,-15874,21215,0.0
11269,-15598,21364,0.0
11209,-15208,21351,0.0
11213,-14909,21459,0.0
11201,-14590,21535,0.0
11187,-14268,21605,0.0
11167,-13941,21659,0.0
11151,-13622,21722,0.0
11154,-13328,21821,0.0
11123,-12995,21850,0.0
11105,-12679,21904,0.0
11107,-12389,21999,0.0
11077,-12064,22025,0.0
11045,-11737,22045,0.0
11039,-11442,22118,0.0
11055,-11171,22235,0.0
11040,-10868,22286,0.0
11052,-10592,22391,0.0
11061,-10314,22490,0.0
11024,-9993,22492,0.0
11039,-9722,22600,0.0
11039,-9437,22677,0.0
11025,-9141,22725,0.0
11041,-8870,22833,0.0
11026,-8575,22875,0.0
11044,-8306,22986,0.0
11027,-8010,23022,0.0
11026,-7727,23091,0.0
10998,-7425,23102,0.0
11017,-7156,23210,0.0
11002,-6865,23247,0.0
11040,-6606,23395,0.0
11031,-6319,23443,0.0
11071,-6059,23594,0.0
11069,-5774,23655,0.0
11037,-5475,23650,0.0
11053,-5201,23748,0.0
11063,-4923,23833,0.0
11035,-4627,23834,0.0
11064,-4355,23957,0.0
11073,-4074,24036,0.0
11056,-3783,24062,0.0
11042,-3493,24087,0.0
11048,-3210,24160,0.0
11055,-2927,24231,0.0
11070,-2644,24322,0.0
11097,-2362,24435,0.0
11060,-2067,24408,0.0
11072,-1780,24493,0.0
11023,-1484,24436,0.0
10744,-1164,23871,0.0
10485,-860,23344,0.0
10537,-587,23507,0.0
10533,-309,23548,0.0
10535,-29,23600,0.0
10561,251,23704,0.0
10551,532,23728,0.0
10567,817,23812,0.0
10553,1100,23825,0.0
10575,1388,23920,0.0
10600,1679,24018,0.0
10597,1967,24056,0.0
10625,2264,24165,0.0
10612,2554,24175,0.0
10630,2852,24258,0.0
10628,3146,24292,0.0
10666,3456,24422,0.0
10685,3762,24505,0.0
10701,4070,24581,0.0
10710,4377,24640,0.0
10685,4673,24619,0.0
10710,4992,24716,0.0
10746,5320,24838,0.0
3469,1818,8031,0.0
3438,1903,7972,0.0
3357,1957,7793,0.0
21,13,50,0.0
15,10,37,0.0
24,16,57,0.0
17,12,42,0.0
20,14,48,0.0
33,25,79,0.0
22,18,55,0.0
36,29,84,0.0
28,24,67,0.0
33,29,78,0.0
36,33,86,0.0
35,34,84,0.0
38,37,90,0.0
40,41,95,0.0
43,46,104,0.0
40,44,96,0.0
43,49,104,0.0
51,60,124,0.0
47,55,112,0.0
49,61,117,0.0
50,64,121,0.0
46,60,110,0.0
48,64,115,0.0
48,65,114,0.0
48,67,115,0.0
47,68,114,0.0
50,74,120,0.0
49,75,118,0.0
49,76,116,0.0
47,76,115,0.0
44,73,107,0.0
46,78,111,0.0
46,80,112,0.0
44,77,105,0.0
46,83,111,0.0
46,87,113,0.0
43,81,103,0.0
43,86,106,0.0
45,89,109,0.0
42,86,102,0.0
44,92,106,0.0
42,93,105,0.0
45,99,110,0.0
42,95,103,0.0
45,104,111,0.0
41,97,101,0.0
45,109,111,0.0
46,113,112,0.0
45,112,110,0.0
46,116,110,0.0
46,120,112,0.0
46,122,111,0.0
47,126,112,0.0
47,130,113,0.0
46,132,112,0.0
69,-268,67,0.0
72,-271,71,0.0
71,-264,72,0.0
73,-266,75,0.0
73,-266,78,0.0
76,-269,82,0.0
76,-265,84,0.0
77,-265,88,0.0
77,-263,90,0.0
80,-271,96,0.0
80,-264,97,0.0
79,-260,99,0.0
82,-265,105,0.0
84,-265,107,0.0
85,-267,112,0.0
85,-262,113,0.0
88,-264,117,0.0
90,-267,122,0.0
91,-268,127,0.0
92,-267,129,0.0
92,-261,129,0.0
91,-256,131,0.0
95,-263,138,0.0
96,-259,140,0.0
105,-281,156,0.0
104,-274,156,0.0
105,-274,160,0.0
95,-245,147,0.0
93,-234,144,0.0
92,-228,144,0.0
84,-206,133,0.0
78,-188,125,0.0
817,-1934,1314,0.0
0,0,0,0.0
0,0,0,0.0
0,0,0,0.0
0,0,0,0.0
0,0,0,0.0
10955,-23625,18522,0.0
10928,-23200,18619,0.0
10899,-22775,18708,0.0
10854,-22327,18771,0.0
10818,-21899,18843,0.0
10817,-21548,18974,0.0
10769,-21107,19020,0.0
10767,-20762,19143,0.0
10698,-20294,19147,0.0
10719,-19999,19309,0.0
10689,-19612,19377,0.0
10657,-19225,19437,0.0
10640,-18868,19522,0.0
10602,-18481,19568,0.0
10584,-18132,19649,0.0
10545,-17749,19688,0.0
10544,-17434,19794,0.0
10520,-17086,19858,0.0
10508,-16757,19939,0.0
10511,-16458,20051,0.0
10578,-16254,20282,0.0
10840,-16346,20889,0.0
10977,-16237,21256,0.0
10974,-15921,21354,0.0
10963,-15596,21436,0.0
10946,-15261,21500,0.0
10966,-14982,21639,0.0
10996,-14716,21795,0.0
10979,-14388,21856,0.0
10973,-14077,21940,0.0
10977,-13779,22041,0.0
11007,-13516,22195,0.0
10997,-13203,22266,0.0
10998,-12904,22358,0.0
11011,-12621,22474,0.0
11032,-12345,22601,0.0
11025,-12040,22675,0.0
11027,-11746,22766,0.0
11024,-11447,22844,0.0
11029,-11156,22935,0.0
11061,-10893,23085,0.0
11013,-10553,23067,0.0
11055,-10300,23237,0.0
11045,-9998,23294,0.0
11035,-9696,23350,0.0
11048,-9416,23456,0.0
11000,-9084,23429,0.0
11051,-8836,23613,0.0
11047,-8541,23678,0.0
11029,-8237,23714,0.0
11002,-7928,23728,0.0
11065,-7683,23935,0.0
11061,-7390,23999,0.0
11049,-7093,24043,0.0
11068,-6813,24151,0.0
11033,-6503,24144,0.0
11095,-6248,24348,0.0
11064,-5941,24347,0.0
11087,-5662,24463,0.0
11044,-5351,24432,0.0
11043,-5061,24495,0.0
11034,-4767,24539,0.0
11070,-4491,24682,0.0
11062,-4197,24726,0.0
11072,-3907,24806,0.0
11101,-3624,24934,0.0
11089,-3328,24969,0.0
11103,-3037,25056,0.0
11098,-2741,25104,0.0
11079,-2441,25119,0.0
11084,-2147,25188,0.0
11115,-1856,25315,0.0
10699,-1500,24422,0.0
10458,-1184,23923,0.0
10174,-878,23322,0.0
10211,-606,23459,0.0
10225,-329,23536,0.0
10231,-51,23599,0.0
10246,228,23682,0.0
10230,508,23695,0.0
10252,791,23790,0.0
10259,1074,23851,0.0
10260,1359,23898,0.0
10280,1648,23991,0.0
10288,1937,24055,0.0
10289,2226,24100,0.0
10307,2522,24185,0.0
10328,2819,24275,0.0
10330,3115,24322,0.0
10337,3413,24381,0.0
10341,3712,24431,0.0
10365,4021,24530,0.0
10382,4331,24611,0.0
10387,4638,24660,0.0
10400,4951,24731,0.0
10406,5262,24782,0.0
3367,1803,8031,0.0
3336,1888,7971,0.0
3255,1940,7789,0.0
19,12,47,0.0
23,15,56,0.0
17,11,43,0.0
20,13,48,0.0
21,16,53,0.0
28,21,68,0.0
33,27,82,0.0
35,29,86,0.0
30,26,74,0.0
37,34,91,0.0
42,41,105,0.0
32,32,79,0.0
42,42,103,0.0
36,38,89,0.0
41,44,102,0.0
42,47,104,0.0
41,47,102,0.0
44,52,109,0.0
43,53,107,0.0
45,57,112,0.0
51,67,129,0.0
46,62,115,0.0
48,66,120,0.0
48,68,119,0.0
47,69,118,0.0
48,71,120,0.0
47,72,116,0.0
47,76,119,0.0
49,78,121,0.0
48,80,121,0.0
46,77,113,0.0
47,82,118,0.0
46,82,114,0.0
46,84,115,0.0
45,85,113,0.0
45,88,115,0.0
42,84,106,0.0
42,85,106,0.0
45,93,114,0.0
44,93,112,0.0
40,88,103,0.0
43,95,108,0.0
44,100,112,0.0
41,97,106,0.0
43,101,107,0.0
43,105,110,0.0
44,109,112,0.0
44,110,110,0.0
44,113,111,0.0
44,117,112,0.0
45,121,113,0.0
45,124,113,0.0
45,127,114,0.0
45,131,115,0.0
44,132,113,0.0
70,-276,70,0.0
68,-267,71,0.0
72,-279,77,0.0
69,-262,75,0.0
73,-274,82,0.0
75,-276,85,0.0
75,-272,88,0.0
78,-277,93,0.0
77,-270,93,0.0
79,-274,99,0.0
80,-274,101,0.0
80,-271,104,0.0
83,-275,109,0.0
81,-265,109,0.0
84,-272,114,0.0
85,-270,118,0.0
85,-268,120,0.0
86,-264,122,0.0
89,-271,128,0.0
89,-266,130,0.0
89,-262,132,0.0
92,-264,136,0.0
95,-269,143,0.0
94,-264,144,0.0
105,-291,163,0.0
103,-280,160,0.0
102,-273,160,0.0
95,-251,152,0.0
90,-234,145,0.0
88,-227,144,0.0
87,-220,143,0.0
80,-200,133,0.0
0,0,0,0.0
0,0,0,0.0
0,0,0,0.0
0,0,0,0.0
0,0,0,0.0
0,0,0,0.0
10589,-23512,18527,0.0
10576,-23116,18645,0.0
10556,-22712,18748,0.0
10517,-22267,18812,0.0
10483,-21844,18884,0.0
10475,-21478,19001,0.0
10429,-21040,19046,0.0
10406,-20650,19127,0.0
10390,-20280,19221,0.0
10380,-19927,19325,0.0
10340,-19519,19369,0.0
10334,-19180,19475,0.0
10303,-18798,19531,0.0
10265,-18408,19572,0.0
10269,-18098,19691,0.0
10250,-17747,19763,0.0
10233,-17405,19838,0.0
10200,-17038,19880,0.0
10176,-16692,19938,0.0
10187,-16404,20061,0.0
10310,-16295,20406,0.0
10545,-16352,20973,0.0
10717,-16305,21420,0.0
10979,-16381,22047,0.0
10998,-16087,22187,0.0
10970,-15730,22234,0.0
10973,-15416,22338,0.0
10960,-15083,22410,0.0
10985,-14803,22560,0.0
10997,-14506,22679,0.0
10990,-14185,22760,0.0
10989,-13874,22852,0.0
10976,-13549,22918,0.0
10996,-13266,23050,0.0
10990,-12951,23127,0.0
11028,-12689,23295,0.0
10996,-12348,23318,0.0
11019,-12070,23454,0.0
11024,-11772,23550,0.0
11030,-11473,23646,0.0
11005,-11146,23678,0.0
11005,-10845,23759,0.0
11026,-10565,23886,0.0
11031,-10269,23977,0.0
11043,-9979,24082,0.0
11065,-9699,24208,0.0
11036,-9375,24223,0.0
11063,-9098,24359,0.0
11047,-8787,24399,0.0
11076,-8512,24541,0.0
11047,-8191,24548,0.0
11055,-7899,24642,0.0
11063,-7606,24731,0.0
11070,-7313,24819,0.0
11078,-7021,24908,0.0
11086,-6728,24996,0.0
11069,-6419,25025,0.0
11076,-6126,25112,0.0
11079,-5828,25185,0.0
11059,-5520,25204,0.0
11050,-5218,25251,0.0
11097,-4943,25426,0.0
11061,-4627,25407,0.0
11095,-4341,25546,0.0
11091,-4039,25602,0.0
11070,-3732,25617,0.0
11060,-3429,25656,0.0
11075,-3132,25751,0.0
11094,-2835,25854,0.0
11100,-2533,25928,0.0
11053,-2221,25877,0.0
10986,-1906,25781,0.0
10453,-1526,24582,0.0
10165,-1204,23959,0.0
9912,-900,23412,0.0
9914,-625,23466,0.0
9923,-350,23537,0.0
9936,-72,23617,0.0
9938,205,23670,0.0
9949,485,23742,0.0
9960,767,23814,0.0
9955,1049,23851,0.0
9977,1334,23949,0.0
9985,1621,24014,0.0
9965,1904,24013,0.0
9989,2197,24113,0.0
10010,2492,24207,0.0
10022,2787,24281,0.0
10026,3081,24335,0.0
10030,3378,24386,0.0
10047,3680,24468,0.0
10059,3985,24540,0.0
10070,4291,24606,0.0
10073,4597,24656,0.0
10093,4911,24744,0.0
10108,5227,24820,0.0
3287,1800,8084,0.0
3241,1876,7983,0.0
19,11,47,0.0
17,11,44,0.0
19,13,49,0.0
19,13,47,0.0
22,16,57,0.0
26,20,65,0.0
30,24,77,0.0
27,23,71,0.0
36,31,92,0.0
31,29,80,0.0
36,33,91,0.0
39,39,100,0.0
39,40,100,0.0
33,35,85,0.0
38,41,98,0.0
39,44,102,0.0
41,47,105,0.0
43,51,110,0.0
43,53,111,0.0
44,56,114,0.0
46,61,120,0.0
48,65,125,0.0
48,65,122,0.0
45,64,117,0.0
47,68,120,0.0
48,72,125,0.0
48,73,124,0.0
50,79,129,0.0
50,81,129,0.0
44,74,116,0.0
44,75,113,0.0
42,74,110,0.0
48,87,126,0.0
47,87,122,0.0
47,89,123,0.0
43,84,113,0.0
43,84,111,0.0
45,90,116,0.0
44,90,113,0.0
42,90,111,0.0
44,97,116,0.0
44,97,114,0.0
41,94,106,0.0
41,96,108,0.0
42,100,110,0.0
41,101,109,0.0
40,101,106,0.0
42,105,109,0.0
42,110,111,0.0
44,116,115,0.0
43,118,113,0.0
41,116,110,0.0
43,125,115,0.0
44,128,115,0.0
42,127,112,0.0
44,134,116,0.0
67,-279,72,0.0
69,-280,75,0.0
71,-284,79,0.0
73,-284,83,0.0
73,-283,85,0.0
72,-277,87,0.0
74,-278,90,0.0
75,-277,94,0.0
77,-281,98,0.0
76,-276,100,0.0
79,-278,104,0.0
80,-278,108,0.0
81,-278,112,0.0
81,-276,114,0.0
84,-280,119,0.0
84,-277,121,0.0
85,-274,124,0.0
87,-276,128,0.0
88,-273,131,0.0
90,-278,137,0.0
87,-266,135,0.0
90,-270,141,0.0
90,-265,142,0.0
93,-268,147,0.0
103,-294,166,0.0
101,-285,164,0.0
102,-284,168,0.0
98,-268,163,0.0
92,-248,153,0.0
86,-230,146,0.0
86,-226,148,0.0
83,-214,143,0.0
782,-1964,1350,0.0
0,0,0,0.0
0,0,0,0.0
0,0,0,0.0
0,0,0,0.0
0,0,0,0.0
10235,-23420,18546,0.0
10214,-23006,18646,0.0
10204,-22618,18760,0.0
10164,-22174,18821,0.0
10109,-21699,18847,0.0
10125,-21387,19007,0.0
10083,-20951,19051,0.0
10085,-20613,19177,0.0
10065,-20234,19260,0.0
10042,-19852,19335,0.0
10015,-19469,19400,0.0
9992,-19098,19471,0.0
9986,-18759,19570,0.0
9959,-18387,19629,0.0
9936,-18026,19692,0.0
9901,-17646,19727,0.0
9915,-17360,19863,0.0
9888,-17003,19912,0.0
9871,-16667,19982,0.0
9865,-16350,20068,0.0
10049,-16347,20544,0.0
10294,-16431,21148,0.0
10441,-16346,21549,0.0
10749,-16504,22290,0.0
10897,-16404,22699,0.0
10991,-16217,22998,0.0
11011,-15919,23142,0.0
10958,-15517,23130,0.0
10997,-15250,23312,0.0
10982,-14906,23377,0.0
10972,-14572,23450,0.0
10996,-14286,23599,0.0
10983,-13949,23663,0.0
11002,-13658,23799,0.0
10986,-13323,23855,0.0
11058,-13093,24101,0.0
11036,-12752,24143,0.0
11074,-12482,24316,0.0
11002,-12089,24245,0.0
11025,-11802,24379,0.0
11038,-11504,24494,0.0
11007,-11164,24511,0.0
11050,-10897,24690,0.0
11026,-10564,24716,0.0
11053,-10281,24857,0.0
11065,-9983,24966,0.0
11066,-9676,25046,0.0
11073,-9375,25142,0.0
11098,-9088,25277,0.0
11059,-8748,25263,0.0
11068,-8450,25361,0.0
11067,-8143,25435,0.0
11069,-7838,25512,0.0
11043,-7514,25525,0.0
11054,-7216,25622,0.0
11049,-6908,25683,0.0
11093,-6629,25858,0.0
11080,-6315,25897,0.0
11074,-6005,25952,0.0
11089,-5707,26054,0.0
11068,-5390,26075,0.0
11060,-5080,26122,0.0
11071,-4779,26215,0.0
11098,-4483,26347,0.0
11071,-4164,26347,0.0
11097,-3865,26471,0.0
11093,-3555,26526,0.0
11082,-3241,26563,0.0
11077,-2930,26612,0.0
11112,-2628,26758,0.0
11114,-2316,26826,0.0
10873,-1960,26303,0.0
10179,-1548,24679,0.0
9866,-1220,23973,0.0
9611,-916,23403,0.0
9565,-639,23342,0.0
9618,-368,23523,0.0
9621,-93,23578,0.0
9632,183,23652,0.0
9646,462,23737,0.0
9659,743,23815,0.0
9646,1023,23829,0.0
9668,1307,23931,0.0
9676,1593,23998,0.0
9683,1879,24060,0.0
9690,2167,24123,0.0
9695,2457,24181,0.0
9700,2749,24235,0.0
9713,3045,24314,0.0
9722,3342,24380,0.0
9740,3645,24467,0.0
9757,3949,24553,0.0
9754,4249,24590,0.0
9755,4551,24633,0.0
9781,4869,24740,0.0
9780,5175,24776,0.0
3181,1784,8074,0.0
3154,1868,8016,0.0
22,13,58,0.0
25,16,64,0.0
22,14,57,0.0
25,18,65,0.0
29,22,76,0.0
28,22,74,0.0
26,22,70,0.0
32,28,85,0.0
34,31,91,0.0
30,27,78,0.0
38,37,100,0.0
41,40,106,0.0
39,41,104,0.0
42,45,111,0.0
44,49,118,0.0
44,51,116,0.0
42,50,111,0.0
43,52,113,0.0
52,65,138,0.0
48,62,126,0.0
54,72,144,0.0
46,63,123,0.0
50,70,131,0.0
50,73,132,0.0
47,71,126,0.0
48,74,128,0.0
50,80,135,0.0
49,80,132,0.0
51,84,135,0.0
49,85,132,0.0
51,88,135,0.0
47,85,126,0.0
47,87,127,0.0
45,85,120,0.0
46,90,126,0.0
46,92,125,0.0
42,87,115,0.0
42,89,115,0.0
42,90,114,0.0
41,91,112,0.0
42,96,115,0.0
39,92,109,0.0
41,99,114,0.0
40,96,108,0.0
41,102,112,0.0
40,100,108,0.0
38,97,103,0.0
40,105,108,0.0
44,117,118,0.0
41,112,112,0.0
43,120,116,0.0
40,115,109,0.0
41,120,111,0.0
42,126,115,0.0
42,131,115,0.0
42,134,116,0.0
61,-266,69,0.0
62,-264,71,0.0
63,-264,74,0.0
65,-264,78,0.0
68,-271,83,0.0
69,-275,87,0.0
67,-265,87,0.0
69,-265,90,0.0
70,-264,93,0.0
73,-270,99,0.0
73,-268,101,0.0
75,-271,106,0.0
75,-268,108,0.0
76,-266,111,0.0
78,-269,115,0.0
79,-266,118,0.0
79,-262,119,0.0
82,-268,125,0.0
84,-272,131,0.0
83,-265,132,0.0
84,-263,133,0.0
84,-260,136,0.0
86,-262,140,0.0
87,-262,144,0.0
93,-273,155,0.0
95,-276,160,0.0
95,-271,161,0.0
86,-241,147,0.0
88,-244,153,0.0
82,-224,144,0.0
77,-208,138,0.0
72,-191,129,0.0
67,-175,120,0.0
751,-1920,1359,0.0
0,0,0,0.0
0,0,0,0.0
0,0,0,0.0
0,0,0,0.0
9876,-23309,18548,0.0
9878,-22946,18685,0.0
9840,-22494,18744,0.0
9818,-22086,18832,0.0
9799,-21689,18923,0.0
9789,-21316,19027,0.0
9775,-20939,19123,0.0
9741,-20524,19176,0.0
9723,-20148,19259,0.0
9692,-19748,19313,0.0
9668,-19369,19380,0.0
9642,-18990,19439,0.0
9643,-18666,19551,0.0
9627,-18316,19628,0.0
9617,-17976,19713,0.0
9587,-17606,19757,0.0
9598,-17313,19883,0.0
9550,-16917,19885,0.0
9543,-16598,19971,0.0
9550,-16304,20083,0.0
9736,-16314,20574,0.0
9966,-16382,21157,0.0
10142,-16354,21633,0.0
10446,-16519,22383,0.0
10662,-16529,22948,0.0
10960,-16654,23694,0.0
10961,-16320,23800,0.0
11009,-16055,24004,0.0
10986,-15689,24056,0.0
11000,-15376,24184,0.0
11001,-15046,24283,0.0
10994,-14707,24364,0.0
10963,-14341,24393,0.0
0,0,0,0.0
0,0,0,0.0
0,0,0,0.0
11448,-13622,25853,1.0
11509,-13358,26087,1.0
0,0,0,0.0
11462,-12635,26163,1.0
11508,-12353,26360,1.0
11444,-11953,26301,1.0
11477,-11655,26463,1.0
0,0,0,0.0
0,0,0,0.0
0,0,0,0.0
0,0,0,0.0
11576,-10097,27123,1.0
11610,-9794,27284,1.0
11620,-9472,27392,1.0
11560,-9094,27329,1.0
11578,-8778,27452,1.0
0,0,0,0.0
0,0,0,0.0
11818,-7953,28262,1.0
0,0,0,0.0
11814,-7279,28409,1.0
11836,-6956,28537,1.0
11793,-6597,28511,1.0
0,0,0,0.0
0,0,0,0.0
0,0,0,0.0
11802,-5260,28828,1.0
0,0,0,0.0
0,0,0,0.0
12056,-4341,29668,1.0
0,0,0,0.0
0,0,0,0.0
12086,-3312,29953,1.0
0,0,0,0.0
12075,-2612,30065,1.0
10702,-2006,26708,0.0
9918,-1572,24805,0.0
9586,-1240,24027,0.0
9281,-930,23315,0.0
9201,-653,23164,0.0
9346,-388,23580,0.0
9343,-113,23624,0.0
9344,162,23673,0.0
9336,439,23702,0.0
9350,718,23787,0.0
9361,999,23865,0.0
9360,1281,23907,0.0
9372,1564,23985,0.0
9374,1849,24037,0.0
9386,2138,24115,0.0
9408,2430,24215,0.0
9395,2717,24230,0.0
9401,3010,24291,0.0
9422,3309,24389,0.0
9420,3603,24427,0.0
9443,3910,24531,0.0
9446,4210,24583,0.0
9463,4519,24669,0.0
9461,4822,24707,0.0
9475,5135,24786,0.0
3081,1769,8074,0.0
3073,1866,8069,0.0
3052,1954,8026,0.0
3056,2058,8048,0.0
16,11,44,0.0
14,10,39,0.0
16,13,46,0.0
16,14,46,0.0
21,18,59,0.0
31,28,85,0.0
24,21,64,0.0
27,27,76,0.0
35,35,95,0.0
35,36,96,0.0
35,37,97,0.0
33,37,92,0.0
36,41,98,0.0
36,42,99,0.0
44,54,121,0.0
40,49,109,0.0
46,60,126,0.0
38,50,104,0.0
38,53,106,0.0
43,60,118,0.0
44,64,120,0.0
42,64,117,0.0
44,67,120,0.0
45,73,126,0.0
41,67,114,0.0
41,68,112,0.0
41,70,113,0.0
44,79,125,0.0
44,79,122,0.0
40,73,110,0.0
41,78,115,0.0
38,74,106,0.0
40,81,112,0.0
40,84,114,0.0
39,83,110,0.0
40,86,113,0.0
39,85,108,0.0
36,81,100,0.0
38,88,107,0.0
36,86,102,0.0
36,87,101,0.0
36,89,102,0.0
35,90,100,0.0
37,98,106,0.0
37,98,104,0.0
37,103,106,0.0
37,103,104,0.0
38,108,107,0.0
38,111,108,0.0
38,114,108,0.0
37,113,105,0.0
38,121,110,0.0
39,124,112,0.0
39,127,111,0.0
60,-269,71,0.0
61,-271,74,0.0
63,-275,78,0.0
62,-268,80,0.0
67,-283,87,0.0
67,-276,88,0.0
67,-272,91,0.0
68,-272,93,0.0
67,-265,95,0.0
71,-275,101,0.0
72,-274,104,0.0
72,-271,106,0.0
74,-273,110,0.0
75,-272,114,0.0
77,-274,118,0.0
76,-270,120,0.0
77,-267,123,0.0
79,-269,127,0.0
80,-268,130,0.0
82,-271,135,0.0
80,-262,133,0.0
82,-264,139,0.0
84,-262,142,0.0
88,-272,151,0.0
92,-282,161,0.0
92,-278,163,0.0
87,-257,154,0.0
83,-244,149,0.0
79,-228,143,0.0
73,-209,134,0.0
72,-201,133,0.0
66,-183,124,0.0
718,-1926,1337,0.0
750,-1980,1409,0.0
0,0,0,0.0
0,0,0,0.0
0,0,0,0.0
9506,-23537,18386,0.0
9540,-23248,18584,0.0
9513,-22815,18664,0.0
9483,-22377,18731,0.0
9494,-22047,18882,0.0
9461,-21612,18938,0.0
9457,-21251,19051,0.0
9417,-20816,19091,0.0
9416,-20471,19206,0.0
9394,-20082,19276,0.0
9378,-19712,19356,0.0
9349,-19321,19409,0.0
9333,-18958,19483,0.0
9311,-18589,19545,0.0
9312,-18271,19655,0.0
9294,-17915,19718,0.0
9265,-17545,19760,0.0
9244,-17194,19817,0.0
9220,-16840,19864,0.0
9217,-16529,19956,0.0
9234,-16252,20088,0.0
9439,-16303,20630,0.0
9649,-16351,21188,0.0
9833,-16346,21692,0.0
10142,-16532,22471,0.0
10436,-16678,23226,0.0
0,0,0,0.0
11110,-17049,24938,1.0
11081,-16657,24978,1.0
11044,-16255,24997,1.0
11135,-16041,25303,1.0
11132,-15693,25399,1.0
11179,-15414,25605,1.0
0,0,0,0.0
0,0,0,0.0
11115,-14304,25747,1.0
11151,-14013,25926,1.0
11198,-13731,26125,1.0
11223,-13424,26278,1.0
11181,-13038,26273,1.0
11162,-12681,26317,1.0
11126,-12309,26323,1.0
11166,-12020,26504,1.0
0,0,0,0.0
11247,-11439,26871,1.0
11254,-11113,26972,1.0
0,0,0,0.0
11336,-10527,27342,1.0
11315,-10174,27374,1.0
11299,-9827,27417,1.0
11329,-9520,27572,1.0
11272,-9143,27515,1.0
0,0,0,0.0
0,0,0,0.0
11489,-8311,28286,1.0
11508,-7989,28414,1.0
11531,-7669,28548,1.0
11526,-7329,28615,1.0
0,0,0,0.0
11464,-6620,28612,1.0
11477,-6292,28719,1.0
0,0,0,0.0
11474,-5619,28859,1.0
11665,-5371,29414,1.0
0,0,0,0.0
11701,-4702,29652,1.0
11738,-4372,29818,1.0
11761,-4034,29948,1.0
11747,-3683,29985,1.0
0,0,0,0.0
11796,-3000,30251,1.0
11727,-2635,30143,1.0
11754,-2291,30282,1.0
9666,-1597,24959,0.0
9336,-1262,24160,0.0
9027,-950,23412,0.0
8872,-666,23062,0.0
9027,-406,23516,0.0
9044,-133,23609,0.0
9029,141,23620,0.0
9046,418,23714,0.0
9026,693,23710,0.0
9062,974,23855,0.0
9068,1255,23918,0.0
9076,1538,23986,0.0
9074,1821,24031,0.0
9078,2106,24085,0.0
9096,2398,24180,0.0
9085,2682,24200,0.0
9099,2977,24284,0.0
9108,3271,24352,0.0
9127,3572,24449,0.0
9131,3870,24507,0.0
9145,4174,24587,0.0
9138,4471,24611,0.0
9142,4776,24670,0.0
9162,5091,24767,0.0
2980,1756,8071,0.0
3018,1880,8189,0.0
3008,1976,8175,0.0
3001,2074,8169,0.0
2990,2170,8155,0.0
14,10,39,0.0
22,18,63,0.0
23,20,67,0.0
28,25,79,0.0
19,17,54,0.0
25,23,70,0.0
25,25,72,0.0
31,32,88,0.0
32,34,92,0.0
31,34,89,0.0
32,37,92,0.0
33,39,93,0.0
34,41,97,0.0
40,51,114,0.0
36,47,102,0.0
39,53,112,0.0
37,52,108,0.0
40,57,115,0.0
42,60,118,0.0
45,67,127,0.0
41,63,117,0.0
41,65,118,0.0
44,73,127,0.0
44,73,125,0.0
44,75,125,0.0
43,77,123,0.0
43,79,124,0.0
45,84,130,0.0
43,81,122,0.0
43,86,126,0.0
43,87,126,0.0
43,91,127,0.0
41,88,120,0.0
40,86,116,0.0
41,92,120,0.0
38,87,112,0.0
36,85,107,0.0
36,86,105,0.0
38,93,110,0.0
35,89,104,0.0
35,93,106,0.0
35,93,105,0.0
35,94,103,0.0
34,95,101,0.0
36,103,107,0.0
37,107,110,0.0
36,107,107,0.0
35,107,104,0.0
36,113,108,0.0
37,117,109,0.0
37,120,110,0.0
38,128,115,0.0
37,126,112,0.0
54,-285,78,0.0
51,-271,77,0.0
54,-279,83,0.0
56,-283,88,0.0
57,-284,90,0.0
58,-282,94,0.0
59,-288,99,0.0
61,-286,102,0.0
60,-282,104,0.0
61,-280,107,0.0
63,-279,110,0.0
64,-283,115,0.0
65,-279,117,0.0
65,-276,119,0.0
67,-280,125,0.0
67,-276,126,0.0
67,-274,128,0.0
69,-275,134,0.0
72,-283,141,0.0
72,-277,142,0.0
70,-266,140,0.0
73,-270,145,0.0
85,-309,172,0.0
82,-295,167,0.0
77,-274,159,0.0
74,-258,154,0.0
73,-251,154,0.0
65,-222,139,0.0
64,-213,137,0.0
65,-213,141,0.0
65,-209,141,0.0
61,-192,133,0.0
0,0,0,0.0
642,-1955,1417,0.0
0,0,0,0.0
0,0,0,0.0
0,0,0,0.0
8210,-23371,18580,0.0
8191,-22937,18657,0.0
8192,-22565,18777,0.0
8178,-22154,18858,0.0
8173,-21775,18960,0.0
8171,-21406,19065,0.0
8139,-20965,19098,0.0
8144,-20625,19216,0.0
8118,-20215,19263,0.0
8080,-19778,19275,0.0
8101,-19490,19428,0.0
8070,-19081,19453,0.0
8080,-18772,19575,0.0
8082,-18447,19675,0.0
8060,-18075,19720,0.0
8039,-17706,19762,0.0
8024,-17354,19814,0.0
8028,-17049,19916,0.0
7936,-16544,19776,0.0
8025,-16421,20087,0.0
8078,-16223,20310,0.0
8257,-16268,20847,0.0
8406,-16244,21311,0.0
8635,-16364,21982,0.0
8908,-16550,22769,0.0
0,0,0,0.0
9796,-17483,25240,1.0
9853,-17225,25483,1.0
9878,-16913,25648,1.0
0,0,0,0.0
9886,-16219,25859,1.0
0,0,0,0.0
9877,-15505,26023,1.0
0,0,0,0.0
9861,-14788,26163,1.0
9830,-14400,26170,1.0
9859,-14102,26337,1.0
0,0,0,0.0
9915,-13499,26662,1.0
0,0,0,0.0
9915,-12823,26836,1.0
0,0,0,0.0
0,0,0,0.0
0,0,0,0.0
9986,-11566,27367,1.0
10045,-11297,27610,1.0
10049,-10965,27705,1.0
9954,-10530,27526,1.0
0,0,0,0.0
0,0,0,0.0
10006,-9587,27911,1.0
10081,-9326,28200,1.0
10102,-9009,28336,1.0
0,0,0,0.0
10173,-8400,28690,1.0
10113,-8017,28600,1.0
10171,-7727,28842,1.0
10165,-7388,28900,1.0
10155,-7046,28947,1.0
10119,-6687,28921,1.0
10109,-6349,28969,1.0
10206,-6073,29320,1.0
10166,-5714,29281,1.0
10182,-5386,29399,1.0
10270,-5093,29726,1.0
10272,-4755,29806,1.0
10282,-4418,29909,1.0
0,0,0,0.0
0,0,0,0.0
0,0,0,0.0
10306,-3056,30268,1.0
10392,-2734,30594,1.0
10304,-2364,30405,1.0
8687,-1701,25695,0.0
8235,-1335,24416,0.0
7873,-1010,23395,0.0
7879,-743,23467,0.0
7861,-474,23467,0.0
7858,-204,23511,0.0
7876,64,23617,0.0
7885,336,23694,0.0
7885,610,23749,0.0
7892,885,23821,0.0
7897,1161,23891,0.0
7908,1441,23974,0.0
7906,1720,24023,0.0
7909,2001,24082,0.0
7901,2281,24108,0.0
7909,2567,24184,0.0
7916,2856,24259,0.0
7919,3145,24322,0.0
7926,3437,24391,0.0
7931,3731,24459,0.0
7938,4029,24533,0.0
7954,4334,24633,0.0
7935,4623,24628,0.0
7954,4935,24738,0.0
7960,5242,24805,0.0
7974,5559,24903,0.0
7980,5873,24971,0.0
9,6,28,0.0
12,10,41,0.0
15,13,50,0.0
14,12,44,0.0
22,21,72,0.0
24,23,77,0.0
21,22,70,0.0
25,28,85,0.0
23,26,76,0.0
25,30,85,0.0
26,32,86,0.0
30,37,98,0.0
29,38,95,0.0
32,43,105,0.0
32,43,103,0.0
33,46,108,0.0
36,52,118,0.0
33,51,111,0.0
38,60,126,0.0
40,65,134,0.0
40,66,133,0.0
41,71,139,0.0
43,76,143,0.0
37,67,124,0.0
40,75,134,0.0
43,82,144,0.0
40,79,134,0.0
42,84,139,0.0
40,83,135,0.0
39,86,134,0.0
38,84,128,0.0
39,89,135,0.0
38,89,131,0.0
38,93,132,0.0
37,89,126,0.0
37,92,125,0.0
36,93,124,0.0
33,88,116,0.0
32,87,112,0.0
33,94,117,0.0
33,97,118,0.0
34,99,118,0.0
31,92,107,0.0
32,99,112,0.0
31,99,110,0.0
30,97,106,0.0
31,105,112,0.0
31,104,110,0.0
30,106,108,0.0
30,110,110,0.0
30,110,108,0.0
30,113,107,0.0
30,116,109,0.0
31,120,110,0.0
31,122,110,0.0
42,-278,79,0.0
42,-274,81,0.0
44,-279,86,0.0
44,-276,88,0.0
46,-281,93,0.0
45,-269,92,0.0
47,-278,99,0.0
48,-274,101,0.0
49,-278,106,0.0
50,-279,109,0.0
51,-276,112,0.0
51,-275,114,0.0
51,-269,116,0.0
53,-272,120,0.0
53,-271,123,0.0
54,-271,127,0.0
55,-271,131,0.0
55,-266,132,0.0
57,-270,137,0.0
57,-267,140,0.0
59,-267,144,0.0
62,-276,151,0.0
65,-285,161,0.0
62,-269,156,0.0
61,-260,154,0.0
61,-256,156,0.0
57,-236,147,0.0
58,-232,148,0.0
53,-213,139,0.0
52,-205,138,0.0
52,-200,138,0.0
47,-177,124,0.0
47,-174,125,0.0
43,-159,117,0.0
0,0,0,0.0
0,0,0,0.0
6914,-23543,18585,0.0
6912,-23138,18684,0.0
6902,-22712,18759,0.0
6877,-22241,18789,0.0
6888,-21894,18916,0.0
6864,-21441,18944,0.0
6870,-21089,19055,0.0
6861,-20697,19123,0.0
6872,-20368,19243,0.0
6854,-19961,19284,0.0
6859,-19624,19387,0.0
6854,-19262,19458,0.0
6842,-18889,19512,0.0
6848,-18566,19610,0.0
6850,-18237,19699,0.0
6823,-17839,19708,0.0
6851,-17586,19871,0.0
6821,-17187,19863,0.0
6829,-16888,19965,0.0
6826,-16564,20035,0.0
6829,-16259,20121,0.0
6954,-16241,20566,0.0
7137,-16346,21185,0.0
7242,-16266,21578,0.0
7482,-16474,22372,0.0
7690,-16597,23078,0.0
0,0,0,0.0
0,0,0,0.0
8466,-17178,25671,1.0
0,0,0,0.0
8515,-16558,25995,1.0
8700,-16555,26648,1.0
0,0,0,0.0
8801,-16019,27131,1.0
0,0,0,0.0
8790,-15280,27269,1.0
0,0,0,0.0
8801,-14587,27471,1.0
0,0,0,0.0
8798,-13880,27632,1.0
8825,-13572,27799,1.0
0,0,0,0.0
8609,-12561,27277,1.0
8624,-12243,27403,1.0
8684,-11989,27672,1.0
8655,-11613,27658,1.0
8585,-11186,27513,1.0
8639,-10923,27765,1.0
0,0,0,0.0
0,0,0,0.0
8929,-10261,28936,1.0
0,0,0,0.0
8893,-9538,28972,1.0
0,0,0,0.0
0,0,0,0.0
8963,-8591,29435,1.0
0,0,0,0.0
8968,-7915,29605,1.0
0,0,0,0.0
8743,-7054,29010,1.0
8766,-6741,29165,1.0
8912,-6517,29726,1.0
0,0,0,0.0
0,0,0,0.0
0,0,0,0.0
0,0,0,0.0
9075,-4915,30652,1.0
9077,-4571,30735,1.0
9098,-4235,30882,1.0
0,0,0,0.0
0,0,0,0.0
0,0,0,0.0
8849,-2763,30331,1.0
8832,-2417,30350,1.0
7537,-1772,25964,0.0
7074,-1389,24429,0.0
6776,-1067,23458,0.0
6750,-799,23423,0.0
6751,-534,23481,0.0
6763,-270,23581,0.0
6758,-3,23620,0.0
6751,264,23654,0.0
6765,535,23760,0.0
6761,805,23805,0.0
6764,1078,23873,0.0
6761,1352,23919,0.0
6771,1629,24010,0.0
6773,1907,24075,0.0
6768,2184,24115,0.0
6753,2460,24122,0.0
6768,2748,24236,0.0
6779,3037,24332,0.0
6771,3320,24363,0.0
6781,3615,24458,0.0
6791,3912,24555,0.0
6776,4198,24564,0.0
6773,4491,24609,0.0
6778,4793,24692,0.0
6779,5095,24754,0.0
6778,5398,24812,0.0
6791,5717,24924,0.0
6797,6031,25007,0.0
7,7,28,0.0
8,8,35,0.0
18,19,71,0.0
10,11,43,0.0
12,14,46,0.0
16,19,62,0.0
15,18,58,0.0
20,27,80,0.0
25,33,94,0.0
24,33,92,0.0
21,31,83,0.0
24,36,93,0.0
26,40,101,0.0
25,39,97,0.0
30,50,118,0.0
29,50,114,0.0
30,55,121,0.0
30,57,121,0.0
32,61,128,0.0
33,64,132,0.0
30,61,120,0.0
34,69,134,0.0
35,74,139,0.0
33,73,133,0.0
33,75,132,0.0
33,77,132,0.0
31,75,126,0.0
30,76,126,0.0
30,78,126,0.0
30,79,123,0.0
29,80,123,0.0
30,84,124,0.0
29,85,124,0.0
27,81,116,0.0
27,82,114,0.0
27,84,114,0.0
27,88,117,0.0
26,87,112,0.0
27,91,115,0.0
23,80,99,0.0
26,93,113,0.0
24,89,105,0.0
25,96,111,0.0
26,100,114,0.0
24,94,105,0.0
23,94,103,0.0
22,94,100,0.0
23,98,102,0.0
23,101,104,0.0
22,99,98,0.0
23,108,106,0.0
24,116,111,0.0
23,111,105,0.0
23,119,108,0.0
24,-267,79,0.0
25,-266,82,0.0
26,-279,90,0.0
25,-266,88,0.0
27,-271,93,0.0
28,-273,98,0.0
28,-269,99,0.0
29,-269,102,0.0
30,-268,106,0.0
31,-274,112,0.0
32,-273,115,0.0
32,-267,115,0.0
33,-270,120,0.0
33,-267,122,0.0
34,-266,125,0.0
35,-268,130,0.0
36,-265,132,0.0
36,-262,134,0.0
37,-260,136,0.0
41,-283,152,0.0
41,-277,154,0.0
42,-277,157,0.0
39,-259,151,0.0
36,-233,138,0.0
35,-223,136,0.0
36,-222,139,0.0
37,-223,143,0.0
34,-200,131,0.0
34,-193,130,0.0
33,-187,128,0.0
34,-185,130,0.0
31,-165,120,0.0
28,-148,109,0.0
26,-138,105,0.0
0,0,0,0.0
20,-98,77,0.0
15,-76,61,0.0
12,-60,50,0.0
4682,-22200,18751,0.0
4701,-21855,18875,0.0
4711,-21483,18968,0.0
4723,-21126,19069,0.0
4730,-20750,19147,0.0
4739,-20386,19230,0.0
4747,-20033,19318,0.0
4742,-19626,19346,0.0
4749,-19274,19420,0.0
4757,-18934,19503,0.0
4769,-18617,19604,0.0
4763,-18232,19627,0.0
4774,-17920,19722,0.0
4779,-17590,19792,0.0
4787,-17271,19871,0.0
4785,-16923,19910,0.0
4753,-16476,19823,0.0
4805,-16326,20090,0.0
4890,-16281,20492,0.0
5031,-16414,21135,0.0
5074,-16217,21366,0.0
5253,-16447,22172,0.0
5418,-16612,22922,0.0
5975,-17937,25335,1.0
6003,-17645,25518,1.0
6047,-17393,25758,1.0
6079,-17112,25955,1.0
0,0,0,0.0
6151,-16570,26387,1.0
0,0,0,0.0
0,0,0,0.0
0,0,0,0.0
0,0,0,0.0
6416,-15400,27840,1.0
0,0,0,0.0
0,0,0,0.0
0,0,0,0.0
0,0,0,0.0
6359,-13475,27917,1.0
0,0,0,0.0
0,0,0,0.0
6179,-12077,27310,1.0
6197,-11777,27455,1.0
6206,-11461,27559,1.0
6263,-11232,27878,1.0
0,0,0,0.0
0,0,0,0.0
6505,-10631,29163,1.0
6493,-10271,29178,1.0
6501,-9941,29281,1.0
0,0,0,0.0
6545,-9327,29622,1.0
6554,-8999,29732,1.0
0,0,0,0.0
0,0,0,0.0
6402,-7798,29259,1.0
0,0,0,0.0
0,0,0,0.0
6327,-6729,29131,1.0
0,0,0,0.0
0,0,0,0.0
0,0,0,0.0
0,0,0,0.0
0,0,0,0.0
0,0,0,0.0
0,0,0,0.0
0,0,0,0.0
0,0,0,0.0
6605,-3624,31204,1.0
6505,-3231,30815,1.0
0,0,0,0.0
6420,-2519,30577,1.0
5490,-1867,26223,0.0
5128,-1474,24560,0.0
4971,-1167,23876,0.0
4875,-885,23476,0.0
4800,-616,23188,0.0
4867,-364,23576,0.0
4864,-103,23629,0.0
4864,160,23699,0.0
4853,423,23715,0.0
4853,689,23791,0.0
4860,958,23892,0.0
4852,1226,23932,0.0
4842,1494,23951,0.0
4838,1765,24010,0.0
4844,2042,24119,0.0
4844,2319,24197,0.0
4837,2595,24240,0.0
4839,2878,24324,0.0
4832,3157,24372,0.0
4828,3441,24438,0.0
4834,3734,24549,0.0
4818,4014,24556,0.0
4815,4306,24627,0.0
4818,4608,24732,0.0
4809,4900,24777,0.0
0,0,0,0.0
1,0,6,0.0
1,1,4,0.0
1,0,5,0.0
5,6,26,0.0
7,10,37,0.0
10,14,53,0.0
10,14,53,0.0
11,17,59,0.0
14,24,76,0.0
14,25,76,0.0
13,24,73,0.0
14,26,75,0.0
17,34,94,0.0
18,36,96,0.0
16,33,87,0.0
18,38,96,0.0
19,42,102,0.0
18,42,99,0.0
21,51,115,0.0
20,51,113,0.0
21,56,122,0.0
21,58,122,0.0
21,61,122,0.0
21,63,124,0.0
21,64,123,0.0
21,63,117,0.0
22,71,130,0.0
22,72,128,0.0
22,74,129,0.0
20,71,120,0.0
22,82,136,0.0
20,75,121,0.0
19,76,118,0.0
21,83,127,0.0
18,73,108,0.0
18,78,115,0.0
18,81,115,0.0
18,79,110,0.0
18,85,115,0.0
19,91,122,0.0
17,85,110,0.0
17,86,109,0.0
17,89,110,0.0
16,86,104,0.0
16,89,107,0.0
17,93,109,0.0
15,91,103,0.0
14,89,99,0.0
15,93,102,0.0
15,97,103,0.0
15,99,103,0.0
15,103,105,0.0
14,99,99,0.0
14,102,100,0.0
14,105,101,0.0
14,109,101,0.0
12,-278,85,0.0
12,-277,88,0.0
13,-276,91,0.0
13,-272,92,0.0
14,-275,97,0.0
14,-274,100,0.0
16,-276,105,0.0
17,-284,111,0.0
17,-278,112,0.0
17,-270,112,0.0
18,-276,118,0.0
19,-276,122,0.0
19,-273,123,0.0
20,-278,129,0.0
21,-271,130,0.0
22,-276,136,0.0
22,-271,137,0.0
22,-266,138,0.0
24,-281,150,0.0
27,-303,166,0.0
27,-298,168,0.0
27,-281,162,0.0
27,-276,163,0.0
25,-255,154,0.0
24,-229,142,0.0
23,-216,137,0.0
23,-220,143,0.0
24,-213,142,0.0
23,-195,133,0.0
23,-193,135,0.0
22,-182,130,0.0
21,-171,124,0.0
19,-149,111,0.0
19,-148,113,0.0
16,-120,94,0.0
12,-92,73,0.0
12,-81,66,0.0
11,-76,64,0.0
9,-58,49,0.0
3205,-21706,18983,0.0
3218,-21306,19046,0.0
3229,-20906,19101,0.0
3246,-20549,19190,0.0
3254,-20140,19224,0.0
3277,-19845,19360,0.0
3293,-19498,19443,0.0
3298,-19101,19467,0.0
3315,-18789,19571,0.0
3330,-18462,19656,0.0
3340,-18120,19719,0.0
3350,-17779,19776,0.0
3366,-17478,19876,0.0
3377,-17154,19942,0.0
3383,-16815,19987,0.0
3386,-16460,20005,0.0
3404,-16191,20123,0.0
3485,-16215,20610,0.0
3590,-16338,21241,0.0
3661,-16293,21670,0.0
3782,-16463,22403,0.0
3906,-16625,23151,0.0
4269,-17765,25319,1.0
4306,-17522,25563,1.0
4338,-17251,25771,1.0
4335,-16852,25781,1.0
4390,-16676,26134,1.0
4447,-16504,26500,1.0
0,0,0,0.0
0,0,0,0.0
0,0,0,0.0
4706,-15872,28169,1.0
0,0,0,0.0
0,0,0,0.0
4771,-14929,28667,1.0
4773,-14556,28716,1.0
0,0,0,0.0
0,0,0,0.0
0,0,0,0.0
4528,-12411,27409,1.0
0,0,0,0.0
4538,-11753,27555,1.0
4579,-11519,27852,1.0
0,0,0,0.0
4744,-11236,28958,1.0
4779,-10973,29229,1.0
0,0,0,0.0
4833,-10401,29675,1.0
4853,-10097,29857,1.0
4868,-9781,30009,1.0
0,0,0,0.0
0,0,0,0.0
4834,-8689,29984,1.0
0,0,0,0.0
4808,-7971,29961,1.0
4765,-7568,29764,1.0
0,0,0,0.0
4739,-6869,29742,1.0
0,0,0,0.0
4890,-6413,30847,1.0
4892,-6077,30942,1.0
0,0,0,0.0
0,0,0,0.0
4973,-5145,31705,1.0
4988,-4815,31891,1.0
0,0,0,0.0
0,0,0,0.0
0,0,0,0.0
0,0,0,0.0
0,0,0,0.0
4778,-2612,31100,1.0
4061,-1934,26519,0.0
3807,-1542,24938,0.0
3683,-1230,24209,0.0
3549,-931,23406,0.0
3438,-654,22748,0.0
3544,-418,23538,0.0
3538,-159,23585,0.0
3535,99,23649,0.0
3533,360,23725,0.0
3528,623,23782,0.0
3525,887,23852,0.0
3522,1153,23931,0.0
3510,1417,23942,0.0
3512,1689,24054,0.0
3505,1960,24108,0.0
3495,2229,24141,0.0
3483,2500,24176,0.0
3493,2788,24346,0.0
3476,3059,24343,0.0
3473,3344,24440,0.0
3460,3620,24459,0.0
3456,3909,24547,0.0
3448,4197,24613,0.0
3443,4491,24710,0.0
3431,4779,24747,0.0
3,4,21,0.0
1,0,5,0.0
3,5,22,0.0
2,4,18,0.0
6,11,45,0.0
7,13,51,0.0
9,18,69,0.0
9,20,73,0.0
9,19,67,0.0
11,24,79,0.0
10,26,82,0.0
11,29,91,0.0
11,29,85,0.0
12,34,95,0.0
13,38,103,0.0
13,37,98,0.0
13,41,106,0.0
15,51,125,0.0
14,47,111,0.0
14,50,115,0.0
15,54,122,0.0
14,53,117,0.0
16,66,140,0.0
15,62,129,0.0
15,65,132,0.0
15,66,129,0.0
14,64,123,0.0
15,75,139,0.0
15,74,134,0.0
15,78,138,0.0
15,82,141,0.0
15,84,140,0.0
14,82,132,0.0
14,86,138,0.0
14,90,138,0.0
13,85,130,0.0
14,90,132,0.0
14,98,142,0.0
12,88,125,0.0
12,93,128,0.0
11,92,124,0.0
13,99,130,0.0
11,94,122,0.0
11,100,126,0.0
11,96,119,0.0
10,100,122,0.0
10,99,117,0.0
9,93,108,0.0
9,101,115,0.0
9,101,113,0.0
9,104,112,0.0
8,103,109,0.0
8,107,111,0.0
8,111,112,0.0
8,106,106,0.0
7,116,114,0.0
7,120,114,0.0
0,-300,94,0.0
0,-286,93,0.0
0,-288,97,0.0
0,-286,99,0.0
1,-276,99,0.0
2,-275,102,0.0
2,-282,108,0.0
2,-274,109,0.0
3,-267,109,0.0
4,-274,116,0.0
4,-269,117,0.0
4,-266,120,0.0
5,-264,122,0.0
6,-270,128,0.0
6,-265,129,0.0
7,-275,138,0.0
7,-266,137,0.0
8,-265,140,0.0
9,-288,156,0.0
10,-294,164,0.0
10,-298,170,0.0
11,-287,167,0.0
11,-271,162,0.0
12,-265,162,0.0
11,-243,153,0.0
11,-246,158,0.0
11,-226,149,0.0
11,-222,150,0.0
11,-205,142,0.0
11,-199,140,0.0
11,-186,134,0.0
9,-160,118,0.0
11,-162,123,0.0
10,-148,115,0.0
8,-116,92,0.0
7,-103,84,0.0
7,-94,77,0.0
6,-81,69,0.0
6,-75,65,0.0
5,-64,57,0.0
1743,-21115,19063,0.0
1769,-20780,19174,0.0
1790,-20390,19227,0.0
1815,-20061,19332,0.0
1834,-19688,19389,0.0
1857,-19360,19484,0.0
1876,-19007,19548,0.0
1894,-18659,19611,0.0
1914,-18329,19687,0.0
1928,-17964,19721,0.0
1950,-17677,19833,0.0
1963,-17320,19863,0.0
1981,-17009,19939,0.0
1979,-16552,19836,0.0
2013,-16396,20089,0.0
2040,-16174,20264,0.0
2095,-16187,20738,0.0
2159,-16247,21288,0.0
2231,-16358,21924,0.0
2298,-16416,22508,0.0
0,0,0,0.0
2607,-17681,25384,1.0
0,0,0,0.0
2749,-17706,26636,1.0
0,0,0,0.0
0,0,0,0.0
2903,-17299,27963,1.0
0,0,0,0.0
0,0,0,0.0
0,0,0,0.0
0,0,0,0.0
3033,-15837,29020,1.0
0,0,0,0.0
0,0,0,0.0
3047,-14666,29097,1.0
3083,-14435,29431,1.0
3081,-14026,29405,1.0
0,0,0,0.0
3098,-13317,29560,1.0
0,0,0,0.0
0,0,0,0.0
0,0,0,0.0
0,0,0,0.0
0,0,0,0.0
3237,-11586,30982,1.0
0,0,0,0.0
0,0,0,0.0
0,0,0,0.0
3231,-10099,31074,1.0
0,0,0,0.0
0,0,0,0.0
0,0,0,0.0
3218,-8641,31153,1.0
3217,-8290,31208,1.0
0,0,0,0.0
0,0,0,0.0
3181,-7173,31063,1.0
0,0,0,0.0
3210,-6554,31503,1.0
0,0,0,0.0
3223,-5895,31801,1.0
0,0,0,0.0
0,0,0,0.0
0,0,0,0.0
0,0,0,0.0
0,0,0,0.0
3173,-3779,31929,1.0
0,0,0,0.0
3135,-3062,31795,1.0
0,0,0,0.0
3086,-2345,31552,1.0
2455,-1597,25208,0.0
2377,-1285,24518,0.0
2260,-972,23415,0.0
2242,-714,23337,0.0
2251,-463,23556,0.0
2241,-206,23570,0.0
2231,49,23595,0.0
2230,308,23704,0.0
2228,569,23821,0.0
2220,831,23874,0.0
2216,1096,23963,0.0
2204,1358,23985,0.0
2194,1624,24030,0.0
2190,1895,24140,0.0
2175,2161,24140,0.0
2168,2435,24233,0.0
2160,2710,24305,0.0
2151,2988,24389,0.0
2140,3266,24456,0.0
2127,3543,24490,0.0
2115,3825,24555,0.0
2101,4105,24588,0.0
2090,4397,24679,0.0
2077,4685,24742,0.0
1,1,10,0.0
0,1,7,0.0
2,4,24,0.0
0,1,7,0.0
5,15,64,0.0
4,15,61,0.0
4,12,46,0.0
3,12,45,0.0
5,19,66,0.0
6,25,83,0.0
6,28,90,0.0
7,31,94,0.0
7,30,89,0.0
6,30,86,0.0
6,31,85,0.0
7,36,98,0.0
7,42,109,0.0
7,43,108,0.0
7,47,114,0.0
7,45,105,0.0
8,57,131,0.0
7,51,114,0.0
9,64,139,0.0
8,63,132,0.0
7,64,130,0.0
7,65,129,0.0
8,68,132,0.0
8,77,144,0.0
7,75,137,0.0
8,81,145,0.0
7,79,136,0.0
7,83,141,0.0
6,84,138,0.0
6,86,139,0.0
7,94,147,0.0
6,90,140,0.0
6,93,140,0.0
5,90,132,0.0
5,95,137,0.0
5,96,135,0.0
4,91,124,0.0
4,97,129,0.0
4,92,120,0.0
4,101,130,0.0
4,95,119,0.0
3,99,121,0.0
3,103,123,0.0
2,99,115,0.0
2,96,109,0.0
2,108,120,0.0
2,103,113,0.0
2,105,114,0.0
1,109,115,0.0
1,108,111,0.0
1,116,117,0.0
0,120,118,0.0
0,112,108,0.0
-15,-316,100,0.0
-14,-308,102,0.0
-14,-309,106,0.0
-13,-300,106,0.0
-13,-299,110,0.0
-12,-294,111,0.0
-11,-279,109,0.0
-11,-277,111,0.0
-10,-269,111,0.0
-9,-262,112,0.0
-9,-265,116,0.0
-8,-264,120,0.0
-8,-251,117,0.0
-7,-256,123,0.0
-6,-259,127,0.0
-7,-267,135,0.0
-6,-253,132,0.0
-6,-268,142,0.0
-6,-305,167,0.0
-5,-296,166,0.0
-4,-280,162,0.0
-4,-278,164,0.0
-4,-260,157,0.0
-3,-258,160,0.0
-2,-235,149,0.0
-2,-245,159,0.0
-1,-218,145,0.0
-1,-203,138,0.0
0,-197,136,0.0
0,-175,124,0.0
0,-173,127,0.0
0,-151,112,0.0
0,-149,113,0.0
0,-135,105,0.0
0,-101,81,0.0
119,-22927,18702,0.0
1,-51,43,0.0
190,-22127,18858,0.0
224,-21799,18989,0.0
256,-21321,18980,0.0
289,-21047,19146,0.0
320,-20669,19214,0.0
350,-20287,19272,0.0
378,-19906,19322,0.0
408,-19611,19451,0.0
435,-19269,19530,0.0
461,-18903,19577,0.0
487,-18583,19666,0.0
511,-18217,19700,0.0
535,-17862,19741,0.0
559,-17548,19819,0.0
581,-17220,19878,0.0
603,-16917,19960,0.0
625,-16601,20022,0.0
647,-16326,20129,0.0
674,-16181,20397,0.0
710,-16273,20975,0.0
741,-16199,21351,0.0
782,-16352,22046,0.0
823,-16475,22720,0.0
0,0,0,0.0
1011,-18604,26859,1.0
1035,-18312,27057,1.0
0,0,0,0.0
0,0,0,0.0
1125,-17710,28090,1.0
0,0,0,0.0
1172,-17128,28518,1.0
0,0,0,0.0
1230,-16728,29267,1.0
1255,-16457,29531,1.0
0,0,0,0.0
0,0,0,0.0
1325,-15651,30362,1.0
0,0,0,0.0
1366,-15070,30858,1.0
1377,-14683,30908,1.0
0,0,0,0.0
1394,-13885,30940,1.0
0,0,0,0.0
0,0,0,0.0
1433,-12874,31377,1.0
0,0,0,0.0
0,0,0,0.0
0,0,0,0.0
1468,-11453,31765,1.0
1478,-11121,31923,1.0
0,0,0,0.0
1483,-10367,31973,1.0
0,0,0,0.0
0,0,0,0.0
0,0,0,0.0
0,0,0,0.0
0,0,0,0.0
0,0,0,0.0
1493,-7828,32304,1.0
0,0,0,0.0
1494,-7127,32468,1.0
1500,-6803,32677,1.0
0,0,0,0.0
0,0,0,0.0
1490,-5727,32823,1.0
0,0,0,0.0
0,0,0,0.0
0,0,0,0.0
0,0,0,0.0
0,0,0,0.0
1431,-3520,32543,1.0
0,0,0,0.0
1414,-2815,32608,1.0
0,0,0,0.0
1094,-1655,25637,0.0
1032,-1309,24400,0.0
983,-1003,23438,0.0
974,-750,23449,0.0
968,-498,23547,0.0
960,-243,23599,0.0
949,11,23595,0.0
943,268,23729,0.0
933,526,23761,0.0
925,786,23862,0.0
913,1046,23884,0.0
900,1305,23886,0.0
892,1572,24016,0.0
881,1839,24085,0.0
868,2103,24107,0.0
855,2372,24165,0.0
843,2647,24259,0.0
829,2920,24316,0.0
814,3191,24347,0.0
800,3473,24447,0.0
785,3754,24517,0.0
769,4031,24547,0.0
753,4319,24636,0.0
736,4611,24728,0.0
718,4891,24741,0.0
0,0,3,0.0
682,5482,24889,0.0
0,2,11,0.0
1,5,25,0.0
0,8,32,0.0
1,8,31,0.0
2,17,63,0.0
1,12,44,0.0
2,25,84,0.0
1,17,56,0.0
1,27,84,0.0
1,22,66,0.0
1,30,88,0.0
1,31,88,0.0
1,38,104,0.0
2,36,94,0.0
1,39,99,0.0
1,43,105,0.0
1,49,115,0.0
1,50,116,0.0
1,54,120,0.0
1,57,124,0.0
0,64,134,0.0
0,64,131,0.0
0,67,134,0.0
0,69,135,0.0
0,70,132,0.0
0,74,136,0.0
0,79,142,0.0
0,79,139,0.0
0,87,150,0.0
-1,86,143,0.0
-1,88,144,0.0
-1,89,141,0.0
-1,91,141,0.0
-2,95,145,0.0
-2,89,132,0.0
-2,90,129,0.0
-2,97,137,0.0
-2,95,132,0.0
-3,93,126,0.0
-3,102,134,0.0
-3,108,139,0.0
-3,100,127,0.0
-3,106,130,0.0
-4,107,129,0.0
-4,101,120,0.0
-4,100,115,0.0
-5,103,116,0.0
-5,106,117,0.0
-6,109,119,0.0
-5,105,111,0.0
-5,109,112,0.0
-6,112,114,0.0
-7,120,120,0.0
-7,118,116,0.0
-32,-359,116,0.0
-28,-333,111,0.0
-29,-346,119,0.0
-27,-329,117,0.0
-26,-321,118,0.0
-25,-313,119,0.0
-25,-314,124,0.0
-24,-308,125,0.0
-22,-287,120,0.0
-21,-286,124,0.0
-22,-294,131,0.0
-21,-284,130,0.0
-21,-285,134,0.0
-19,-282,136,0.0
-20,-287,142,0.0
-20,-281,143,0.0
-20,-299,157,0.0
-20,-311,166,0.0
-20,-311,171,0.0
-19,-296,166,0.0
-17,-276,160,0.0
-16,-267,158,0.0
-14,-249,151,0.0
-14,-244,152,0.0
-13,-225,143,0.0
-12,-215,141,0.0
-11,-197,132,0.0
-10,-190,130,0.0
-9,-189,132,0.0
-106,-1997,1432,0.0
0,0,0,0.0
0,0,0,0.0
0,0,0,0.0
0,0,0,0.0
-1118,-23244,18636,0.0
-1075,-22873,18746,0.0
-1031,-22467,18821,0.0
-988,-22045,18875,0.0
-950,-21704,18991,0.0
-909,-21293,19040,0.0
-869,-20899,19096,0.0
-835,-20609,19243,0.0
-800,-20241,19311,0.0
-762,-19843,19343,0.0
-729,-19503,19426,0.0
-697,-19188,19528,0.0
-665,-18846,19598,0.0
-634,-18521,19680,0.0
-604,-18176,19735,0.0
-575,-17844,19798,0.0
-546,-17509,19853,0.0
-519,-17189,19919,0.0
-493,-16880,19992,0.0
-460,-16321,19759,0.0
-440,-16195,20042,0.0
-425,-16211,20510,0.0
-411,-16296,21080,0.0
-393,-16229,21467,0.0
-380,-16354,22124,0.0
-369,-16543,22893,0.0
-401,-18763,26562,1.0
0,0,0,0.0
-358,-18386,27257,1.0
-334,-18079,27435,1.0
-314,-17854,27740,1.0
0,0,0,0.0
0,0,0,0.0
-254,-17159,28655,1.0
0,0,0,0.0
0,0,0,0.0
-200,-16404,29520,1.0
0,0,0,0.0
0,0,0,0.0
0,0,0,0.0
-134,-15382,30729,1.0
-119,-15068,30932,1.0
0,0,0,0.0
0,0,0,0.0
0,0,0,0.0
-63,-13615,31308,1.0
-51,-13178,31220,1.0
-40,-12975,31689,1.0
0,0,0,0.0
-19,-12345,32109,1.0
-10,-12054,32388,1.0
0,0,0,0.0
5,-11226,32274,1.0
0,0,0,0.0
0,0,0,0.0
24,-10159,32569,1.0
0,0,0,0.0
0,0,0,0.0
0,0,0,0.0
40,-8711,32849,1.0
42,-8301,32719,1.0
0,0,0,0.0
