//X,Y,Z,Classification
42,25,71,0.0
38,24,64,0.0
43,28,74,0.0
46,31,78,0.0
45,31,78,0.0
45,33,77,0.0
53,41,91,0.0
56,44,95,0.0
50,40,86,0.0
48,40,82,0.0
56,48,95,0.0
54,48,93,0.0
58,52,99,0.0
53,49,91,0.0
57,55,98,0.0
55,54,94,0.0
61,61,104,0.0
61,63,104,0.0
62,65,105,0.0
63,69,108,0.0
61,68,105,0.0
69,79,118,0.0
64,76,109,0.0
62,75,106,0.0
67,83,114,0.0
67,84,113,0.0
66,85,111,0.0
65,86,111,0.0
70,93,118,0.0
71,97,118,0.0
69,98,118,0.0
64,92,108,0.0
70,103,118,0.0
71,107,119,0.0
70,108,117,0.0
71,112,119,0.0
70,113,117,0.0
73,119,121,0.0
72,120,120,0.0
73,125,122,0.0
72,126,120,0.0
72,129,121,0.0
74,133,122,0.0
75,137,123,0.0
76,142,124,0.0
77,147,125,0.0
74,144,120,0.0
78,157,127,0.0
77,155,124,0.0
77,160,125,0.0
113,-306,63,0.0
106,-285,62,0.0
107,-280,64,0.0
103,-269,64,0.0
101,-259,65,0.0
104,-264,69,0.0
103,-257,70,0.0
105,-261,74,0.0
104,-252,75,0.0
107,-256,79,0.0
109,-258,83,0.0
102,-241,80,0.0
109,-250,87,0.0
104,-237,84,0.0
111,-248,92,0.0
110,-243,93,0.0
110,-241,95,0.0
110,-238,98,0.0
113,-242,102,0.0
115,-243,106,0.0
114,-236,105,0.0
116,-236,109,0.0
119,-240,115,0.0
117,-233,114,0.0
120,-235,119,0.0
118,-227,118,0.0
123,-235,125,0.0
139,-261,143,0.0
143,-264,149,0.0
150,-273,158,0.0
144,-260,154,0.0
142,-252,154,0.0
143,-249,156,0.0
131,-226,145,0.0
138,-236,155,0.0
123,-208,140,0.0
115,-189,131,0.0
109,-177,126,0.0
12728,-20358,14836,0.0
12687,-19989,14930,0.0
12652,-19637,15030,0.0
12610,-19275,15117,0.0
12549,-18889,15179,0.0
12501,-18528,15254,0.0
12468,-18191,15343,0.0
12435,-17861,15432,0.0
12373,-17489,15479,0.0
12331,-17149,15549,0.0
12281,-16806,15608,0.0
12248,-16486,15684,0.0
12223,-16180,15767,0.0
12210,-15892,15865,0.0
12139,-15533,15884,0.0
12087,-15201,15926,0.0
12104,-14960,16057,0.0
12325,-14964,16458,0.0
12525,-14937,16834,0.0
12727,-14904,17215,0.0
13005,-14950,17699,0.0
13002,-14670,17803,0.0
13005,-14396,17913,0.0
13002,-14116,18013,0.0
12996,-13836,18108,0.0
13005,-13571,18222,0.0
13023,-13316,18346,0.0
13031,-13053,18457,0.0
13012,-12762,18526,0.0
13022,-12501,18635,0.0
13025,-12234,18734,0.0
13014,-11955,18811,0.0
13025,-11696,18918,0.0
13043,-11444,19035,0.0
13047,-11179,19128,0.0
13052,-10916,19222,0.0
13043,-10643,19296,0.0
13048,-10381,19388,0.0
13052,-10117,19476,0.0
13057,-9856,19566,0.0
13050,-9586,19637,0.0
13062,-9329,19733,0.0
13071,-9071,19826,0.0
13062,-8801,19889,0.0
13050,-8529,19947,0.0
13055,-8268,20030,0.0
13064,-8010,20116,0.0
13077,-7755,20209,0.0
13057,-7479,20248,0.0
13073,-7226,20343,0.0
13064,-6957,20398,0.0
13094,-6709,20513,0.0
13075,-6437,20551,0.0
13075,-6173,20617,0.0
13068,-5906,20670,0.0
13081,-5649,20755,0.0
13077,-5383,20810,0.0
13072,-5117,20863,0.0
13071,-4853,20922,0.0
13083,-4594,21000,0.0
13052,-4319,21007,0.0
13084,-4065,21117,0.0
13049,-3789,21116,0.0
13075,-3532,21212,0.0
13083,-3269,21280,0.0
13069,-2999,21310,0.0
13088,-2736,21394,0.0
13081,-2468,21434,0.0
13069,-2198,21464,0.0
13092,-1934,21552,0.0
13083,-1663,21585,0.0
13089,-1394,21640,0.0
13064,-1122,21647,0.0
13058,-852,21680,0.0
13068,-581,21741,0.0
12727,-301,21216,0.0
12281,-35,20512,0.0
11869,214,19860,0.0
11693,456,19602,0.0
11327,680,19023,0.0
11726,952,19726,0.0
11715,1200,19742,0.0
11717,1450,19777,0.0
11772,1707,19901,0.0
11775,1960,19938,0.0
11760,2211,19943,0.0
11785,2471,20015,0.0
11845,2740,20144,0.0
11832,2995,20150,0.0
11851,3260,20211,0.0
11883,3530,20290,0.0
11932,3808,20398,0.0
11944,4078,20441,0.0
11956,4349,20487,0.0
11973,4623,20536,0.0
12016,4911,20633,0.0
12063,5203,20732,0.0
22,9,39,0.0
27,12,48,0.0
28,14,50,0.0
27,13,48,0.0
34,19,61,0.0
32,18,57,0.0
34,19,59,0.0
37,23,66,0.0
40,25,70,0.0
44,29,78,0.0
44,30,76,0.0
51,36,90,0.0
45,33,78,0.0
52,40,91,0.0
52,42,92,0.0
54,44,95,0.0
54,44,93,0.0
55,48,96,0.0
52,47,92,0.0
62,57,108,0.0
54,51,95,0.0
60,58,104,0.0
60,60,105,0.0
66,68,115,0.0
56,59,99,0.0
60,65,106,0.0
61,69,108,0.0
65,74,114,0.0
62,73,109,0.0
64,76,111,0.0
62,76,107,0.0
63,79,109,0.0
65,82,112,0.0
66,87,115,0.0
65,88,113,0.0
67,92,116,0.0
66,94,115,0.0
67,97,117,0.0
67,100,117,0.0
68,103,119,0.0
68,104,116,0.0
69,110,120,0.0
67,108,116,0.0
67,111,117,0.0
70,116,119,0.0
70,119,120,0.0
71,124,122,0.0
69,121,117,0.0
72,129,122,0.0
72,133,123,0.0
71,134,120,0.0
74,142,124,0.0
74,145,125,0.0
76,151,128,0.0
74,152,125,0.0
74,154,124,0.0
75,159,125,0.0
110,-305,64,0.0
103,-282,62,0.0
102,-278,64,0.0
104,-278,67,0.0
100,-264,67,0.0
98,-254,68,0.0
103,-263,73,0.0
103,-261,75,0.0
105,-263,79,0.0
103,-252,78,0.0
103,-249,81,0.0
107,-256,86,0.0
103,-244,85,0.0
106,-249,90,0.0
107,-245,92,0.0
108,-245,96,0.0
111,-248,98,0.0
113,-251,103,0.0
114,-248,106,0.0
116,-248,109,0.0
116,-244,111,0.0
115,-239,112,0.0
117,-243,117,0.0
116,-235,117,0.0
120,-240,122,0.0
120,-238,124,0.0
125,-244,131,0.0
135,-260,143,0.0
142,-269,153,0.0
141,-264,154,0.0
139,-258,154,0.0
135,-245,151,0.0
133,-240,151,0.0
132,-235,152,0.0
127,-221,146,0.0
114,-196,133,0.0
109,-184,129,0.0
12461,-20678,14806,0.0
12400,-20272,14878,0.0
12351,-19891,14960,0.0
12320,-19542,15060,0.0
12260,-19154,15123,0.0
12217,-18796,15204,0.0
12166,-18428,15271,0.0
12130,-18088,15354,0.0
12072,-17718,15405,0.0
12059,-17419,15512,0.0
12018,-17081,15580,0.0
11989,-16764,15662,0.0
11957,-16447,15737,0.0
11921,-16126,15805,0.0
11884,-15806,15868,0.0
11863,-15511,15950,0.0
11827,-15198,16011,0.0
11795,-14894,16073,0.0
12066,-14968,16550,0.0
12344,-15041,17040,0.0
12478,-14931,17334,0.0
12844,-15086,17951,0.0
13006,-14992,18286,0.0
13004,-14707,18391,0.0
13005,-14427,18497,0.0
13002,-14143,18598,0.0
13010,-13872,18711,0.0
13012,-13596,18816,0.0
13009,-13315,18911,0.0
13028,-13057,19037,0.0
13030,-12782,19136,0.0
13027,-12503,19226,0.0
13031,-12232,19327,0.0
13008,-11938,19385,0.0
13025,-11679,19501,0.0
13030,-11410,19598,0.0
13028,-11136,19684,0.0
13042,-10877,19793,0.0
13050,-10611,19889,0.0
13067,-10353,19999,0.0
13053,-10072,20061,0.0
13053,-9801,20143,0.0
13058,-9535,20232,0.0
13065,-9270,20322,0.0
13076,-9008,20418,0.0
13076,-8738,20495,0.0
13080,-8471,20576,0.0
13074,-8199,20642,0.0
13088,-7938,20737,0.0
13067,-7658,20778,0.0
13069,-7390,20850,0.0
13102,-7140,20975,0.0
13082,-6860,21011,0.0
13083,-6592,21079,0.0
13083,-6323,21147,0.0
13102,-6063,21245,0.0
13087,-5787,21284,0.0
13098,-5523,21366,0.0
13086,-5249,21409,0.0
13079,-4977,21460,0.0
13092,-4713,21540,0.0
13094,-4444,21602,0.0
13090,-4172,21654,0.0
13093,-3903,21717,0.0
13080,-3628,21751,0.0
13088,-3359,21820,0.0
13084,-3087,21867,0.0
13086,-2815,21923,0.0
13073,-2541,21954,0.0
13070,-2268,22002,0.0
13086,-1997,22079,0.0
13095,-1723,22143,0.0
13071,-1446,22149,0.0
13091,-1173,22230,0.0
13106,-898,22303,0.0
12819,-607,21858,0.0
12513,-328,21379,0.0
11992,-59,20529,0.0
11644,190,19971,0.0
11230,424,19297,0.0
11389,674,19605,0.0
11441,924,19729,0.0
11429,1170,19742,0.0
11430,1418,19777,0.0
11491,1675,19914,0.0
11489,1926,19943,0.0
11493,2179,19979,0.0
11512,2437,20042,0.0
11537,2698,20115,0.0
11548,2957,20161,0.0
11591,3227,20263,0.0
11605,3491,20315,0.0
1114,360,1952,0.0
11625,4023,20400,0.0
11651,4297,20468,0.0
11704,4585,20585,0.0
11714,4858,20623,0.0
11,5,21,0.0
22,10,40,0.0
20,10,37,0.0
29,15,52,0.0
31,16,57,0.0
36,20,65,0.0
31,18,55,0.0
29,17,54,0.0
38,23,68,0.0
40,26,73,0.0
46,31,83,0.0
44,31,79,0.0
46,33,83,0.0
52,39,93,0.0
50,39,90,0.0
46,37,83,0.0
55,45,98,0.0
57,49,102,0.0
58,52,105,0.0
58,52,103,0.0
60,56,107,0.0
55,52,99,0.0
53,52,95,0.0
56,57,101,0.0
60,63,108,0.0
57,61,101,0.0
58,64,105,0.0
59,67,106,0.0
59,68,105,0.0
62,72,110,0.0
61,75,109,0.0
62,77,112,0.0
60,77,108,0.0
63,81,112,0.0
63,84,113,0.0
59,81,106,0.0
61,86,109,0.0
65,93,116,0.0
62,92,111,0.0
63,95,113,0.0
64,100,115,0.0
67,106,120,0.0
66,106,117,0.0
65,108,117,0.0
67,112,118,0.0
66,112,116,0.0
69,119,120,0.0
72,128,127,0.0
70,129,124,0.0
70,129,122,0.0
70,132,123,0.0
71,137,124,0.0
70,138,122,0.0
70,141,123,0.0
70,143,122,0.0
72,151,125,0.0
72,154,125,0.0
73,159,126,0.0
103,-293,62,0.0
99,-278,62,0.0
98,-273,64,0.0
98,-267,66,0.0
100,-270,70,0.0
97,-259,69,0.0
98,-258,73,0.0
99,-256,75,0.0
97,-249,75,0.0
100,-253,80,0.0
102,-255,83,0.0
104,-255,87,0.0
102,-247,87,0.0
104,-248,91,0.0
104,-246,93,0.0
106,-246,96,0.0
108,-247,100,0.0
107,-243,101,0.0
109,-243,105,0.0
113,-247,110,0.0
113,-244,111,0.0
112,-240,113,0.0
116,-245,119,0.0
115,-240,120,0.0
118,-242,124,0.0
124,-251,132,0.0
124,-249,135,0.0
137,-270,151,0.0
134,-260,149,0.0
140,-267,157,0.0
141,-265,160,0.0
130,-242,150,0.0
131,-239,152,0.0
126,-228,149,0.0
115,-204,137,0.0
118,-206,142,0.0
109,-188,132,0.0
12117,-20563,14827,0.0
12082,-20200,14926,0.0
12016,-19790,14983,0.0
11973,-19421,15066,0.0
11921,-19043,15134,0.0
11903,-18723,15242,0.0
11854,-18360,15309,0.0
11814,-18011,15383,0.0
11758,-17642,15433,0.0
11714,-17298,15498,0.0
11689,-16986,15585,0.0
11669,-16681,15675,0.0
11637,-16363,15746,0.0
11610,-16053,15822,0.0
11558,-15714,15863,0.0
11168,-14928,15434,0.0
11514,-15126,16018,0.0
11505,-14851,16112,0.0
11757,-14909,16569,0.0
12076,-15041,17127,0.0
12235,-14964,17459,0.0
12585,-15109,18067,0.0
12853,-15145,18561,0.0
12894,-14907,18728,0.0
13006,-14749,18998,0.0
13003,-14459,19099,0.0
13002,-14172,19200,0.0
12986,-13870,19279,0.0
12992,-13593,19388,0.0
13004,-13322,19506,0.0
12998,-13034,19594,0.0
12996,-12751,19687,0.0
13025,-12499,19826,0.0
13033,-12227,19934,0.0
13030,-11944,20020,0.0
13025,-11660,20103,0.0
13035,-11392,20208,0.0
13028,-11109,20285,0.0
13046,-10847,20401,0.0
13037,-10562,20472,0.0
13048,-10295,20573,0.0
13057,-10026,20671,0.0
13057,-9750,20752,0.0
13061,-9478,20840,0.0
13029,-9181,20868,0.0
13045,-8917,20972,0.0
13047,-8644,21051,0.0
13032,-8361,21103,0.0
13034,-8089,21181,0.0
13021,-7808,21233,0.0
13048,-7551,21349,0.0
13010,-7256,21358,0.0
13034,-6996,21466,0.0
13025,-6719,21521,0.0
13025,-6445,21588,0.0
17289,-8194,28746,1.0
17282,-7829,28819,1.0
13043,-5635,21814,0.0
13089,-5380,21956,0.0
15662,-6109,26347,0.0
15651,-5777,26403,0.0
15658,-5450,26486,0.0
15668,-5125,26575,0.0
12981,-3972,22076,0.0
13002,-3705,22168,0.0
13005,-3430,22229,0.0
13037,-3163,22339,0.0
13063,-2893,22439,0.0
13084,-2620,22527,0.0
13092,-2343,22595,0.0
13098,-2065,22654,0.0
13084,-1783,22682,0.0
13076,-1502,22718,0.0
13109,-1225,22823,0.0
13077,-940,22816,0.0
13084,-659,22873,0.0
12264,-352,21484,0.0
11679,-82,20499,0.0
11401,167,20049,0.0
11128,406,19605,0.0
10817,631,19091,0.0
11132,894,19684,0.0
11141,1141,19734,0.0
11150,1387,19781,0.0
11173,1639,19853,0.0
11185,1890,19907,0.0
11196,2143,19957,0.0
11231,2401,20049,0.0
11212,2650,20044,0.0
11258,2917,20156,0.0
11250,3172,20169,0.0
11313,3448,20308,0.0
11318,3711,20344,0.0
11325,3974,20381,0.0
11380,4258,20504,0.0
11380,4525,20530,0.0
11411,4804,20606,0.0
11446,5089,20692,0.0
19,9,36,0.0
15,7,28,0.0
19,10,37,0.0
31,16,57,0.0
28,15,52,0.0
29,17,54,0.0
31,19,57,0.0
37,23,67,0.0
38,25,70,0.0
42,28,77,0.0
40,28,73,0.0
48,36,90,0.0
48,36,88,0.0
51,40,93,0.0
53,43,98,0.0
51,42,93,0.0
54,48,101,0.0
58,52,106,0.0
54,49,98,0.0
60,57,111,0.0
56,55,104,0.0
55,56,102,0.0
61,63,112,0.0
59,63,110,0.0
53,59,100,0.0
55,62,101,0.0
54,63,100,0.0
60,71,111,0.0
57,69,105,0.0
56,71,105,0.0
59,75,108,0.0
63,82,116,0.0
59,79,109,0.0
59,81,108,0.0
60,84,111,0.0
62,89,114,0.0
61,89,112,0.0
61,92,113,0.0
61,94,113,0.0
62,97,114,0.0
64,102,117,0.0
65,106,117,0.0
64,108,117,0.0
66,112,120,0.0
66,114,120,0.0
65,117,119,0.0
68,124,124,0.0
65,121,118,0.0
66,125,119,0.0
66,129,120,0.0
69,138,125,0.0
68,136,122,0.0
67,138,120,0.0
68,143,123,0.0
72,156,131,0.0
70,151,124,0.0
69,154,122,0.0
94,-276,60,0.0
94,-273,62,0.0
95,-270,65,0.0
92,-259,65,0.0
97,-268,70,0.0
93,-255,70,0.0
96,-258,74,0.0
93,-247,74,0.0
94,-247,76,0.0
100,-257,82,0.0
94,-242,81,0.0
99,-248,86,0.0
98,-242,87,0.0
98,-240,89,0.0
102,-247,95,0.0
102,-243,97,0.0
104,-244,100,0.0
105,-244,103,0.0
105,-241,105,0.0
105,-236,106,0.0
107,-237,109,0.0
111,-245,117,0.0
111,-241,118,0.0
111,-237,119,0.0
116,-244,127,0.0
118,-243,129,0.0
125,-257,140,0.0
133,-267,151,0.0
130,-259,150,0.0
132,-260,154,0.0
133,-256,156,0.0
126,-241,150,0.0
117,-220,142,0.0
121,-226,148,0.0
109,-198,133,0.0
102,-183,127,0.0
11813,-20819,14747,0.0
11773,-20442,14840,0.0
11726,-20059,14921,0.0
11683,-19685,15003,0.0
11637,-19311,15077,0.0
11602,-18959,15164,0.0
11572,-18622,15254,0.0
11524,-18257,15318,0.0
11493,-17922,15400,0.0
11439,-17557,15449,0.0
11393,-17208,15507,0.0
11394,-16934,15627,0.0
11353,-16600,15686,0.0
11321,-16280,15754,0.0
11295,-15973,15829,0.0
11234,-15621,15853,0.0
11247,-15374,15979,0.0
11173,-15009,15978,0.0
11296,-14912,16260,0.0
11465,-14868,16606,0.0
11745,-14961,17119,0.0
11997,-15004,17592,0.0
12331,-15140,18191,0.0
12600,-15182,18693,0.0
12990,-15357,19383,0.0
12961,-15029,19447,0.0
12986,-14766,19592,0.0
12983,-14471,19693,0.0
12983,-14179,19795,0.0
12995,-13903,19915,0.0
12990,-13609,20008,0.0
12976,-13308,20086,0.0
17486,-17546,27197,1.0
0,0,0,0.0
0,0,0,0.0
0,0,0,0.0
0,0,0,0.0
17185,-15361,27346,1.0
17221,-15020,27522,1.0
17224,-14647,27642,1.0
17343,-14374,27950,1.0
17650,-14247,28561,1.0
0,0,0,0.0
0,0,0,0.0
17882,-13278,29276,1.0
0,0,0,0.0
17205,-12036,28379,1.0
17260,-11704,28573,1.0
17263,-11335,28678,1.0
17252,-10959,28762,1.0
17250,-10589,28858,1.0
17249,-10219,28953,1.0
0,0,0,0.0
0,0,0,0.0
0,0,0,0.0
0,0,0,0.0
17235,-8369,29391,1.0
17228,-7997,29468,1.0
17165,-7601,29446,1.0
16106,-6787,27711,0.0
15649,-6260,27001,0.0
15617,-5913,27021,0.0
15652,-5591,27155,0.0
15613,-5242,27160,0.0
16060,-5047,28010,0.0
0,0,0,0.0
0,0,0,0.0
0,0,0,0.0
0,0,0,0.0
0,0,0,0.0
0,0,0,0.0
0,0,0,0.0
0,0,0,0.0
0,0,0,0.0
16570,-1613,29588,1.0
13113,-989,23463,0.0
12741,-681,22845,0.0
12021,-377,21597,0.0
11431,-106,20577,0.0
11139,143,20091,0.0
10844,381,19594,0.0
10884,625,19702,0.0
10840,865,19657,0.0
10854,1111,19718,0.0
10867,1358,19774,0.0
10853,1602,19782,0.0
10888,1855,19877,0.0
10899,2106,19928,0.0
10946,2365,20044,0.0
10950,2619,20083,0.0
10965,2877,20138,0.0
10949,3127,20136,0.0
11029,3408,20312,0.0
11028,3666,20336,0.0
11068,3941,20435,0.0
11088,4211,20498,0.0
11127,4492,20594,0.0
11114,4753,20593,0.0
11113,5021,20615,0.0
8,3,15,0.0
26,13,49,0.0
23,12,46,0.0
17,9,32,0.0
33,18,62,0.0
30,17,58,0.0
27,17,52,0.0
29,19,56,0.0
36,24,69,0.0
46,32,87,0.0
42,30,79,0.0
38,28,73,0.0
38,30,72,0.0
45,37,85,0.0
48,41,92,0.0
43,37,82,0.0
46,41,88,0.0
48,45,92,0.0
48,44,89,0.0
50,48,95,0.0
53,52,99,0.0
55,56,104,0.0
52,55,99,0.0
45,49,86,0.0
52,58,99,0.0
53,61,101,0.0
52,62,98,0.0
52,62,98,0.0
55,68,105,0.0
53,68,102,0.0
55,71,105,0.0
57,76,108,0.0
54,75,103,0.0
58,81,110,0.0
57,82,108,0.0
56,82,106,0.0
55,82,103,0.0
56,86,106,0.0
58,92,110,0.0
59,95,111,0.0
61,99,114,0.0
59,99,111,0.0
61,103,114,0.0
62,107,115,0.0
61,108,114,0.0
61,111,114,0.0
63,116,117,0.0
61,117,116,0.0
62,120,116,0.0
62,125,117,0.0
65,133,122,0.0
63,129,116,0.0
65,137,120,0.0
66,141,121,0.0
67,148,124,0.0
64,143,119,0.0
66,151,122,0.0
92,-276,61,0.0
93,-275,63,0.0
91,-267,65,0.0
92,-264,67,0.0
93,-264,70,0.0
92,-257,71,0.0
92,-256,74,0.0
96,-261,78,0.0
90,-243,76,0.0
92,-246,80,0.0
97,-253,85,0.0
96,-249,87,0.0
98,-250,91,0.0
97,-246,92,0.0
100,-247,96,0.0
100,-243,97,0.0
100,-241,100,0.0
101,-239,102,0.0
103,-241,105,0.0
104,-241,109,0.0
104,-237,110,0.0
108,-241,116,0.0
109,-242,120,0.0
107,-233,119,0.0
111,-238,124,0.0
115,-246,133,0.0
125,-261,145,0.0
125,-260,148,0.0
135,-273,159,0.0
122,-245,147,0.0
120,-238,146,0.0
114,-222,139,0.0
112,-216,139,0.0
107,-202,133,0.0
100,-185,126,0.0
11516,-21088,14674,0.0
11489,-20730,14784,0.0
11439,-20333,14859,0.0
11410,-19978,14959,0.0
11365,-19602,15034,0.0
11312,-19213,15096,0.0
11277,-18861,15178,0.0
11242,-18515,15259,0.0
11209,-18173,15338,0.0
11174,-17834,15414,0.0
11133,-17488,15478,0.0
11112,-17176,15566,0.0
11083,-16855,15641,0.0
11038,-16514,15691,0.0
11018,-16212,15773,0.0
10996,-15912,15852,0.0
10947,-15575,15889,0.0
10941,-15302,15986,0.0
10910,-14997,16046,0.0
11054,-14929,16361,0.0
11268,-14951,16781,0.0
11453,-14925,17161,0.0
11735,-15016,17689,0.0
12063,-15153,18290,0.0
12384,-15267,18885,0.0
12942,-15653,19844,0.0
12930,-15340,19937,0.0
12972,-15090,20108,0.0
17432,-19878,27166,1.0
0,0,0,0.0
17159,-18783,27015,1.0
17167,-18400,27161,1.0
17163,-18008,27288,1.0
17274,-17734,27596,1.0
0,0,0,0.0
0,0,0,0.0
0,0,0,0.0
0,0,0,0.0
0,0,0,0.0
17199,-15349,28220,1.0
17159,-14932,28273,1.0
17198,-14586,28454,1.0
17535,-14485,29128,1.0
0,0,0,0.0
0,0,0,0.0
0,0,0,0.0
0,0,0,0.0
17214,-12327,29142,1.0
17206,-11944,29233,1.0
17203,-11565,29330,1.0
17213,-11197,29450,1.0
17230,-10831,29581,1.0
17245,-10464,29703,1.0
17238,-10083,29788,1.0
0,0,0,0.0
0,0,0,0.0
0,0,0,0.0
0,0,0,0.0
0,0,0,0.0
0,0,0,0.0
0,0,0,0.0
15636,-6416,27681,0.0
15626,-6071,27740,0.0
15636,-5733,27832,0.0
15617,-5383,27871,0.0
16043,-5178,28705,0.0
0,0,0,0.0
16657,-4645,29957,1.0
0,0,0,0.0
16530,-3880,29875,1.0
0,0,0,0.0
0,0,0,0.0
16444,-2768,29925,1.0
0,0,0,0.0
16297,-2018,29790,1.0
16304,-1654,29868,1.0
0,0,0,0.0
0,0,0,0.0
11787,-402,21727,0.0
11128,-128,20551,0.0
10871,120,20115,0.0
10559,357,19576,0.0
10499,594,19499,0.0
10538,837,19607,0.0
10608,1087,19772,0.0
10583,1328,19760,0.0
10644,1582,19907,0.0
10620,1825,19892,0.0
10636,2076,19954,0.0
10679,2335,20065,0.0
10680,2586,20100,0.0
10706,2845,20179,0.0
10675,3091,20147,0.0
10734,3364,20287,0.0
10741,3623,20329,0.0
10774,3895,20417,0.0
10795,4164,20482,0.0
10802,4430,20521,0.0
10812,4699,20563,0.0
12,5,24,0.0
10864,5259,20708,0.0
27,13,53,0.0
14,7,27,0.0
24,14,47,0.0
29,16,58,0.0
29,18,56,0.0
37,23,71,0.0
35,22,68,0.0
37,26,71,0.0
35,25,69,0.0
40,30,79,0.0
43,33,84,0.0
40,32,79,0.0
42,34,80,0.0
43,36,84,0.0
47,41,91,0.0
44,39,85,0.0
50,46,98,0.0
49,47,95,0.0
51,51,101,0.0
55,56,107,0.0
45,48,90,0.0
54,57,104,0.0
48,53,93,0.0
50,57,99,0.0
50,58,97,0.0
50,59,96,0.0
52,64,101,0.0
55,69,107,0.0
51,66,99,0.0
53,72,105,0.0
54,74,105,0.0
52,73,102,0.0
54,77,106,0.0
55,81,108,0.0
55,82,106,0.0
57,88,111,0.0
55,86,106,0.0
56,89,109,0.0
58,95,112,0.0
57,95,110,0.0
58,99,113,0.0
57,101,111,0.0
60,108,117,0.0
58,105,111,0.0
60,112,116,0.0
59,112,114,0.0
59,114,112,0.0
59,118,114,0.0
62,126,118,0.0
63,130,121,0.0
61,129,117,0.0
62,134,119,0.0
64,141,122,0.0
66,149,125,0.0
63,143,119,0.0
61,144,117,0.0
88,-269,61,0.0
87,-264,62,0.0
87,-263,65,0.0
83,-247,64,0.0
86,-251,68,0.0
87,-250,71,0.0
89,-254,74,0.0
90,-252,77,0.0
90,-247,79,0.0
92,-253,83,0.0
93,-249,85,0.0
92,-245,86,0.0
94,-246,91,0.0
94,-242,92,0.0
94,-239,93,0.0
100,-250,101,0.0
98,-242,101,0.0
100,-243,105,0.0
102,-246,110,0.0
102,-241,111,0.0
102,-238,112,0.0
105,-243,118,0.0
107,-242,121,0.0
105,-235,121,0.0
108,-238,126,0.0
118,-255,138,0.0
122,-262,145,0.0
128,-270,154,0.0
123,-257,151,0.0
119,-244,148,0.0
113,-230,142,0.0
107,-214,136,0.0
112,-221,143,0.0
100,-195,130,0.0
97,-186,127,0.0
11196,-21002,14712,0.0
11151,-20608,14794,0.0
11115,-20235,14883,0.0
11080,-19870,14971,0.0
11036,-19493,15044,0.0
11006,-19146,15135,0.0
10973,-18795,15216,0.0
10928,-18428,15278,0.0
10903,-18102,15368,0.0
10872,-17766,15443,0.0
10826,-17412,15497,0.0
10800,-17092,15575,0.0
10763,-16758,15636,0.0
10747,-16461,15725,0.0
10723,-16153,15799,0.0
10689,-15834,15856,0.0
10665,-15532,15927,0.0
10626,-15212,15972,0.0
10604,-14920,16043,0.0
10816,-14953,16465,0.0
10986,-14920,16827,0.0
11163,-14890,17202,0.0
11472,-15026,17783,0.0
11786,-15154,18374,0.0
12108,-15277,18983,0.0
0,0,0,0.0
0,0,0,0.0
0,0,0,0.0
0,0,0,0.0
17187,-19658,27669,1.0
17108,-19167,27678,1.0
17078,-18737,27766,1.0
17162,-18430,28036,1.0
17164,-18036,28172,1.0
0,0,0,0.0
0,0,0,0.0
0,0,0,0.0
0,0,0,0.0
17374,-16268,29156,1.0
17171,-15688,28940,1.0
17155,-15285,29031,1.0
17157,-14898,29152,1.0
0,0,0,0.0
0,0,0,0.0
0,0,0,0.0
0,0,0,0.0
0,0,0,0.0
17181,-12600,29863,1.0
17208,-12236,30018,1.0
17240,-11873,30177,1.0
17179,-11447,30175,1.0
17224,-11093,30355,1.0
0,0,0,0.0
0,0,0,0.0
0,0,0,0.0
0,0,0,0.0
0,0,0,0.0
0,0,0,0.0
16815,-8205,30291,1.0
0,0,0,0.0
16100,-7138,29171,1.0
15635,-6583,28406,0.0
15633,-6234,28481,0.0
15637,-5886,28566,0.0
15597,-5522,28567,0.0
16067,-5329,29507,1.0
16446,-5086,30281,1.0
0,0,0,0.0
0,0,0,0.0
16296,-3940,30225,1.0
16235,-3558,30183,1.0
16195,-3183,30179,1.0
16188,-2816,30235,1.0
0,0,0,0.0
16060,-2063,30129,1.0
16050,-1696,30174,1.0
0,0,0,0.0
0,0,0,0.0
11525,-425,21802,0.0
10895,-150,20651,0.0
10678,99,20279,0.0
10295,333,19589,0.0
10301,574,19635,0.0
10304,815,19677,0.0
10333,1060,19768,0.0
10318,1300,19772,0.0
10327,1546,19825,0.0
10357,1796,19915,0.0
10359,2044,19952,0.0
10369,2294,20000,0.0
10393,2549,20078,0.0
10401,2802,20123,0.0
10407,3056,20164,0.0
10438,3320,20253,0.0
10470,3586,20343,0.0
10527,3865,20480,0.0
10541,4132,20536,0.0
10502,4378,20485,0.0
12,5,25,0.0
10541,4924,20611,0.0
18,8,36,0.0
18,9,37,0.0
20,11,42,0.0
24,14,50,0.0
26,15,52,0.0
24,15,47,0.0
26,17,51,0.0
32,21,64,0.0
28,20,57,0.0
38,27,76,0.0
38,29,76,0.0
38,30,76,0.0
45,36,89,0.0
39,32,79,0.0
47,41,95,0.0
47,43,96,0.0
44,41,89,0.0
44,42,89,0.0
44,43,88,0.0
45,46,91,0.0
46,48,94,0.0
52,55,104,0.0
52,57,104,0.0
49,55,99,0.0
48,56,96,0.0
44,52,89,0.0
44,54,88,0.0
47,59,95,0.0
51,67,104,0.0
49,66,99,0.0
50,68,100,0.0
52,73,104,0.0
52,74,103,0.0
51,75,103,0.0
51,78,104,0.0
51,79,104,0.0
53,83,106,0.0
49,80,99,0.0
52,86,105,0.0
54,91,109,0.0
54,93,109,0.0
57,99,113,0.0
58,104,116,0.0
56,102,111,0.0
54,101,109,0.0
57,108,114,0.0
54,106,108,0.0
57,114,114,0.0
58,118,116,0.0
57,118,113,0.0
58,123,115,0.0
58,126,114,0.0
59,130,116,0.0
60,138,120,0.0
61,141,121,0.0
60,141,118,0.0
59,143,118,0.0
88,-280,64,0.0
88,-277,66,0.0
89,-274,69,0.0
84,-257,68,0.0
85,-256,70,0.0
89,-265,75,0.0
88,-256,76,0.0
90,-261,81,0.0
91,-258,83,0.0
93,-260,87,0.0
93,-258,89,0.0
96,-260,94,0.0
96,-260,97,0.0
95,-254,97,0.0
95,-249,98,0.0
99,-254,103,0.0
100,-255,107,0.0
102,-253,110,0.0
101,-251,112,0.0
101,-246,113,0.0
102,-246,117,0.0
104,-247,120,0.0
108,-251,126,0.0
110,-253,131,0.0
111,-250,133,0.0
116,-259,142,0.0
121,-267,150,0.0
127,-277,160,0.0
122,-263,155,0.0
126,-264,161,0.0
121,-251,157,0.0
112,-230,147,0.0
109,-220,144,0.0
108,-216,144,0.0
101,-198,136,0.0
100,-195,137,0.0
10837,-20524,14827,0.0
10794,-20139,14905,0.0
10759,-19772,14990,0.0
10721,-19404,15067,0.0
10684,-19041,15142,0.0
10651,-18691,15220,0.0
10623,-18354,15304,0.0
10594,-18018,15383,0.0
10556,-17671,15446,0.0
10525,-17339,15517,0.0
10504,-17028,15601,0.0
10471,-16700,15664,0.0
10449,-16392,15741,0.0
10425,-16085,15812,0.0
10397,-15774,15877,0.0
10365,-15461,15932,0.0
10339,-15159,15995,0.0
10316,-14866,16061,0.0
10553,-14940,16530,0.0
10816,-15043,17044,0.0
10938,-14942,17340,0.0
11220,-15048,17889,0.0
11522,-15170,18476,0.0
11874,-15343,19146,0.0
0,0,0,0.0
0,0,0,0.0
16847,-20540,27601,1.0
0,0,0,0.0
16833,-19715,27861,1.0
0,0,0,0.0
16819,-18896,28108,1.0
0,0,0,0.0
0,0,0,0.0
0,0,0,0.0
0,0,0,0.0
0,0,0,0.0
0,0,0,0.0
0,0,0,0.0
0,0,0,0.0
0,0,0,0.0
17054,-15167,29768,1.0
17052,-14772,29883,1.0
17087,-14408,30060,1.0
0,0,0,0.0
0,0,0,0.0
0,0,0,0.0
0,0,0,0.0
0,0,0,0.0
17101,-12068,30744,1.0
0,0,0,0.0
0,0,0,0.0
0,0,0,0.0
0,0,0,0.0
0,0,0,0.0
0,0,0,0.0
0,0,0,0.0
0,0,0,0.0
0,0,0,0.0
0,0,0,0.0
16103,-7328,29958,1.0
15601,-6744,29103,1.0
15586,-6382,29154,1.0
15607,-6035,29274,1.0
15606,-5677,29348,1.0
16127,-5498,30409,1.0
0,0,0,0.0
0,0,0,0.0
0,0,0,0.0
0,0,0,0.0
15953,-3605,30450,1.0
15925,-3231,30469,1.0
15918,-2862,30524,1.0
15834,-2479,30431,1.0
15751,-2100,30337,1.0
15725,-1731,30353,1.0
15660,-1358,30291,1.0
15639,-989,30313,1.0
11267,-448,21883,0.0
10661,-173,20749,0.0
10388,76,20255,0.0
10007,311,19550,0.0
10000,548,19572,0.0
10031,789,19669,0.0
10039,1031,19721,0.0
10025,1270,19728,0.0
10065,1519,19840,0.0
10070,1764,19885,0.0
10085,2012,19947,0.0
10094,2261,19995,0.0
10127,2517,20094,0.0
10113,2763,20096,0.0
10143,3022,20183,0.0
10162,3282,20250,0.0
10191,3546,20337,0.0
10198,3806,20378,0.0
10226,4075,20462,0.0
10228,4337,20494,0.0
10253,4610,20569,0.0
10261,4878,20610,0.0
12,6,26,0.0
27,14,56,0.0
20,11,42,0.0
29,17,60,0.0
23,14,47,0.0
27,17,56,0.0
32,21,66,0.0
36,25,74,0.0
33,24,69,0.0
41,31,85,0.0
33,25,68,0.0
46,36,93,0.0
46,39,96,0.0
38,32,79,0.0
48,42,97,0.0
48,44,100,0.0
44,42,92,0.0
48,46,99,0.0
52,52,107,0.0
49,52,102,0.0
49,52,100,0.0
51,56,106,0.0
53,59,108,0.0
51,59,106,0.0
55,65,113,0.0
50,62,103,0.0
52,66,108,0.0
48,62,100,0.0
50,67,105,0.0
50,68,105,0.0
53,74,109,0.0
51,72,104,0.0
49,73,103,0.0
53,79,111,0.0
51,77,105,0.0
54,84,110,0.0
52,84,108,0.0
52,84,107,0.0
52,88,109,0.0
53,91,110,0.0
55,98,115,0.0
55,98,113,0.0
54,99,111,0.0
57,108,118,0.0
56,107,115,0.0
55,109,113,0.0
56,112,115,0.0
53,109,110,0.0
54,114,111,0.0
57,122,117,0.0
59,128,121,0.0
57,128,118,0.0
60,136,122,0.0
62,143,126,0.0
61,144,124,0.0
59,141,118,0.0
60,147,121,0.0
82,-267,62,0.0
79,-255,62,0.0
79,-251,64,0.0
81,-254,68,0.0
80,-248,69,0.0
83,-252,73,0.0
81,-244,73,0.0
82,-243,76,0.0
85,-248,81,0.0
88,-253,85,0.0
87,-246,86,0.0
90,-252,91,0.0
87,-242,90,0.0
92,-249,96,0.0
92,-245,98,0.0
93,-246,102,0.0
97,-252,108,0.0
94,-242,106,0.0
96,-242,109,0.0
98,-243,114,0.0
97,-239,115,0.0
101,-243,120,0.0
101,-241,122,0.0
102,-243,126,0.0
104,-242,129,0.0
116,-267,147,0.0
117,-264,148,0.0
121,-271,157,0.0
108,-239,142,0.0
113,-245,150,0.0
111,-236,149,0.0
102,-214,138,0.0
92,-189,125,0.0
96,-198,134,0.0
86,-174,121,0.0
10546,-20793,14753,0.0
10512,-20415,14840,0.0
10471,-20031,14915,0.0
10438,-19668,15000,0.0
10401,-19299,15074,0.0
10367,-18943,15151,0.0
10334,-18592,15227,0.0
10318,-18275,15324,0.0
10272,-17909,15374,0.0
10259,-17604,15470,0.0
10225,-17267,15534,0.0
10189,-16930,15593,0.0
10169,-16622,15672,0.0
10140,-16303,15734,0.0
10114,-15992,15800,0.0
10089,-15686,15866,0.0
10088,-15422,15968,0.0
10053,-15105,16013,0.0
10054,-14845,16114,0.0
10258,-14882,16541,0.0
10537,-15017,17092,0.0
10683,-14952,17430,0.0
10952,-15050,17971,0.0
11273,-15207,18599,0.0
11552,-15294,19166,0.0
16524,-21463,27562,1.0
16584,-21128,27807,1.0
0,0,0,0.0
0,0,0,0.0
0,0,0,0.0
0,0,0,0.0
0,0,0,0.0
0,0,0,0.0
16743,-18460,29043,1.0
0,0,0,0.0
0,0,0,0.0
0,0,0,0.0
0,0,0,0.0
0,0,0,0.0
16919,-16222,30113,1.0
0,0,0,0.0
0,0,0,0.0
16835,-14946,30322,1.0
0,0,0,0.0
0,0,0,0.0
0,0,0,0.0
0,0,0,0.0
0,0,0,0.0
0,0,0,0.0
0,0,0,0.0
16850,-11798,31231,1.0
0,0,0,0.0
0,0,0,0.0
0,0,0,0.0
0,0,0,0.0
0,0,0,0.0
0,0,0,0.0
0,0,0,0.0
0,0,0,0.0
0,0,0,0.0
0,0,0,0.0
15594,-6922,29880,1.0
15574,-6551,29923,1.0
15628,-6209,30106,1.0
15565,-5821,30066,1.0
15982,-5603,30951,1.0
0,0,0,0.0
16022,-4866,31185,1.0
0,0,0,0.0
15790,-4053,30881,1.0
15722,-3665,30823,1.0
15742,-3298,30933,1.0
0,0,0,0.0
15557,-2523,30708,1.0
0,0,0,0.0
15508,-1777,30746,1.0
0,0,0,0.0
15360,-1025,30579,1.0
11023,-471,21991,0.0
10465,-195,20920,0.0
10118,54,20265,0.0
9760,289,19586,0.0
9297,502,18694,0.0
9669,757,19475,0.0
9755,1004,19685,0.0
9764,1244,19737,0.0
9803,1492,19853,0.0
9807,1735,19894,0.0
9805,1979,19922,0.0
9825,2229,19995,0.0
9836,2479,20049,0.0
9864,2735,20136,0.0
9874,2988,20188,0.0
9885,3244,20241,0.0
9883,3496,20266,0.0
9932,3770,20396,0.0
9928,4026,20415,0.0
9953,4295,20494,0.0
9990,4573,20597,0.0
9,4,21,0.0
10,5,22,0.0
15,7,31,0.0
14,8,30,0.0
17,10,36,0.0
23,15,50,0.0
19,12,39,0.0
27,18,59,0.0
28,19,60,0.0
31,22,65,0.0
30,23,64,0.0
31,25,66,0.0
39,32,84,0.0
37,32,80,0.0
35,30,73,0.0
37,33,77,0.0
43,40,90,0.0
43,42,91,0.0
42,42,89,0.0
43,44,91,0.0
46,49,97,0.0
41,45,88,0.0
48,54,102,0.0
44,51,93,0.0
46,55,99,0.0
50,60,105,0.0
42,53,91,0.0
40,52,86,0.0
47,63,101,0.0
44,60,95,0.0
43,61,93,0.0
45,65,97,0.0
47,69,99,0.0
45,66,95,0.0
43,67,94,0.0
48,74,101,0.0
45,72,96,0.0
48,78,102,0.0
47,79,99,0.0
48,83,102,0.0
47,83,100,0.0
49,88,104,0.0
50,92,107,0.0
49,93,105,0.0
50,97,107,0.0
51,101,109,0.0
53,105,111,0.0
51,106,110,0.0
50,106,107,0.0
52,111,109,0.0
52,113,110,0.0
53,118,112,0.0
53,121,112,0.0
54,125,113,0.0
56,131,116,0.0
54,132,114,0.0
59,143,122,0.0
55,140,116,0.0
82,-277,66,0.0
83,-277,68,0.0
82,-269,70,0.0
80,-258,70,0.0
84,-265,75,0.0
84,-263,77,0.0
83,-256,78,0.0
85,-261,82,0.0
87,-261,86,0.0
86,-254,87,0.0
87,-255,91,0.0
89,-258,94,0.0
90,-253,96,0.0
94,-264,103,0.0
93,-257,103,0.0
97,-261,109,0.0
95,-254,109,0.0
96,-253,112,0.0
98,-256,117,0.0
97,-247,116,0.0
102,-257,124,0.0
102,-253,125,0.0
104,-256,130,0.0
103,-249,130,0.0
108,-259,140,0.0
117,-275,152,0.0
118,-275,156,0.0
118,-270,158,0.0
115,-258,154,0.0
111,-246,152,0.0
111,-243,153,0.0
96,-205,133,0.0
92,-196,131,0.0
91,-191,130,0.0
10268,-21087,14693,0.0
10235,-20706,14782,0.0
10188,-20302,14847,0.0
10160,-19942,14938,0.0
10141,-19604,15038,0.0
10096,-19220,15099,0.0
10068,-18872,15179,0.0
10036,-18520,15252,0.0
10017,-18200,15344,0.0
9986,-17857,15412,0.0
9968,-17543,15499,0.0
9928,-17193,15550,0.0
9903,-16874,15621,0.0
9873,-16550,15682,0.0
9855,-16247,15758,0.0
9847,-15967,15852,0.0
9786,-15602,15856,0.0
9788,-15342,15961,0.0
9780,-15065,16046,0.0
9842,-14900,16247,0.0
9988,-14856,16586,0.0
10246,-14970,17114,0.0
10433,-14971,17528,0.0
10718,-15101,18107,0.0
11023,-15245,18725,0.0
11288,-15319,19277,0.0
0,0,0,0.0
0,0,0,0.0
0,0,0,0.0
0,0,0,0.0
0,0,0,0.0
0,0,0,0.0
16251,-19175,28735,1.0
0,0,0,0.0
0,0,0,0.0
0,0,0,0.0
0,0,0,0.0
0,0,0,0.0
0,0,0,0.0
16674,-16797,30395,1.0
0,0,0,0.0
0,0,0,0.0
16464,-15384,30373,1.0
0,0,0,0.0
16522,-14640,30712,1.0
0,0,0,0.0
0,0,0,0.0
0,0,0,0.0
0,0,0,0.0
0,0,0,0.0
0,0,0,0.0
0,0,0,0.0
0,0,0,0.0
0,0,0,0.0
0,0,0,0.0
0,0,0,0.0
0,0,0,0.0
0,0,0,0.0
0,0,0,0.0
0,0,0,0.0
0,0,0,0.0
0,0,0,0.0
15593,-7111,30703,1.0
15573,-6732,30748,1.0
15597,-6370,30875,1.0
15597,-5998,30957,1.0
0,0,0,0.0
0,0,0,0.0
15737,-4921,31474,1.0
15650,-4517,31377,1.0
0,0,0,0.0
15435,-3713,31096,1.0
15368,-3325,31030,1.0
15323,-2946,31012,1.0
15294,-2569,31022,1.0
0,0,0,0.0
15123,-1804,30809,1.0
0,0,0,0.0
0,0,0,0.0
10811,-495,22162,0.0
10219,-217,20991,0.0
9960,34,20501,0.0
9519,268,19631,0.0
9328,495,19272,0.0
9444,738,19550,0.0
9495,980,19692,0.0
9508,1219,19752,0.0
9513,1460,19797,0.0
9534,1706,19876,0.0
9501,1942,19842,0.0
9539,2194,19953,0.0
9552,2442,20011,0.0
9557,2690,20055,0.0
9605,2954,20187,0.0
9615,3207,20238,0.0
9607,3457,20252,0.0
9638,3723,20347,0.0
9657,3986,20415,0.0
9680,4254,20492,0.0
13,6,27,0.0
15,6,33,0.0
19,10,42,0.0
24,13,52,0.0
24,13,52,0.0
24,14,52,0.0
22,14,49,0.0
26,17,55,0.0
31,21,68,0.0
32,23,69,0.0
41,30,89,0.0
38,29,83,0.0
38,30,83,0.0
41,34,89,0.0
43,38,96,0.0
41,37,91,0.0
40,37,88,0.0
47,45,101,0.0
45,44,99,0.0
45,45,98,0.0
47,49,103,0.0
50,53,108,0.0
48,53,104,0.0
47,53,103,0.0
47,55,104,0.0
50,60,109,0.0
48,60,106,0.0
48,62,106,0.0
45,59,100,0.0
47,64,103,0.0
45,63,100,0.0
47,67,104,0.0
44,64,96,0.0
48,71,106,0.0
44,68,98,0.0
47,74,103,0.0
46,74,102,0.0
45,76,100,0.0
49,82,107,0.0
49,86,110,0.0
47,83,104,0.0
47,85,104,0.0
50,91,109,0.0
50,95,111,0.0
48,93,105,0.0
51,100,110,0.0
51,104,113,0.0
53,108,115,0.0
53,112,117,0.0
51,110,112,0.0
53,118,117,0.0
52,117,114,0.0
53,122,116,0.0
53,125,116,0.0
52,124,113,0.0
56,135,121,0.0
56,139,122,0.0
55,139,119,0.0
57,147,124,0.0
77,-268,64,0.0
76,-259,65,0.0
74,-251,65,0.0
77,-256,70,0.0
79,-257,73,0.0
79,-255,76,0.0
82,-259,80,0.0
82,-256,82,0.0
81,-251,84,0.0
82,-251,87,0.0
86,-259,92,0.0
85,-252,93,0.0
87,-256,98,0.0
86,-248,98,0.0
90,-257,105,0.0
91,-254,107,0.0
91,-251,109,0.0
92,-250,112,0.0
92,-246,113,0.0
94,-249,118,0.0
93,-241,118,0.0
93,-237,119,0.0
95,-240,124,0.0
95,-237,125,0.0
101,-250,136,0.0
107,-259,145,0.0
111,-265,152,0.0
114,-268,158,0.0
109,-254,153,0.0
100,-227,141,0.0
99,-222,141,0.0
93,-205,134,0.0
80,-176,117,0.0
87,-188,128,0.0
9942,-20966,14699,0.0
9909,-20586,14784,0.0
9879,-20215,14871,0.0
9858,-19864,14966,0.0
9823,-19495,15039,0.0
9797,-19146,15124,0.0
9761,-18781,15190,0.0
9731,-18434,15263,0.0
9710,-18105,15345,0.0
9686,-17776,15422,0.0
9654,-17436,15484,0.0
9626,-17106,15549,0.0
9608,-16798,15628,0.0
9595,-16503,15714,0.0
9562,-16175,15765,0.0
9546,-15881,15842,0.0
9496,-15532,15859,0.0
9269,-14904,15577,0.0
9477,-14978,16025,0.0
9589,-14892,16310,0.0
9779,-14921,16732,0.0
9954,-14919,17130,0.0
10180,-14982,17616,0.0
10455,-15109,18193,0.0
10729,-15220,18771,0.0
11013,-15331,19369,0.0
0,0,0,0.0
0,0,0,0.0
0,0,0,0.0
0,0,0,0.0
0,0,0,0.0
0,0,0,0.0
0,0,0,0.0
16111,-19086,29455,1.0
0,0,0,0.0
0,0,0,0.0
0,0,0,0.0
0,0,0,0.0
0,0,0,0.0
0,0,0,0.0
0,0,0,0.0
16342,-16071,30893,1.0
0,0,0,0.0
16279,-15201,31010,1.0
16235,-14758,31041,1.0
0,0,0,0.0
0,0,0,0.0
0,0,0,0.0
0,0,0,0.0
0,0,0,0.0
0,0,0,0.0
0,0,0,0.0
0,0,0,0.0
0,0,0,0.0
0,0,0,0.0
0,0,0,0.0
0,0,0,0.0
0,0,0,0.0
0,0,0,0.0
0,0,0,0.0
0,0,0,0.0
0,0,0,0.0
0,0,0,0.0
0,0,0,0.0
0,0,0,0.0
15510,-6136,31650,1.0
15501,-5753,31711,1.0
0,0,0,0.0
0,0,0,0.0
0,0,0,0.0
15357,-4191,31728,1.0
15266,-3790,31615,1.0
15056,-3365,31252,1.0
15010,-2983,31228,1.0
15009,-2611,31297,1.0
0,0,0,0.0
14923,-1853,31254,1.0
14872,-1476,31214,1.0
927,-68,1951,0.0
10556,-517,22248,0.0
9964,-237,21043,0.0
9722,13,20573,0.0
9323,249,19766,0.0
9218,482,19581,0.0
9231,718,19645,0.0
9245,956,19715,0.0
9262,1196,19785,0.0
9249,1434,19794,0.0
9254,1675,19838,0.0
9257,1917,19879,0.0
9272,2164,19945,0.0
9301,2415,20041,0.0
9311,2663,20093,0.0
9329,2917,20164,0.0
9346,3172,20233,0.0
9365,3430,20304,0.0
9364,3684,20334,0.0
9383,3946,20404,0.0
9417,4217,20506,0.0
10,4,23,0.0
11,5,25,0.0
9,4,20,0.0
9,5,22,0.0
18,11,41,0.0
16,9,35,0.0
28,18,64,0.0
29,19,65,0.0
24,17,55,0.0
20,15,47,0.0
35,26,78,0.0
33,26,75,0.0
40,32,89,0.0
43,36,97,0.0
38,34,88,0.0
38,35,87,0.0
42,41,96,0.0
41,39,92,0.0
44,43,98,0.0
41,43,93,0.0
41,44,92,0.0
42,46,95,0.0
41,47,92,0.0
43,51,99,0.0
41,50,93,0.0
45,55,101,0.0
47,61,107,0.0
44,58,101,0.0
40,55,92,0.0
46,64,105,0.0
43,62,98,0.0
40,58,90,0.0
40,60,91,0.0
43,65,96,0.0
42,66,96,0.0
43,71,100,0.0
47,77,106,0.0
43,72,97,0.0
45,79,103,0.0
41,73,93,0.0
44,79,99,0.0
42,80,98,0.0
45,86,103,0.0
46,89,104,0.0
49,97,111,0.0
47,94,105,0.0
45,93,101,0.0
47,101,107,0.0
47,103,107,0.0
50,111,113,0.0
50,114,115,0.0
50,115,113,0.0
51,119,114,0.0
51,122,114,0.0
50,123,113,0.0
51,129,115,0.0
51,133,117,0.0
49,130,111,0.0
49,131,111,0.0
74,-265,65,0.0
75,-266,67,0.0
73,-257,68,0.0
76,-260,72,0.0
78,-263,76,0.0
82,-271,81,0.0
80,-264,82,0.0
83,-266,86,0.0
80,-256,87,0.0
84,-267,93,0.0
83,-260,94,0.0
85,-261,97,0.0
86,-257,99,0.0
84,-249,99,0.0
89,-259,106,0.0
90,-259,110,0.0
90,-256,112,0.0
90,-253,114,0.0
93,-255,119,0.0
93,-255,122,0.0
92,-248,122,0.0
96,-254,129,0.0
95,-249,129,0.0
100,-256,137,0.0
106,-269,147,0.0
111,-278,157,0.0
115,-282,163,0.0
111,-268,158,0.0
106,-255,154,0.0
101,-237,148,0.0
96,-221,141,0.0
96,-217,142,0.0
85,-192,128,0.0
79,-173,119,0.0
9638,-20887,14730,0.0
9609,-20513,14818,0.0
9572,-20124,14889,0.0
9560,-19795,14997,0.0
9530,-19429,15072,0.0
9494,-19058,15137,0.0
9478,-18732,15231,0.0
9445,-18376,15295,0.0
9413,-18026,15358,0.0
9391,-17700,15435,0.0
9373,-17384,15515,0.0
9339,-17044,15569,0.0
9330,-16751,15658,0.0
9307,-16436,15725,0.0
9286,-16129,15793,0.0
9262,-15819,15853,0.0
9246,-15527,15926,0.0
9220,-15219,15977,0.0
9186,-14903,16015,0.0
9360,-14922,16414,0.0
9515,-14903,16782,0.0
9689,-14906,17187,0.0
9933,-15007,17717,0.0
10203,-15134,18297,0.0
10480,-15258,18892,0.0
15369,-21958,27850,1.0
15479,-21695,28192,1.0
0,0,0,0.0
0,0,0,0.0
0,0,0,0.0
0,0,0,0.0
0,0,0,0.0
0,0,0,0.0
0,0,0,0.0
0,0,0,0.0
0,0,0,0.0
0,0,0,0.0
0,0,0,0.0
0,0,0,0.0
0,0,0,0.0
0,0,0,0.0
0,0,0,0.0
0,0,0,0.0
0,0,0,0.0
0,0,0,0.0
0,0,0,0.0
0,0,0,0.0
0,0,0,0.0
0,0,0,0.0
0,0,0,0.0
0,0,0,0.0
0,0,0,0.0
0,0,0,0.0
0,0,0,0.0
0,0,0,0.0
0,0,0,0.0
15867,-10026,32478,1.0
15847,-9618,32536,1.0
0,0,0,0.0
0,0,0,0.0
0,0,0,0.0
0,0,0,0.0
0,0,0,0.0
0,0,0,0.0
0,0,0,0.0
0,0,0,0.0
0,0,0,0.0
0,0,0,0.0
0,0,0,0.0
0,0,0,0.0
15085,-4247,32056,1.0
14988,-3841,31925,1.0
0,0,0,0.0
14838,-3051,31752,1.0
14674,-2645,31471,1.0
0,0,0,0.0
0,0,0,0.0
14599,-1514,31517,1.0
14486,-1131,31339,1.0
10292,-538,22312,0.0
9722,-258,21119,0.0
9441,-6,20550,0.0
9096,230,19837,0.0
8956,460,19569,0.0
9002,698,19709,0.0
8988,932,19714,0.0
9004,1172,19786,0.0
8964,1404,19734,0.0
9018,1653,19889,0.0
9000,1889,19883,0.0
9021,2136,19966,0.0
9048,2387,20058,0.0
9038,2629,20068,0.0
9073,2887,20179,0.0
9073,3135,20210,0.0
9097,3394,20295,0.0
9094,3645,20319,0.0
9113,3907,20394,0.0
9115,4163,20428,0.0
12,5,28,0.0
9146,4694,20556,0.0
16,8,38,0.0
14,8,34,0.0
17,9,39,0.0
23,14,53,0.0
33,21,77,0.0
23,15,53,0.0
23,17,55,0.0
28,21,65,0.0
33,26,76,0.0
34,27,78,0.0
37,31,85,0.0
33,28,77,0.0
39,35,92,0.0
44,40,101,0.0
44,43,104,0.0
41,41,95,0.0
37,38,86,0.0
43,47,101,0.0
43,47,100,0.0
44,51,102,0.0
45,54,107,0.0
43,53,102,0.0
46,57,106,0.0
46,59,107,0.0
45,59,105,0.0
46,62,107,0.0
46,64,109,0.0
48,67,110,0.0
44,64,102,0.0
48,71,111,0.0
43,67,102,0.0
48,76,113,0.0
42,69,99,0.0
44,74,104,0.0
40,68,96,0.0
42,74,100,0.0
42,75,99,0.0
43,78,101,0.0
45,83,106,0.0
44,84,104,0.0
43,84,102,0.0
46,92,109,0.0
45,92,106,0.0
45,93,105,0.0
47,101,112,0.0
46,101,109,0.0
48,106,112,0.0
48,110,113,0.0
47,109,110,0.0
49,118,117,0.0
51,123,119,0.0
49,122,116,0.0
50,125,115,0.0
50,128,116,0.0
50,131,117,0.0
50,135,117,0.0
50,139,118,0.0
71,-263,65,0.0
67,-248,64,0.0
71,-255,68,0.0
72,-253,71,0.0
72,-251,73,0.0
73,-254,78,0.0
75,-255,80,0.0
76,-256,84,0.0
77,-253,86,0.0
80,-260,92,0.0
78,-251,92,0.0
80,-253,95,0.0
82,-254,99,0.0
81,-250,101,0.0
84,-252,105,0.0
86,-255,109,0.0
87,-254,112,0.0
86,-249,112,0.0
85,-244,114,0.0
88,-247,120,0.0
87,-240,119,0.0
89,-243,124,0.0
90,-243,127,0.0
90,-237,127,0.0
103,-267,147,0.0
100,-257,146,0.0
102,-258,149,0.0
100,-248,148,0.0
96,-237,145,0.0
87,-211,132,0.0
90,-213,136,0.0
86,-202,133,0.0
76,-177,120,0.0
9359,-21175,14662,0.0
9323,-20779,14738,0.0
9293,-20396,14817,0.0
9276,-20053,14918,0.0
9245,-19679,14991,0.0
9224,-19333,15078,0.0
9201,-18987,15160,0.0
9173,-18634,15230,0.0
9142,-18282,15294,0.0
9122,-17954,15373,0.0
9100,-17627,15447,0.0
9080,-17306,15521,0.0
9055,-16982,15586,0.0
9033,-16663,15651,0.0
9017,-16360,15725,0.0
8999,-16060,15797,0.0
8984,-15764,15869,0.0
8965,-15465,15932,0.0
8948,-15174,15999,0.0
8936,-14892,16071,0.0
9116,-14927,16489,0.0
9315,-14985,16945,0.0
9417,-14879,17226,0.0
9686,-15031,17817,0.0
9950,-15158,18397,0.0
10213,-15271,18982,0.0
14935,-21915,27901,1.0
0,0,0,0.0
15111,-21334,28511,1.0
0,0,0,0.0
0,0,0,0.0
0,0,0,0.0
0,0,0,0.0
0,0,0,0.0
0,0,0,0.0
0,0,0,0.0
0,0,0,0.0
0,0,0,0.0
0,0,0,0.0
15769,-17588,31230,1.0
0,0,0,0.0
0,0,0,0.0
0,0,0,0.0
15672,-15835,31518,1.0
0,0,0,0.0
0,0,0,0.0
0,0,0,0.0
0,0,0,0.0
0,0,0,0.0
0,0,0,0.0
0,0,0,0.0
0,0,0,0.0
15763,-12259,32702,1.0
0,0,0,0.0
0,0,0,0.0
0,0,0,0.0
0,0,0,0.0
0,0,0,0.0
0,0,0,0.0
0,0,0,0.0
0,0,0,0.0
15171,-8302,32331,1.0
0,0,0,0.0
0,0,0,0.0
0,0,0,0.0
0,0,0,0.0
0,0,0,0.0
0,0,0,0.0
0,0,0,0.0
0,0,0,0.0
0,0,0,0.0
14846,-4314,32464,1.0
0,0,0,0.0
0,0,0,0.0
0,0,0,0.0
0,0,0,0.0
14459,-2324,31983,1.0
14389,-1936,31896,1.0
0,0,0,0.0
0,0,0,0.0
10018,-558,22351,0.0
9492,-278,21219,0.0
9186,-26,20577,0.0
8876,211,19923,0.0
8695,439,19555,0.0
8724,674,19658,0.0
8722,909,19689,0.0
8730,1146,19747,0.0
8746,1385,19819,0.0
8728,1621,19814,0.0
8751,1865,19900,0.0
8754,2106,19945,0.0
8775,2354,20024,0.0
8787,2602,20087,0.0
8796,2850,20141,0.0
8809,3102,20204,0.0
8827,3357,20276,0.0
8843,3615,20345,0.0
8857,3873,20410,0.0
8881,4139,20495,0.0
8891,4401,20548,0.0
8864,4647,20517,0.0
14,7,34,0.0
23,13,55,0.0
17,10,40,0.0
16,10,39,0.0
22,14,53,0.0
21,15,51,0.0
18,13,44,0.0
30,23,73,0.0
26,21,62,0.0
39,33,95,0.0
33,28,78,0.0
27,24,65,0.0
40,37,95,0.0
32,30,77,0.0
38,37,90,0.0
36,37,88,0.0
40,42,94,0.0
42,45,99,0.0
42,47,99,0.0
40,47,98,0.0
42,51,103,0.0
42,52,101,0.0
42,53,100,0.0
38,50,92,0.0
39,51,93,0.0
39,54,94,0.0
39,56,95,0.0
38,55,91,0.0
43,64,105,0.0
41,64,101,0.0
41,64,99,0.0
43,70,105,0.0
38,63,93,0.0
39,67,95,0.0
40,71,99,0.0
38,68,93,0.0
40,72,97,0.0
41,78,101,0.0
41,78,99,0.0
41,81,102,0.0
42,85,103,0.0
41,85,101,0.0
42,89,104,0.0
44,93,106,0.0
41,90,99,0.0
42,94,102,0.0
45,102,108,0.0
42,98,103,0.0
45,107,109,0.0
45,111,110,0.0
46,115,112,0.0
46,118,113,0.0
47,123,114,0.0
45,121,110,0.0
47,129,115,0.0
47,133,115,0.0
47,133,114,0.0
67,-260,65,0.0
69,-263,68,0.0
69,-258,71,0.0
71,-261,74,0.0
71,-258,76,0.0
72,-259,80,0.0
74,-257,82,0.0
74,-256,84,0.0
75,-255,88,0.0
78,-264,93,0.0
76,-254,93,0.0
77,-250,96,0.0
81,-260,102,0.0
81,-256,104,0.0
85,-262,110,0.0
83,-252,108,0.0
83,-252,112,0.0
86,-255,116,0.0
85,-250,118,0.0
88,-254,124,0.0
86,-246,123,0.0
88,-244,126,0.0
90,-249,131,0.0
91,-250,135,0.0
101,-273,151,0.0
99,-261,149,0.0
102,-264,155,0.0
97,-249,150,0.0
98,-247,152,0.0
89,-221,140,0.0
82,-203,131,0.0
76,-184,122,0.0
73,-174,119,0.0
9047,-21069,14671,0.0
9029,-20709,14771,0.0
8997,-20322,14844,0.0
8976,-19964,14933,0.0
8956,-19615,15022,0.0
8929,-19255,15096,0.0
8906,-18906,15173,0.0
8873,-18544,15233,0.0
8855,-18215,15314,0.0
8845,-17906,15407,0.0
8806,-17543,15448,0.0
8794,-17238,15532,0.0
8776,-16925,15606,0.0
8769,-16633,15694,0.0
8745,-16316,15753,0.0
8719,-15997,15805,0.0
8701,-15697,15871,0.0
8694,-15419,15953,0.0
8668,-15109,15999,0.0
8656,-14829,16070,0.0
8839,-14878,16502,0.0
9073,-15003,17034,0.0
9179,-14907,17326,0.0
9432,-15042,17899,0.0
9676,-15149,18457,0.0
9928,-15257,19037,0.0
0,0,0,0.0
0,0,0,0.0
0,0,0,0.0
14760,-20996,28857,1.0
0,0,0,0.0
0,0,0,0.0
0,0,0,0.0
15235,-19967,30331,1.0
15335,-19673,30663,1.0
0,0,0,0.0
15473,-19000,31201,1.0
0,0,0,0.0
0,0,0,0.0
15478,-17740,31589,1.0
0,0,0,0.0
0,0,0,0.0
0,0,0,0.0
0,0,0,0.0
0,0,0,0.0
0,0,0,0.0
0,0,0,0.0
0,0,0,0.0
0,0,0,0.0
15310,-13452,32394,1.0
0,0,0,0.0
0,0,0,0.0
0,0,0,0.0
0,0,0,0.0
0,0,0,0.0
0,0,0,0.0
0,0,0,0.0
0,0,0,0.0
15311,-9828,33315,1.0
0,0,0,0.0
0,0,0,0.0
0,0,0,0.0
0,0,0,0.0
0,0,0,0.0
0,0,0,0.0
0,0,0,0.0
0,0,0,0.0
0,0,0,0.0
0,0,0,0.0
0,0,0,0.0
14572,-4758,32729,1.0
14529,-4359,32712,1.0
0,0,0,0.0
0,0,0,0.0
14476,-3190,32823,1.0
0,0,0,0.0
0,0,0,0.0
0,0,0,0.0
0,0,0,0.0
13930,-1203,31934,1.0
9745,-578,22387,0.0
9264,-298,21328,0.0
8900,-44,20531,0.0
8651,192,19997,0.0
8421,417,19502,0.0
8448,651,19604,0.0
8441,884,19623,0.0
8451,1119,19686,0.0
8470,1358,19769,0.0
8501,1601,19875,0.0
8484,1836,19873,0.0
8505,2081,19956,0.0
8504,2321,19989,0.0
8514,2567,20049,0.0
8521,2813,20098,0.0
8546,3068,20190,0.0
8562,3322,20262,0.0
8588,3583,20356,0.0
8602,3841,20422,0.0
8580,4085,20403,0.0
11,5,29,0.0
10,5,26,0.0
14,8,36,0.0
18,10,44,0.0
20,12,50,0.0
23,15,57,0.0
16,11,41,0.0
21,15,52,0.0
28,21,70,0.0
26,21,66,0.0
26,21,64,0.0
32,27,79,0.0
35,31,88,0.0
33,30,83,0.0
33,31,81,0.0
35,35,89,0.0
39,40,96,0.0
37,38,90,0.0
34,36,84,0.0
37,41,91,0.0
39,44,95,0.0
39,47,99,0.0
38,47,95,0.0
44,55,109,0.0
42,55,105,0.0
42,56,105,0.0
43,60,109,0.0
41,58,102,0.0
43,64,110,0.0
40,59,98,0.0
40,61,101,0.0
42,66,104,0.0
38,62,96,0.0
38,63,95,0.0
39,68,99,0.0
42,75,107,0.0
39,68,96,0.0
37,69,95,0.0
41,76,102,0.0
36,70,92,0.0
38,74,94,0.0
39,78,98,0.0
40,84,101,0.0
42,90,106,0.0
40,87,101,0.0
39,88,100,0.0
42,95,106,0.0
41,95,102,0.0
42,100,106,0.0
42,103,107,0.0
44,108,110,0.0
44,112,112,0.0
44,112,110,0.0
42,112,107,0.0
45,123,115,0.0
45,123,113,0.0
45,126,113,0.0
45,130,114,0.0
46,133,114,0.0
68,-269,68,0.0
66,-261,69,0.0
69,-266,73,0.0
70,-265,76,0.0
70,-259,77,0.0
71,-263,82,0.0
72,-262,85,0.0
73,-263,87,0.0
74,-259,89,0.0
77,-270,96,0.0
78,-264,99,0.0
80,-267,102,0.0
80,-264,104,0.0
79,-256,104,0.0
83,-267,112,0.0
82,-259,112,0.0
83,-259,116,0.0
83,-255,117,0.0
86,-259,123,0.0
86,-256,125,0.0
85,-252,127,0.0
87,-252,130,0.0
88,-254,134,0.0
89,-250,136,0.0
95,-263,147,0.0
97,-265,153,0.0
96,-259,152,0.0
97,-258,156,0.0
95,-246,152,0.0
90,-232,147,0.0
84,-213,139,0.0
80,-200,133,0.0
80,-196,134,0.0
8762,-21021,14719,0.0
8722,-20608,14779,0.0
8706,-20254,14874,0.0
8680,-19885,14952,0.0
8662,-19535,15039,0.0
8636,-19174,15110,0.0
8613,-18827,15185,0.0
8599,-18501,15273,0.0
8578,-18164,15345,0.0
8557,-17832,15416,0.0
8541,-17512,15492,0.0
8521,-17190,15560,0.0
8498,-16866,15622,0.0
8491,-16574,15709,0.0
8463,-16247,15756,0.0
8448,-15949,15826,0.0
8432,-15650,15890,0.0
8415,-15354,15953,0.0
8394,-15053,16005,0.0
8437,-14868,16178,0.0
8567,-14835,16520,0.0
8814,-14992,17088,0.0
8936,-14927,17416,0.0
9185,-15067,17996,0.0
9418,-15166,18548,0.0
9671,-15285,19141,0.0
14143,-21932,28129,1.0
14236,-21657,28452,1.0
0,0,0,0.0
0,0,0,0.0
0,0,0,0.0
14597,-20507,29715,1.0
0,0,0,0.0
0,0,0,0.0
0,0,0,0.0
0,0,0,0.0
0,0,0,0.0
0,0,0,0.0
0,0,0,0.0
0,0,0,0.0
0,0,0,0.0
0,0,0,0.0
0,0,0,0.0
0,0,0,0.0
0,0,0,0.0
0,0,0,0.0
0,0,0,0.0
0,0,0,0.0
0,0,0,0.0
0,0,0,0.0
0,0,0,0.0
0,0,0,0.0
0,0,0,0.0
0,0,0,0.0
0,0,0,0.0
0,0,0,0.0
0,0,0,0.0
0,0,0,0.0
0,0,0,0.0
0,0,0,0.0
0,0,0,0.0
0,0,0,0.0
0,0,0,0.0
0,0,0,0.0
0,0,0,0.0
0,0,0,0.0
0,0,0,0.0
0,0,0,0.0
14376,-5625,33102,1.0
0,0,0,0.0
0,0,0,0.0
0,0,0,0.0
0,0,0,0.0
0,0,0,0.0
0,0,0,0.0
0,0,0,0.0
0,0,0,0.0
0,0,0,0.0
0,0,0,0.0
13621,-1236,32173,1.0
9505,-600,22499,0.0
9038,-318,21438,0.0
8626,-63,20502,0.0
8401,173,20008,0.0
8205,400,19580,0.0
8224,633,19666,0.0
8197,863,19638,0.0
8198,1096,19678,0.0
8198,1330,19717,0.0
8232,1572,19836,0.0
8231,1810,19868,0.0
8254,2054,19961,0.0
8264,2297,20020,0.0
8279,2544,20093,0.0
8284,2790,20141,0.0
8283,3035,20171,0.0
8307,3291,20265,0.0
8336,3552,20371,0.0
8328,3800,20386,0.0
17,8,43,0.0
14,7,38,0.0
16,9,41,0.0
19,11,47,0.0
20,12,51,0.0
19,12,47,0.0
19,12,49,0.0
24,16,62,0.0
29,21,73,0.0
26,20,67,0.0
29,22,72,0.0
29,24,74,0.0
34,30,86,0.0
34,31,88,0.0
35,33,90,0.0
33,32,84,0.0
32,33,84,0.0
34,36,89,0.0
39,42,100,0.0
38,42,97,0.0
39,46,102,0.0
36,44,95,0.0
41,51,108,0.0
40,50,102,0.0
43,55,109,0.0
40,54,104,0.0
38,54,100,0.0
42,59,108,0.0
42,61,109,0.0
40,60,105,0.0
42,64,109,0.0
42,67,110,0.0
40,65,105,0.0
39,64,101,0.0
37,63,96,0.0
39,67,100,0.0
38,69,99,0.0
39,71,101,0.0
36,69,96,0.0
38,73,98,0.0
35,70,92,0.0
38,78,100,0.0
38,78,99,0.0
37,79,98,0.0
38,83,100,0.0
39,86,102,0.0
39,88,101,0.0
39,91,102,0.0
41,99,108,0.0
40,99,106,0.0
40,100,105,0.0
40,103,107,0.0
42,111,112,0.0
43,115,113,0.0
43,116,112,0.0
43,118,111,0.0
43,123,113,0.0
43,126,114,0.0
44,132,117,0.0
44,134,116,0.0
66,-274,70,0.0
65,-268,71,0.0
68,-276,77,0.0
70,-276,80,0.0
71,-274,82,0.0
70,-267,84,0.0
73,-277,90,0.0
71,-263,89,0.0
74,-269,94,0.0
76,-272,98,0.0
76,-269,100,0.0
77,-269,104,0.0
78,-270,108,0.0
78,-267,110,0.0
81,-270,115,0.0
82,-267,117,0.0
82,-266,119,0.0
83,-263,123,0.0
84,-263,126,0.0
88,-270,133,0.0
84,-256,129,0.0
87,-259,134,0.0
89,-263,140,0.0
88,-256,140,0.0
96,-275,155,0.0
98,-275,159,0.0
97,-272,160,0.0
97,-266,161,0.0
91,-244,152,0.0
88,-235,150,0.0
83,-217,142,0.0
78,-202,136,0.0
78,-198,136,0.0
8451,-20904,14717,0.0
8429,-20529,14800,0.0
8414,-20179,14896,0.0
8394,-19819,14979,0.0
8375,-19468,15062,0.0
8350,-19106,15131,0.0
8330,-18761,15205,0.0
8317,-18439,15294,0.0
8290,-18085,15351,0.0
8279,-17771,15435,0.0
8265,-17457,15514,0.0
8247,-17136,15582,0.0
8219,-16798,15629,0.0
8208,-16500,15706,0.0
8193,-16198,15775,0.0
8176,-15893,15838,0.0
8124,-15527,15831,0.0
8147,-15307,15969,0.0
8139,-15028,16041,0.0
8202,-14879,16254,0.0
8335,-14856,16608,0.0
8551,-14971,17129,0.0
8696,-14954,17513,0.0
8932,-15080,18078,0.0
9161,-15184,18636,0.0
9397,-15286,19212,0.0
0,0,0,0.0
0,0,0,0.0
0,0,0,0.0
0,0,0,0.0
0,0,0,0.0
14180,-20501,29801,1.0
0,0,0,0.0
0,0,0,0.0
0,0,0,0.0
0,0,0,0.0
0,0,0,0.0
0,0,0,0.0
0,0,0,0.0
14963,-18146,32490,1.0
0,0,0,0.0
0,0,0,0.0
0,0,0,0.0
0,0,0,0.0
14763,-15803,32645,1.0
0,0,0,0.0
0,0,0,0.0
0,0,0,0.0
0,0,0,0.0
0,0,0,0.0
0,0,0,0.0
0,0,0,0.0
14795,-12526,33594,1.0
0,0,0,0.0
0,0,0,0.0
0,0,0,0.0
0,0,0,0.0
0,0,0,0.0
0,0,0,0.0
0,0,0,0.0
0,0,0,0.0
0,0,0,0.0
0,0,0,0.0
14256,-7732,33409,1.0
0,0,0,0.0
0,0,0,0.0
0,0,0,0.0
14026,-6055,33213,1.0
0,0,0,0.0
13912,-5232,33105,1.0
0,0,0,0.0
13925,-4462,33298,1.0
0,0,0,0.0
0,0,0,0.0
13785,-3260,33197,1.0
0,0,0,0.0
13618,-2455,32944,1.0
13435,-2043,32571,1.0
0,0,0,0.0
13251,-1263,32265,1.0
9297,-622,22688,0.0
8810,-338,21545,0.0
8391,-81,20564,0.0
8148,155,20008,0.0
7948,380,19557,0.0
7940,610,19578,0.0
7949,843,19638,0.0
7940,1074,19654,0.0
7978,1313,19787,0.0
7986,1549,19843,0.0
7991,1787,19892,0.0
8003,2028,19960,0.0
8023,2274,20048,0.0
8010,2511,20051,0.0
8027,2760,20131,0.0
8047,3011,20215,0.0
8045,3257,20246,0.0
8069,3515,20341,0.0
8077,3769,20398,0.0
9,4,25,0.0
15,8,41,0.0
17,9,44,0.0
17,10,45,0.0
20,12,51,0.0
20,12,52,0.0
26,18,69,0.0
28,19,71,0.0
25,18,67,0.0
23,18,63,0.0
31,26,84,0.0
36,30,93,0.0
31,28,83,0.0
37,35,98,0.0
33,32,88,0.0
38,38,100,0.0
34,36,91,0.0
41,44,109,0.0
40,45,105,0.0
41,48,110,0.0
35,41,92,0.0
40,49,105,0.0
44,56,116,0.0
41,53,109,0.0
39,53,104,0.0
43,59,114,0.0
45,62,118,0.0
44,64,117,0.0
43,64,114,0.0
39,61,106,0.0
44,70,117,0.0
40,66,108,0.0
38,65,103,0.0
43,73,115,0.0
44,78,119,0.0
